ply
format ascii 1.0
element vertex 558
property float32 x
property float32 y
property float32 z
property float32 I
end_header
2.9967 5.6666 1.7176 0.9738
2.1748 5.6716 1.6276 0.9752
0.0301 5.6848 1.5233 0.9767
-0.6571 5.6890 1.5345 0.9766
-1.3649 5.6934 1.5688 0.9760
-2.1160 5.6980 1.6286 0.9751
-2.9392 5.7030 1.7191 0.9738
-27.3252 19.2516 8.9564 0.8707
-7.5563 2.9585 2.1744 0.9670
-48.5992 -11.2907 13.3689 0.8133
-56.2306 -28.4819 16.8895 0.7703
-24.3872 -34.1036 11.2340 0.8406
-11.3225 -42.5773 11.8051 0.8332
23.3400 -46.8928 14.0352 0.8050
35.2010 17.2133 10.4994 0.8502
26.2615 21.9137 9.1648 0.8679
27.3053 29.0113 10.6751 0.8479
1.5948 5.6752 1.5796 0.9759
0.8797 5.6796 1.5400 0.9765
0.1897 5.6838 1.5238 0.9767
-1.1967 5.6923 1.5586 0.9762
-2.7388 5.7018 1.6949 0.9741
-19.2093 23.3519 8.1021 0.8823
-21.8301 20.8373 8.0863 0.8825
-25.7446 19.2419 8.6121 0.8754
3.9291 5.6608 1.5909 0.9721
2.9967 5.6666 1.4799 0.9740
2.1748 5.6716 1.4024 0.9754
1.4244 5.6762 1.3511 0.9763
0.7171 5.6806 1.3219 0.9768
-1.3649 5.6934 1.3517 0.9763
-2.1160 5.6980 1.4033 0.9754
-2.9392 5.7030 1.4812 0.9740
-3.8735 5.7088 1.5927 0.9721
-4.9772 5.7156 1.7497 0.9694
-21.8543 19.7179 6.7955 0.8862
-28.0411 19.7560 7.9192 0.8686
-7.5557 2.9583 1.8733 0.9672
-63.6815 -14.7945 15.0936 0.7646
-56.0195 -28.3750 14.4976 0.7728
-25.8924 -36.2085 10.2768 0.8330
-18.4103 -33.6604 8.8575 0.8543
-12.6445 -31.6391 7.8662 0.8695
-11.5500 -43.4330 10.3758 0.8315
31.1248 -47.2874 13.0698 0.7926
51.7843 -28.7972 13.6796 0.7841
22.3727 -0.5897 5.1669 0.9122
51.8222 11.2749 12.2440 0.8044
27.2668 22.7525 8.1988 0.8643
5.3199 5.6523 1.7920 0.9686
4.1683 5.6594 1.6227 0.9716
2.3590 5.6705 1.4179 0.9751
1.5948 5.6752 1.3610 0.9761
0.1897 5.6838 1.3129 0.9769
-1.9354 5.6969 1.3891 0.9756
-3.6428 5.7074 1.5632 0.9726
-4.7002 5.7139 1.7081 0.9701
-27.0936 20.2502 7.8091 0.8704
5.0298 5.6541 1.4710 0.9696
3.9291 5.6608 1.3394 0.9723
2.9967 5.6666 1.2460 0.9742
1.4244 5.6762 1.1376 0.9764
0.7171 5.6806 1.1130 0.9769
-2.9392 5.7030 1.2471 0.9742
-3.8735 5.7088 1.3410 0.9723
-4.9772 5.7156 1.4732 0.9696
-6.3441 5.7240 1.6609 0.9658
-8.1379 5.7334 1.9350 0.9602
-5.1444 2.7670 1.1354 0.9765
-7.5550 2.9580 1.5771 0.9675
-65.1871 -43.5654 15.2403 0.7265
-14.6469 -36.6495 7.6718 0.8514
15.8806 -44.6750 9.2163 0.8243
51.7054 -47.9848 13.7117 0.7502
51.5767 -28.6817 11.4714 0.7863
47.8601 16.6354 9.8490 0.8135
35.2011 17.2134 7.6167 0.8524
26.7333 17.3283 6.1926 0.8783
6.7631 5.6434 1.7122 0.9647
5.3199 5.6523 1.5088 0.9689
3.2027 5.6653 1.2650 0.9738
2.3590 5.6705 1.1938 0.9753
1.5948 5.6752 1.1459 0.9763
0.8797 5.6796 1.1172 0.9769
0.1897 5.6838 1.1054 0.9771
-1.1967 5.6923 1.1307 0.9766
-2.7388 5.7018 1.2295 0.9746
-3.6428 5.7074 1.3161 0.9728
-4.7002 5.7139 1.4382 0.9703
-5.9944 5.7218 1.6108 0.9668
5.0298 5.6541 1.1986 0.9698
3.9291 5.6608 1.0914 0.9725
2.9967 5.6666 1.0153 0.9744
1.4244 5.6762 0.9269 0.9766
0.7171 5.6806 0.9069 0.9771
-0.6571 5.6890 0.9070 0.9771
-2.1160 5.6980 0.9627 0.9757
-2.9392 5.7030 1.0162 0.9744
-3.8735 5.7088 1.0927 0.9724
-4.9772 5.7156 1.2004 0.9698
-6.3441 5.7240 1.3533 0.9660
-5.1441 2.7668 0.9251 0.9766
-7.5544 2.9578 1.2849 0.9677
-87.7642 22.6805 14.3572 0.6927
-71.1346 -36.0311 12.6295 0.7240
-64.6966 -43.2376 12.3246 0.7297
-33.4524 -36.5576 7.8485 0.8182
-13.8384 -34.6266 5.9061 0.8598
16.1081 -45.3149 7.6171 0.8230
29.7069 -45.1333 8.5579 0.8035
52.0038 -48.2617 11.2370 0.7503
51.5256 -37.3950 10.0836 0.7727
52.0251 -28.9311 9.4284 0.7858
67.7511 -27.6297 11.5887 0.7435
57.5754 -15.7445 9.4539 0.7853
51.8222 11.2749 8.3998 0.8067
35.2011 17.2134 6.2062 0.8533
26.7334 17.3283 5.0458 0.8790
6.7631 5.6434 1.3951 0.9650
5.3199 5.6523 1.2294 0.9691
4.1683 5.6594 1.1132 0.9719
1.5948 5.6752 0.9337 0.9764
0.1897 5.6838 0.9007 0.9772
-0.4936 5.6645 0.9006 0.9772
-4.7002 5.7139 1.1718 0.9705
-7.6693 5.7321 1.5165 0.9620
5.0298 5.6541 0.9292 0.9700
0.7171 5.6806 0.7030 0.9772
-0.6571 5.6890 0.7032 0.9772
-1.3649 5.6934 0.7189 0.9767
-2.1160 5.6980 0.7463 0.9758
-2.9392 5.7030 0.7878 0.9745
-3.8735 5.7088 0.8471 0.9726
-4.9772 5.7156 0.9306 0.9699
-6.3441 5.7240 1.0492 0.9662
-5.1440 2.7668 0.7172 0.9767
-31.5908 -34.5232 5.7458 0.8281
-12.9517 -18.1119 2.7341 0.9142
-10.3977 -39.0998 4.9677 0.8495
15.7409 -44.2819 5.7704 0.8275
29.7069 -45.1333 6.6344 0.8043
48.8595 -45.3437 8.1846 0.7644
51.5256 -37.3950 7.8171 0.7737
52.0750 -28.9588 7.3162 0.7865
56.0917 -15.3387 7.1401 0.7911
56.1704 -8.2965 6.9717 0.7955
56.1769 -1.4807 6.9001 0.7973
52.7559 4.9705 6.5063 0.8077
51.9223 11.2967 6.5244 0.8072
47.8601 16.6354 6.2213 0.8153
35.2011 17.2134 4.8112 0.8539
5.3199 5.6523 0.9531 0.9692
4.1683 5.6594 0.8630 0.9721
3.2027 5.6653 0.7991 0.9741
1.5948 5.6752 0.7238 0.9765
0.8797 5.6796 0.7057 0.9771
-1.1967 5.6923 0.7142 0.9768
-2.7388 5.7018 0.7767 0.9748
-4.7002 5.7139 0.9084 0.9706
-5.9944 5.7218 1.0175 0.9672
-7.6693 5.7321 1.1756 0.9621
-10.0003 5.7464 1.4162 0.9546
5.0298 5.6541 0.6621 0.9701
3.9291 5.6608 0.6029 0.9727
1.4244 5.6762 0.5120 0.9768
0.7171 5.6806 0.5009 0.9773
0.0301 5.6848 0.4974 0.9774
-0.6571 5.6890 0.5010 0.9773
-1.3649 5.6934 0.5122 0.9768
-2.9392 5.7030 0.5613 0.9746
-3.8735 5.7088 0.6036 0.9727
-5.1439 2.7667 0.5110 0.9768
-7.5522 2.9569 0.7096 0.9680
-73.8770 -37.4202 7.2452 0.7171
-18.9027 -34.5607 3.4464 0.8537
-14.6469 -36.6496 3.4530 0.8534
-11.5500 -43.4330 3.9320 0.8349
-11.2992 -80.4011 7.1033 0.7218
29.7069 -45.1333 4.7272 0.8050
38.2131 -45.1468 5.1748 0.7886
48.6493 -45.1487 5.8067 0.7661
51.5256 -37.3950 5.5700 0.7744
51.5767 -28.6817 5.1632 0.7890
56.0102 -22.8416 5.2921 0.7844
55.9639 -15.3038 5.0760 0.7922
56.0997 -8.2861 4.9613 0.7964
56.0488 -1.4773 4.9053 0.7984
51.8222 11.2749 4.6399 0.8082
46.4467 16.1441 4.3020 0.8208
35.2011 17.2134 3.4282 0.8544
26.7334 17.3283 2.7872 0.8799
5.3199 5.6523 0.6791 0.9693
3.2027 5.6653 0.5694 0.9742
0.8797 5.6796 0.5028 0.9772
-0.4936 5.6645 0.4975 0.9774
-1.9354 5.6969 0.5264 0.9761
-4.7002 5.7139 0.6473 0.9707
-5.9944 5.7218 0.7250 0.9673
-20.0032 5.7731 1.8215 0.9198
5.0298 5.6541 0.3966 0.9701
2.9967 5.6666 0.3359 0.9747
1.4244 5.6762 0.3067 0.9768
0.7171 5.6806 0.3001 0.9773
0.0301 5.6848 0.2979 0.9775
-0.6560 5.6794 0.2996 0.9774
-1.3623 5.6826 0.3062 0.9769
-2.9300 5.6852 0.3352 0.9747
-3.8637 5.6943 0.3606 0.9728
-4.9772 5.7156 0.3972 0.9701
-6.3441 5.7240 0.4478 0.9664
-8.1379 5.7334 0.5217 0.9609
-5.1439 2.7667 0.3061 0.9769
-22.5345 5.8235 1.2198 0.9110
-12.9495 -18.1089 1.1667 0.9147
-9.9066 -37.2530 2.0202 0.8569
-11.2992 -80.4011 4.2550 0.7224
22.4170 -45.0385 2.6366 0.8175
29.7069 -45.1332 2.8317 0.8054
51.5256 -37.3950 3.3366 0.7749
52.0252 -28.9311 3.1197 0.7879
61.0779 -24.9083 3.4569 0.7678
61.0224 -16.6871 3.3155 0.7762
60.9221 -1.6057 3.1939 0.7834
44.8713 4.2276 2.3620 0.8348
35.2011 17.2134 2.0536 0.8547
26.7334 17.3283 1.6696 0.8802
6.7492 5.6318 0.4607 0.9654
3.2027 5.6653 0.3411 0.9743
0.1897 5.6838 0.2980 0.9775
-0.4936 5.6645 0.2980 0.9775
-1.1944 5.6814 0.3043 0.9770
-2.7299 5.6833 0.3304 0.9751
-7.6693 5.7321 0.5018 0.9624
5.0298 5.6541 0.1321 0.9702
2.9967 5.6666 0.1119 0.9747
2.1748 5.6716 0.1060 0.9760
-0.6560 5.6794 0.0998 0.9774
-2.9144 5.6549 0.1110 0.9749
-4.9772 5.7156 0.1323 0.9701
-7.5496 2.9559 0.1415 0.9681
-81.9536 -8.8839 1.4389 0.7191
-76.6990 -17.8187 1.3744 0.7298
-70.2641 -35.5902 1.3748 0.7297
-18.9027 -34.5607 0.6876 0.8542
-9.3393 -66.4547 1.1714 0.7645
27.7449 -42.1523 0.8808 0.8172
37.6363 -27.3148 0.8117 0.8302
47.8603 16.6355 0.8844 0.8165
35.2011 17.2134 0.6840 0.8549
7.1309 5.9504 0.1621 0.9635
3.2027 5.6653 0.1136 0.9743
2.3590 5.6705 0.1072 0.9757
0.1897 5.6838 0.0993 0.9775
-1.9272 5.6726 0.1046 0.9763
-2.7176 5.6579 0.1096 0.9752
-4.7002 5.7139 0.1291 0.9708
-7.6693 5.7321 0.1671 0.9624
-9.9690 5.7284 0.2007 0.9550
-13.5960 5.7685 0.2578 0.9426
5.0298 5.6541 -0.1321 0.9702
2.9967 5.6666 -0.1119 0.9747
0.7171 5.6806 -0.0999 0.9774
-2.1018 5.6597 -0.1054 0.9761
-2.9038 5.6343 -0.1106 0.9750
-4.9772 5.7156 -0.1323 0.9701
-6.3441 5.7240 -0.1491 0.9664
-8.1379 5.7334 -0.1738 0.9610
-7.5483 2.9554 -0.1415 0.9681
-22.2548 5.7512 -0.4012 0.9121
-62.8042 0.7732 -1.0963 0.7778
-68.9585 -7.4751 -1.2107 0.7577
-55.6744 -12.9343 -0.9977 0.7956
-69.1970 -46.2453 -1.4527 0.7168
-29.6969 -25.4960 -0.6832 0.8551
-12.9451 -18.1027 -0.3885 0.9148
21.8794 -97.2707 -1.7403 0.6711
24.0011 -67.5191 -1.2508 0.7508
26.1320 -30.8735 -0.7060 0.8506
42.7855 -23.7930 -0.8545 0.8221
69.4095 -28.3060 -1.3084 0.7409
25.4117 5.5288 -0.4539 0.9012
35.2011 17.2134 -0.6840 0.8549
7.1309 5.9504 -0.1621 0.9635
5.3199 5.6523 -0.1355 0.9694
3.2027 5.6653 -0.1136 0.9743
1.5948 5.6752 -0.1029 0.9767
0.8797 5.6796 -0.1003 0.9773
-1.9224 5.6586 -0.1043 0.9764
-3.5924 5.6284 -0.1165 0.9736
-5.9944 5.7218 -0.1446 0.9674
-7.6693 5.7321 -0.1671 0.9624
-31.8595 5.1638 -0.5634 0.8789
5.0298 5.6541 -0.3966 0.9701
2.9967 5.6666 -0.3359 0.9747
1.4244 5.6762 -0.3067 0.9768
0.7171 5.6806 -0.3001 0.9773
0.0301 5.6848 -0.2979 0.9775
-0.6560 5.6794 -0.2996 0.9774
-4.9772 5.7156 -0.3972 0.9701
-6.3441 5.7240 -0.4478 0.9664
-7.5470 2.9549 -0.4248 0.9681
-31.8007 4.2417 -1.6814 0.8794
-45.1048 0.5553 -2.3640 0.8347
-44.5715 -4.8316 -2.3496 0.8356
-43.6696 -10.1453 -2.3496 0.8356
-44.8661 -16.3043 -2.5018 0.8260
-29.5706 -25.3876 -2.0425 0.8555
-21.1918 -23.1589 -1.6452 0.8818
-9.7095 -24.2951 -1.3712 0.9005
-0.9228 -47.7279 -2.5018 0.8260
10.4758 -46.5731 -2.5018 0.8260
23.6918 -35.9946 -2.2583 0.8415
24.3453 -28.7627 -1.9750 0.8599
36.2839 -26.3333 -2.3496 0.8356
46.0462 -12.5917 -2.5018 0.8260
47.2244 -6.9752 -2.5018 0.8260
47.7202 -1.2578 -2.5018 0.8260
21.1529 13.7111 -1.3211 0.9040
7.1309 5.9504 -0.4867 0.9635
5.3199 5.6523 -0.4068 0.9694
4.1683 5.6594 -0.3684 0.9722
3.2027 5.6653 -0.3411 0.9743
1.5948 5.6752 -0.3089 0.9767
0.1897 5.6838 -0.2980 0.9775
-0.4936 5.6645 -0.2980 0.9775
-1.1887 5.6544 -0.3028 0.9771
-1.9177 5.6447 -0.3124 0.9764
-2.7039 5.6293 -0.3273 0.9753
-3.5724 5.5971 -0.3480 0.9738
-5.9944 5.7218 -0.4343 0.9674
-7.6693 5.7321 -0.5018 0.9624
-9.8753 5.6746 -0.5969 0.9554
5.0298 5.6541 -0.6621 0.9701
3.9291 5.6608 -0.6029 0.9727
2.9967 5.6666 -0.5608 0.9746
1.4244 5.6762 -0.5120 0.9768
-0.6560 5.6794 -0.5002 0.9773
-2.0914 5.6316 -0.5256 0.9762
-2.8890 5.6055 -0.5517 0.9750
-4.9772 5.7156 -0.6631 0.9700
-5.1436 2.7666 -0.5110 0.9768
-7.5457 2.9544 -0.7090 0.9680
-21.5057 5.5576 -1.9433 0.9147
-27.8536 -6.4710 -2.5018 0.8915
-26.8758 -9.7667 -2.5018 0.8915
-25.5097 -12.9212 -2.5018 0.8915
-23.7747 -15.8890 -2.5018 0.8915
-18.1298 -19.8127 -2.3496 0.8978
-12.8600 -17.9836 -1.9342 0.9151
-12.3091 -22.5054 -2.2442 0.9021
-6.9018 -25.9538 -2.3496 0.8978
2.8821 -28.4498 -2.5018 0.8915
6.2753 -27.8984 -2.5018 0.8915
17.4547 -20.6217 -2.3637 0.8972
23.1428 -16.7961 -2.5018 0.8915
24.9911 -13.8975 -2.5018 0.8915
28.2885 -4.1783 -2.5018 0.8915
28.5855 -0.7534 -2.5018 0.8915
26.2419 5.7094 -2.3496 0.8978
21.4090 7.4414 -1.9830 0.9130
5.3199 5.6523 -0.6791 0.9693
4.1683 5.6594 -0.6149 0.9722
2.3590 5.6705 -0.5373 0.9756
1.5948 5.6752 -0.5157 0.9766
0.1897 5.6838 -0.4975 0.9774
-0.4936 5.6645 -0.4975 0.9774
-1.1887 5.6544 -0.5055 0.9771
-1.9130 5.6308 -0.5203 0.9764
-7.6693 5.7321 -0.8377 0.9623
-9.8602 5.6659 -0.9949 0.9554
-20.0032 5.7731 -1.8215 0.9198
5.0298 5.6541 -0.9292 0.9700
3.9291 5.6608 -0.8461 0.9726
0.7171 5.6806 -0.7030 0.9772
0.0301 5.6848 -0.6980 0.9774
-0.6560 5.6794 -0.7020 0.9772
-1.3537 5.6467 -0.7130 0.9769
-4.9772 5.7156 -0.9306 0.9699
-6.3441 5.7240 -1.0492 0.9662
-8.1379 5.7334 -1.2223 0.9607
-7.5444 2.9539 -0.9948 0.9679
-18.5271 4.7879 -2.3496 0.9258
-18.9678 2.5300 -2.3496 0.9258
-20.3236 0.2502 -2.4956 0.9214
-20.2567 -2.1958 -2.5018 0.9212
-19.8468 -4.6108 -2.5018 0.9212
-7.5300 -18.8417 -2.4914 0.9215
-2.8356 -20.1771 -2.5018 0.9212
-0.3939 -20.3715 -2.5018 0.9212
2.0536 -20.2716 -2.5018 0.9212
4.4714 -19.8787 -2.5018 0.9212
13.1637 -15.5522 -2.5018 0.9212
16.4902 -11.9679 -2.5018 0.9212
17.8071 -9.9025 -2.5018 0.9212
18.8668 -7.6941 -2.5018 0.9212
19.6537 -5.3745 -2.5018 0.9212
20.1567 -2.9772 -2.5018 0.9212
20.3683 -0.5369 -2.5018 0.9212
18.6983 4.0682 -2.3496 0.9258
18.0750 6.2826 -2.3496 0.9258
17.2081 8.4148 -2.3520 0.9257
8.7203 5.6524 -1.2760 0.9590
5.3199 5.6523 -0.9531 0.9692
2.3590 5.6705 -0.7541 0.9756
1.5948 5.6752 -0.7238 0.9765
0.8797 5.6796 -0.7057 0.9771
-0.4936 5.6645 -0.6981 0.9773
-1.9095 5.6206 -0.7289 0.9764
-2.6903 5.6008 -0.7629 0.9753
-4.7002 5.7139 -0.9084 0.9706
-5.9944 5.7218 -1.0175 0.9672
-7.6693 5.7321 -1.1756 0.9621
-18.3854 5.3062 -2.3496 0.9258
5.0298 5.6541 -1.1986 0.9698
2.9967 5.6666 -1.0153 0.9744
2.1748 5.6716 -0.9621 0.9757
0.0301 5.6848 -0.9004 0.9772
-2.0842 5.6124 -0.9482 0.9760
-2.8741 5.5767 -0.9937 0.9749
-3.7472 5.5226 -1.0570 0.9733
-6.3441 5.7240 -1.3533 0.9660
-5.1435 2.7665 -0.9250 0.9766
-7.5431 2.9534 -1.2830 0.9677
-14.7044 1.9613 -2.3496 0.9417
-15.7036 -1.7023 -2.5018 0.9380
-15.3858 -3.5745 -2.5018 0.9380
-10.6633 -11.6531 -2.5018 0.9380
-9.1879 -12.8485 -2.5018 0.9380
-7.5796 -13.8582 -2.5018 0.9380
-5.8619 -14.6676 -2.5018 0.9380
-4.0594 -15.2650 -2.5018 0.9380
-0.3053 -15.7926 -2.5018 0.9380
1.5920 -15.7152 -2.5018 0.9380
8.6844 -13.1940 -2.5018 0.9380
10.2049 -12.0566 -2.5018 0.9380
11.5780 -10.7448 -2.5018 0.9380
12.7837 -9.2778 -2.5018 0.9380
13.8046 -7.6767 -2.5018 0.9380
15.2362 -4.1665 -2.5018 0.9380
15.2820 1.4398 -2.4311 0.9397
14.0123 4.8705 -2.3496 0.9417
12.4543 8.0728 -2.3507 0.9417
3.2027 5.6653 -1.0308 0.9740
0.8797 5.6796 -0.9103 0.9770
0.1897 5.6838 -0.9007 0.9772
-0.4936 5.6645 -0.9006 0.9772
-2.6834 5.5866 -0.9816 0.9752
-4.7002 5.7139 -1.1718 0.9705
-5.9944 5.7218 -1.3125 0.9670
-7.6693 5.7321 -1.5165 0.9620
-13.6563 5.7941 -2.3496 0.9417
-14.6435 2.3734 -2.3496 0.9417
3.9291 5.6608 -1.3394 0.9723
0.7171 5.6806 -1.1130 0.9769
0.0301 5.6848 -1.1050 0.9771
-1.3481 5.6232 -1.1240 0.9767
-2.0722 5.5800 -1.1570 0.9760
-2.8498 5.5296 -1.2092 0.9750
-4.9772 5.7156 -1.4732 0.9696
-6.3441 5.7240 -1.6609 0.9658
-12.8696 0.1584 -2.5018 0.9489
-12.5367 -2.9125 -2.5018 0.9489
-6.1139 -2.2218 -1.2645 0.9738
-5.3932 -2.7317 -1.1751 0.9757
-9.7653 -8.3839 -2.5018 0.9489
-8.6886 -9.4952 -2.5018 0.9489
-0.2488 -12.8681 -2.5018 0.9489
1.2972 -12.8050 -2.5018 0.9489
8.3151 -9.8239 -2.5018 0.9489
11.2483 -6.2551 -2.5018 0.9489
11.9176 -4.8601 -2.5018 0.9489
12.8660 -0.3391 -2.5018 0.9489
11.8112 2.5697 -2.3496 0.9519
10.1431 6.5746 -2.3496 0.9519
7.1309 5.9504 -1.8053 0.9629
5.3199 5.6523 -1.5088 0.9689
4.1683 5.6594 -1.3662 0.9718
1.5948 5.6752 -1.1459 0.9763
-3.5006 5.4845 -1.2647 0.9738
-9.9875 5.7391 -2.2391 0.9541
-11.6135 3.3517 -2.3496 0.9519
5.0298 5.6541 -1.7471 0.9694
3.9291 5.6608 -1.5909 0.9721
2.9967 5.6666 -1.4799 0.9740
2.1748 5.6716 -1.4024 0.9754
1.4244 5.6762 -1.3511 0.9763
0.7171 5.6806 -1.3219 0.9768
-0.6532 5.6549 -1.3142 0.9769
-1.3366 5.5755 -1.3237 0.9767
-3.6387 5.3628 -1.4962 0.9737
-4.9772 5.7156 -1.7497 0.9694
-9.8534 2.5464 -2.3496 0.9591
-10.7175 1.4295 -2.4962 0.9566
-10.7733 -1.1678 -2.5018 0.9565
-5.8797 -2.1367 -1.4443 0.9746
-4.9132 -3.2836 -1.3643 0.9760
-8.2219 -7.0589 -2.5018 0.9565
-7.3154 -7.9945 -2.5018 0.9565
-6.3032 -8.8146 -2.5018 0.9565
-4.0215 -10.0626 -2.5018 0.9565
-1.5081 -10.7309 -2.5018 0.9565
1.0922 -10.7812 -2.5018 0.9565
2.3780 -10.5722 -2.5018 0.9565
5.9578 -9.0516 -2.5018 0.9565
7.9429 -7.3714 -2.5018 0.9565
8.7701 -6.3650 -2.5018 0.9565
10.0341 -4.0920 -2.5018 0.9565
10.7092 1.0090 -2.4834 0.9568
9.6130 3.3413 -2.3496 0.9591
8.5400 5.5355 -2.3496 0.9591
4.1683 5.6594 -1.6227 0.9716
3.2027 5.6653 -1.5025 0.9736
1.5948 5.6752 -1.3610 0.9761
0.8797 5.6796 -1.3269 0.9767
-0.4936 5.6645 -1.3127 0.9769
-3.4585 5.4185 -1.4841 0.9740
-5.9944 5.7218 -1.9132 0.9666
-8.8240 5.0705 -2.3496 0.9591
-10.0460 1.6283 -2.3496 0.9591
2.9967 5.6666 -1.7176 0.9738
2.1748 5.6716 -1.6276 0.9752
-1.3258 5.5302 -1.5238 0.9767
-2.0361 5.4828 -1.5671 0.9761
-2.7979 5.4290 -1.6365 0.9750
-6.5105 5.8741 -2.3496 0.9643
-7.1683 5.0504 -2.3496 0.9643
-5.1433 2.7664 -1.5648 0.9761
-8.4898 2.1940 -2.3496 0.9643
-9.3361 0.1149 -2.5018 0.9621
-9.2824 -1.0062 -2.5018 0.9621
-4.7960 -2.4293 -1.4405 0.9780
-4.5942 -3.0704 -1.4806 0.9774
-4.4803 -8.1916 -2.5018 0.9621
-2.3995 -9.0231 -2.5018 0.9621
-0.1805 -9.3350 -2.5018 0.9621
0.9410 -9.2892 -2.5018 0.9621
2.0490 -9.1092 -2.5018 0.9621
3.1272 -8.7975 -2.5018 0.9621
8.1599 -4.5377 -2.5018 0.9621
8.6455 -3.5257 -2.5018 0.9621
9.0061 -2.4628 -2.5018 0.9621
9.2365 -1.3643 -2.5018 0.9621
9.3335 -0.2460 -2.5018 0.9621
8.5683 1.8642 -2.3496 0.9643
7.8774 3.8520 -2.3496 0.9643
7.3582 4.7695 -2.3496 0.9643
6.7327 5.6180 -2.3496 0.9643
5.3199 5.6523 -2.0798 0.9684
3.2027 5.6653 -1.7438 0.9734
1.5948 5.6752 -1.5796 0.9759
0.8797 5.6796 -1.5400 0.9765
-1.1687 5.5593 -1.5222 0.9767
-3.3897 5.3108 -1.6882 0.9742
-4.1637 5.0616 -1.7562 0.9732
-5.9944 5.7218 -2.2205 0.9663
-5.1702 2.9710 -1.5978 0.9756
-7.4274 3.1513 -2.1619 0.9671
-9.1940 1.4902 -2.4957 0.9622
