ply
format ascii 1.0
element vertex 704
property float32 x
property float32 y
property float32 z
property float32 I
end_header
26.5991 18.6369 8.7026 0.8742
26.1287 23.4497 9.4073 0.8647
3.8638 5.6612 1.8365 0.9720
1.3780 5.6765 1.5652 0.9761
0.6729 5.6808 1.5328 0.9766
-2.1650 5.6983 1.6333 0.9751
-3.9360 5.7092 1.8581 0.9717
-28.4841 19.7587 9.2888 0.8663
-7.7036 2.9523 2.2106 0.9664
-55.7456 -28.7219 16.8030 0.7713
-13.2301 -14.6564 5.2905 0.9215
-20.6184 -29.2476 9.5885 0.8623
-11.0223 -42.5792 11.7851 0.8335
51.2815 -36.7365 16.9028 0.7701
46.9903 16.6408 13.3572 0.8135
34.6970 17.2165 10.3786 0.8518
26.5918 17.4543 8.5230 0.8766
26.1201 22.0495 9.1592 0.8680
27.1641 29.1904 10.6843 0.8478
4.1197 5.6597 1.8757 0.9714
3.1614 5.6655 1.7384 0.9735
0.8481 5.6798 1.5388 0.9765
0.1590 5.6840 1.5236 0.9767
-2.7756 5.7020 1.6993 0.9741
-3.6848 5.7076 1.8204 0.9723
-26.0201 19.2436 8.6716 0.8746
-57.5532 -27.4782 17.0888 0.7679
-25.6184 -34.0961 11.4275 0.8381
-17.5647 -30.3863 9.4044 0.8647
-14.1692 -33.1545 9.6610 0.8613
-12.4228 -75.3580 20.4646 0.7289
51.6918 13.2225 12.3182 0.8033
44.0350 17.1137 10.9071 0.8237
31.3099 16.7373 8.1964 0.8644
26.6996 18.7073 7.5265 0.8747
6.7426 6.0513 2.0916 0.9635
4.9508 5.6546 1.7351 0.9696
3.8638 5.6612 1.5824 0.9723
1.3780 5.6765 1.3486 0.9763
0.6729 5.6808 1.3207 0.9768
-1.4105 5.6936 1.3542 0.9762
-2.1650 5.6983 1.4073 0.9753
-2.9935 5.7034 1.4871 0.9739
-3.9360 5.7092 1.6009 0.9719
-5.0522 5.7160 1.7612 0.9692
-30.6008 21.2270 8.5981 0.8582
-5.2640 2.7823 1.3746 0.9759
-45.3179 -10.8629 10.7588 0.8259
22.8673 -45.2212 11.6990 0.8122
31.5881 -47.3386 13.1387 0.7917
51.3687 -47.0812 16.0870 0.7512
34.6970 17.2165 8.9423 0.8530
27.1254 22.8981 8.1954 0.8644
5.2602 5.6526 1.7827 0.9688
4.1197 5.6597 1.6161 0.9717
2.3225 5.6707 1.4147 0.9752
0.1590 5.6840 1.3128 0.9769
-1.2283 5.6925 1.3445 0.9764
-4.7499 5.7142 1.7155 0.9700
-6.0516 5.7177 1.9221 0.9664
-27.3836 20.2520 7.8631 0.8695
-67.8730 -14.1081 16.0047 0.7523
-66.8477 -22.5384 16.2866 0.7486
-58.2693 -27.8200 14.9071 0.7671
-13.6788 -32.0071 8.0360 0.8668
-12.8626 -78.0259 18.2568 0.7228
52.1426 13.3378 10.4618 0.8031
44.0350 17.1137 9.1832 0.8249
31.3099 16.7373 6.9010 0.8653
26.5991 18.6369 6.3132 0.8760
6.2914 5.6463 1.6432 0.9661
4.9508 5.6546 1.4609 0.9698
3.8638 5.6612 1.3323 0.9725
2.9405 5.6669 1.2410 0.9743
1.3780 5.6765 1.1354 0.9765
0.6729 5.6808 1.1120 0.9770
-0.0134 5.6851 1.1051 0.9771
-0.7010 5.6893 1.1142 0.9769
-2.9935 5.7034 1.2520 0.9741
-6.4392 5.7246 1.6748 0.9655
-7.7023 2.9518 1.6034 0.9669
-75.9381 -18.2026 15.1790 0.7275
-14.3657 -36.6512 7.6520 0.8518
-11.2438 -43.4348 8.7212 0.8329
51.5675 -47.2634 13.5969 0.7520
51.3869 -36.8120 12.2871 0.7729
51.4374 -28.1927 11.4017 0.7874
51.6816 11.5626 10.2942 0.8059
46.9903 16.6408 9.6898 0.8162
26.5918 17.4543 6.1829 0.8784
4.1197 5.6597 1.3607 0.9719
0.8481 5.6798 1.1163 0.9769
-1.9690 5.6971 1.1717 0.9757
-64.7867 -21.8435 13.2898 0.7568
-58.1470 -27.7616 12.5248 0.7691
-8.7756 -11.6797 2.8397 0.9422
-18.8544 -32.6174 7.3232 0.8577
-12.8627 -78.0266 15.3715 0.7245
55.9118 0.5552 8.8560 0.7974
55.9534 7.3253 8.9378 0.7957
44.0351 17.1137 7.4827 0.8259
26.5991 18.6369 5.1441 0.8768
6.2914 5.6463 1.3389 0.9663
4.9508 5.6546 1.1904 0.9700
2.9405 5.6669 1.0112 0.9745
2.1245 5.6719 0.9593 0.9758
1.3780 5.6765 0.9252 0.9766
0.6729 5.6808 0.9060 0.9771
-0.0134 5.6851 0.9004 0.9772
-0.7010 5.6893 0.9079 0.9771
-1.4105 5.6936 0.9290 0.9765
-2.1650 5.6983 0.9655 0.9756
-2.9935 5.7034 1.0202 0.9743
-6.4392 5.7246 1.3646 0.9657
-7.7017 2.9516 1.3063 0.9671
-66.5939 -15.9628 10.8462 0.7578
-88.6419 -32.9116 14.9760 0.6819
-65.0797 -44.1429 12.4551 0.7273
-33.0024 -36.5604 7.8009 0.8192
-25.6959 -36.4501 7.0635 0.8348
-18.9396 -35.1855 6.3289 0.8506
21.7323 -42.9767 7.6276 0.8228
51.3869 -36.8120 10.0118 0.7741
29.3487 -16.0859 5.3008 0.8732
55.8597 -7.9082 8.9355 0.7957
55.9014 -1.1401 8.8558 0.7974
55.9429 5.6049 8.9048 0.7964
51.6816 11.5626 8.3879 0.8070
46.9903 16.6408 7.8955 0.8172
34.6971 17.2165 6.1348 0.8548
26.5919 17.4543 5.0380 0.8791
2.3225 5.6707 0.9706 0.9755
1.5614 5.6754 0.9323 0.9764
-2.7756 5.7020 1.0044 0.9746
-3.6848 5.7076 1.0760 0.9729
-4.7499 5.7142 1.1769 0.9704
-7.7513 5.7326 1.5270 0.9617
-88.1867 24.9816 14.5170 0.6899
-87.0019 3.0944 13.7885 0.7029
-65.7751 -22.1767 10.9939 0.7549
-58.7718 -28.0600 10.3151 0.7682
-65.8204 -68.6145 15.0593 0.6804
-26.0251 -34.6374 6.8620 0.8391
-14.7958 -34.6207 5.9631 0.8586
-12.8627 -78.0264 12.5250 0.7260
56.0472 0.5566 6.8821 0.7978
53.0461 6.9447 6.5688 0.8061
44.0351 17.1137 5.8008 0.8266
31.3099 16.7373 4.3592 0.8667
26.6996 18.7073 4.0029 0.8769
2.1245 5.6719 0.7437 0.9759
1.3780 5.6765 0.7172 0.9767
0.6729 5.6808 0.7024 0.9772
-0.0134 5.6851 0.6980 0.9773
-0.7010 5.6893 0.7038 0.9772
-3.9360 5.7092 0.8514 0.9724
-5.2629 2.7817 0.7309 0.9763
-7.7008 2.9512 1.0126 0.9673
-68.7564 -16.4811 8.6814 0.7521
-31.1658 -34.5258 5.7109 0.8291
-24.3440 -34.5324 5.1877 0.8434
-18.9396 -35.1855 4.9064 0.8513
-14.3657 -36.6513 4.8335 0.8533
-10.1393 -39.1680 4.9678 0.8495
-11.8504 -88.5351 10.9677 0.6977
15.5804 -42.9583 5.6108 0.8318
38.8685 -45.3422 7.3329 0.7861
49.4770 -45.3475 8.2406 0.7630
51.3869 -36.8120 7.7614 0.7751
53.5384 -21.4543 7.0819 0.7926
56.0055 -7.9289 6.9452 0.7962
52.3426 5.2442 6.4590 0.8090
51.6816 11.5626 6.5026 0.8078
46.9903 16.6408 6.1208 0.8180
26.5918 17.4543 3.9056 0.8797
4.1197 5.6597 0.8595 0.9722
3.1614 5.6655 0.7966 0.9742
2.3225 5.6707 0.7524 0.9756
1.5613 5.6754 0.7227 0.9766
0.1590 5.6840 0.6982 0.9773
-2.7756 5.7020 0.7787 0.9748
-4.7499 5.7142 0.9124 0.9705
-7.7513 5.7326 1.1837 0.9619
-10.1186 5.7472 1.4288 0.9542
-33.1084 -34.5139 5.8724 0.8247
-19.9739 -34.5541 4.9005 0.8514
-15.6602 -36.6433 4.8929 0.8516
21.7033 5.5516 1.9599 0.9140
31.3099 16.7373 3.1061 0.8671
2.1245 5.6719 0.5299 0.9760
1.3780 5.6765 0.5111 0.9768
-0.7010 5.6893 0.5015 0.9772
-2.1650 5.6983 0.5333 0.9758
-2.9935 5.7034 0.5635 0.9745
-5.0523 5.7160 0.6674 0.9698
-6.4392 5.7246 0.7538 0.9660
-8.2687 5.7358 0.8804 0.9604
-7.6994 2.9507 0.7214 0.9674
-71.8728 -37.0312 7.0736 0.7228
-25.6960 -36.4501 3.9017 0.8360
-14.3657 -36.6513 3.4441 0.8538
-0.7901 -61.6695 5.3958 0.7806
13.5041 -58.2820 5.2341 0.7865
16.0216 -44.1748 4.1111 0.8281
30.1062 -45.1179 4.7454 0.8043
38.5946 -45.0228 5.1882 0.7881
48.7590 -44.6894 5.7866 0.7668
51.3869 -36.8120 5.5303 0.7758
55.8707 -22.3889 5.2659 0.7853
55.9166 -14.9281 5.0634 0.7926
49.5294 4.9623 4.3549 0.8188
51.6817 11.5626 4.6333 0.8084
34.6971 17.2165 3.3888 0.8560
6.6858 5.6439 0.7655 0.9655
5.2602 5.6526 0.6755 0.9695
4.1197 5.6597 0.6124 0.9723
2.3225 5.6707 0.5361 0.9757
0.1590 5.6840 0.4975 0.9774
-5.7435 62.0659 5.4533 0.7786
-1.9690 5.6971 0.5274 0.9761
-2.7756 5.7020 0.5548 0.9749
-4.7499 5.7142 0.6501 0.9706
-7.7513 5.7326 0.8435 0.9620
-10.1186 5.7472 1.0181 0.9543
-20.5134 5.8110 1.8653 0.9180
-58.5415 -27.9500 5.6755 0.7707
-19.9740 -34.5542 3.4918 0.8519
-12.8627 -78.0264 6.9186 0.7279
60.7653 0.6035 3.1847 0.7840
43.8248 5.7375 2.3164 0.8377
21.7033 5.5516 1.1740 0.9142
41.6169 16.1739 2.3400 0.8362
4.9508 5.6546 0.3939 0.9703
2.9405 5.6669 0.3346 0.9748
-0.0134 5.6851 0.2979 0.9775
-0.7005 5.6849 0.3002 0.9773
-2.9842 5.6857 0.3365 0.9746
-3.9262 5.6950 0.3625 0.9727
-5.0523 5.7160 0.3998 0.9699
-6.4365 5.7222 0.4514 0.9661
-5.2628 2.7817 0.3120 0.9764
-7.6981 2.9502 0.4321 0.9675
-71.8782 -37.0340 4.2376 0.7233
-31.1659 -34.5258 2.4376 0.8300
-24.3441 -34.5324 2.2143 0.8443
-13.5550 -34.5829 1.9467 0.8618
-8.7928 -65.6915 3.4734 0.7668
13.6936 -59.1001 3.1794 0.7843
29.7325 -27.2509 2.1137 0.8508
60.9322 -24.4172 3.4402 0.7688
60.8771 -16.2524 3.3022 0.7769
60.8261 -8.6113 3.2195 0.7819
6.6754 5.6351 0.4578 0.9656
5.2602 5.6526 0.4047 0.9695
3.1614 5.6655 0.3400 0.9743
1.5614 5.6754 0.3085 0.9767
0.1590 5.6840 0.2980 0.9775
-2.7667 5.6836 0.3313 0.9750
-3.6749 5.6924 0.3551 0.9732
-6.0563 5.7222 0.4367 0.9672
-10.1186 5.7472 0.6099 0.9545
-20.5134 5.8110 1.1174 0.9181
-33.1084 -34.5139 2.5065 0.8257
-25.9389 -34.5227 2.2630 0.8412
-14.7764 -34.5754 1.9706 0.8602
-12.8627 -78.0264 4.1444 0.7285
41.1014 5.3809 0.7235 0.8472
21.6837 5.5466 0.3907 0.9144
44.0351 17.1137 0.8246 0.8278
6.8491 6.1469 0.1606 0.9639
4.9508 5.6546 0.1312 0.9704
2.9405 5.6669 0.1114 0.9748
2.1245 5.6719 0.1057 0.9761
1.3780 5.6765 0.1020 0.9769
0.6729 5.6808 0.0999 0.9774
-0.0134 5.6851 0.0992 0.9775
-0.7005 5.6849 0.1000 0.9773
-3.9036 5.6622 0.1200 0.9729
-6.4392 5.7246 0.1504 0.9661
-7.6968 2.9497 0.1439 0.9676
-23.2099 5.8209 0.4177 0.9087
-71.8819 -37.0359 1.4114 0.7236
-9.2123 -68.8261 1.2121 0.7574
21.7831 -60.0604 1.1152 0.7745
23.1045 -45.6902 0.8937 0.8148
25.9384 -38.8719 0.8157 0.8295
34.6971 17.2165 0.6761 0.8565
26.5918 17.4543 0.5552 0.8805
4.1197 5.6597 0.1222 0.9724
3.1614 5.6655 0.1132 0.9744
1.5613 5.6754 0.1027 0.9767
0.1590 5.6840 0.0993 0.9775
-1.9606 5.6728 0.1048 0.9763
-2.7569 5.6636 0.1099 0.9751
-4.7499 5.7142 0.1297 0.9707
-6.0563 5.7222 0.1454 0.9672
-7.7513 5.7326 0.1683 0.9622
-20.4903 5.8045 0.3717 0.9183
-58.3366 -27.8522 1.1284 0.7721
-32.7561 -34.1467 0.8259 0.8275
-25.9389 -34.5227 0.7537 0.8413
-19.9739 -34.5541 0.6967 0.8524
-14.6044 -34.1729 0.6487 0.8619
-10.9534 -66.4448 1.1754 0.7638
68.4372 0.6796 -1.1946 0.7605
43.8810 5.7448 -0.7725 0.8377
26.5992 18.6369 -0.5669 0.8782
-0.7005 5.6849 -0.1000 0.9773
-2.9598 5.6392 -0.1112 0.9748
-6.4392 5.7246 -0.1504 0.9661
-8.2687 5.7358 -0.1757 0.9605
-5.2627 2.7816 -0.1039 0.9765
-66.4339 -7.6749 -1.1673 0.7653
-81.3014 -30.1862 -1.5138 0.7068
-65.7214 -33.8618 -1.2905 0.7440
-69.3764 -47.0573 -1.4632 0.7151
-20.8458 -23.0932 -0.5430 0.8830
-15.8068 -22.4222 -0.4789 0.8961
-12.3990 -23.0345 -0.4566 0.9006
-9.6424 -24.6006 -0.4612 0.8997
-6.2199 -46.4690 -0.8183 0.8290
20.8021 -57.3556 -1.0650 0.7834
21.4324 -42.3836 -0.8290 0.8270
25.9405 -38.8750 -0.8158 0.8295
25.9931 -30.3224 -0.6971 0.8523
38.1422 -27.3239 -0.8190 0.8289
43.3420 -23.7556 -0.8627 0.8206
69.2706 -27.7586 -1.3026 0.7419
88.9783 -23.7546 -1.6075 0.6918
24.7309 5.5330 -0.4423 0.9036
46.9905 16.6408 -0.8701 0.8192
34.6971 17.2165 -0.6761 0.8565
26.5919 17.4543 -0.5552 0.8805
7.0117 5.9190 -0.1602 0.9640
5.2602 5.6526 -0.1348 0.9696
4.1197 5.6597 -0.1222 0.9724
3.1614 5.6655 -0.1132 0.9744
1.5613 5.6754 -0.1027 0.9767
0.8481 5.6798 -0.1002 0.9773
-5.0610 54.6906 -0.9587 0.8027
-1.9558 5.6588 -0.1045 0.9763
-2.7500 5.6493 -0.1097 0.9752
-3.6337 5.6286 -0.1169 0.9736
-7.7513 5.7326 -0.1683 0.9622
-10.0391 5.7020 -0.2015 0.9549
-13.7889 5.7697 -0.2609 0.9420
-20.4781 5.8010 -0.3715 0.9184
-63.1432 2.2458 -1.1029 0.7766
-95.6533 -8.1208 -1.6756 0.6811
-81.3626 -16.9121 -1.4505 0.7172
-81.4597 -27.4649 -1.5005 0.7090
-16.7972 -22.3559 -0.4881 0.8942
-19.9739 -34.5541 -0.6967 0.8524
-10.2814 -24.0574 -0.4567 0.9006
-7.7939 -26.7385 -0.4861 0.8946
-6.2357 -37.8263 -0.6692 0.8578
47.7335 0.4740 -2.5017 0.8260
41.6968 5.4589 -2.2039 0.8450
21.4425 5.4849 -1.1599 0.9152
20.9616 11.2055 -1.2457 0.9092
6.8491 6.1469 -0.4823 0.9638
2.1245 5.6719 -0.3174 0.9760
1.3780 5.6765 -0.3061 0.9769
-0.7005 5.6849 -0.3002 0.9773
-1.4002 5.6521 -0.3052 0.9769
-3.8592 5.5978 -0.3563 0.9731
-5.0523 5.7160 -0.3998 0.9699
-8.2687 5.7358 -0.5274 0.9605
-7.6942 2.9487 -0.4318 0.9675
-22.5483 5.6550 -1.2183 0.9111
-33.8070 4.2645 -1.7858 0.8724
-43.5968 -10.4503 -2.3495 0.8356
-44.7509 -16.6154 -2.5017 0.8260
-42.4346 -21.8637 -2.5017 0.8260
-33.8152 -29.4349 -2.3495 0.8356
-7.2302 -27.9302 -1.5120 0.8909
-3.8382 -28.6757 -1.5162 0.8906
-0.6115 -47.7320 -2.5017 0.8260
15.7965 -43.5541 -2.4281 0.8306
20.2308 -40.0075 -2.3495 0.8356
29.6407 -27.1668 -2.1072 0.8513
36.4451 -26.1082 -2.3495 0.8356
47.2646 -6.6914 -2.5017 0.8260
20.9010 7.4017 -1.1620 0.9150
21.0093 13.7901 -1.3170 0.9042
7.0117 5.9190 -0.4809 0.9639
5.2602 5.6526 -0.4047 0.9695
3.1614 5.6655 -0.3400 0.9743
0.8481 5.6798 -0.3010 0.9773
-1.2214 5.6604 -0.3035 0.9771
-2.7430 5.6350 -0.3284 0.9752
-3.6135 5.5972 -0.3492 0.9737
-7.7513 5.7326 -0.5053 0.9621
-9.9915 5.6750 -0.6022 0.9550
-20.4235 5.7856 -1.1125 0.9185
-30.5617 4.8004 -1.6213 0.8835
-45.2340 -15.2511 -2.5017 0.8260
-40.2997 -25.5862 -2.5017 0.8260
-36.9394 -30.2357 -2.5017 0.8260
-22.6485 -23.6100 -1.7146 0.8772
-6.0046 -36.4247 -1.9347 0.8625
28.5935 0.2840 -2.5017 0.8915
22.0947 2.8926 -1.9495 0.9144
21.3513 11.4138 -2.1182 0.9074
21.4175 15.0063 -2.2880 0.9003
6.8491 6.1469 -0.8052 0.9637
4.9508 5.6546 -0.6575 0.9703
3.8638 5.6612 -0.5997 0.9729
2.1245 5.6719 -0.5299 0.9760
1.3780 5.6765 -0.5111 0.9768
-0.0134 5.6851 -0.4974 0.9774
-0.7005 5.6849 -0.5011 0.9773
-2.1397 5.6318 -0.5271 0.9761
-2.9447 5.6104 -0.5543 0.9749
-3.8372 5.5659 -0.5915 0.9732
-5.2626 2.7815 -0.5208 0.9764
-26.6441 3.3609 -2.3495 0.8978
-26.8549 0.1405 -2.3495 0.8978
-26.8068 -9.9530 -2.5017 0.8915
-23.6647 -16.0515 -2.5017 0.8915
-17.9947 -19.9347 -2.3495 0.8978
-15.4735 -21.9494 -2.3495 0.8978
-12.1887 -22.6438 -2.2498 0.9019
-0.3663 -28.5925 -2.5017 0.8915
12.9038 -25.5179 -2.5017 0.8915
19.8693 -18.2109 -2.3580 0.8974
25.0754 -13.7438 -2.5017 0.8915
26.5430 -10.6365 -2.5017 0.8915
28.3126 -4.0083 -2.5017 0.8915
21.4116 14.0541 -2.2408 0.9023
7.0117 5.9190 -0.8028 0.9638
4.1197 5.6597 -0.6124 0.9723
3.1614 5.6655 -0.5676 0.9743
2.3225 5.6707 -0.5361 0.9757
0.8481 5.6798 -0.5024 0.9772
0.1590 5.6840 -0.4975 0.9774
-1.2214 5.6604 -0.5066 0.9770
-3.6007 5.5775 -0.5808 0.9737
-13.7889 5.7697 -1.3077 0.9417
-26.8383 0.9546 -2.3495 0.8978
-27.0962 -9.1358 -2.5017 0.8915
-24.1404 -15.3267 -2.5017 0.8915
-18.5908 -19.3800 -2.3495 0.8978
-16.1318 -21.4702 -2.3495 0.8978
-12.8779 -22.2783 -2.2513 0.9018
-10.1413 -23.7297 -2.2577 0.9016
-7.5152 -25.7823 -2.3495 0.8978
-4.3681 -26.4976 -2.3495 0.8978
18.9735 2.4840 -2.3495 0.9258
18.5385 4.7421 -2.3495 0.9258
16.9095 9.0393 -2.3543 0.9256
8.0553 5.6440 -1.2077 0.9611
6.8491 6.1469 -1.1300 0.9636
3.8638 5.6612 -0.8416 0.9728
2.1245 5.6719 -0.7437 0.9759
0.6729 5.6808 -0.7024 0.9772
-0.0134 5.6851 -0.6980 0.9773
-0.7005 5.6849 -0.7033 0.9772
-2.9371 5.5959 -0.7760 0.9749
-3.8264 5.5503 -0.8277 0.9732
-5.2625 2.7815 -0.7309 0.9763
-18.5606 4.6549 -2.3495 0.9258
-18.9850 2.3948 -2.3495 0.9258
-20.3477 0.1064 -2.4984 0.9213
-9.6040 -2.3021 -1.2126 0.9610
-16.8620 -11.4373 -2.5017 0.9212
-11.7397 -16.6529 -2.5017 0.9212
-2.7031 -20.1949 -2.5017 0.9212
6.9469 -19.1541 -2.5017 0.9212
11.3092 -16.9482 -2.5017 0.9212
13.2606 -15.4692 -2.5017 0.9212
16.5635 -11.8656 -2.5017 0.9212
18.9129 -7.5789 -2.5017 0.9212
20.1738 -2.8561 -2.5017 0.9212
18.6738 4.1778 -2.3495 0.9258
17.1615 8.5154 -2.3523 0.9257
8.6115 5.6524 -1.2648 0.9593
7.0117 5.9190 -1.1267 0.9637
2.3225 5.6707 -0.7524 0.9756
-1.9446 5.6265 -0.7309 0.9763
-2.7291 5.6064 -0.7656 0.9752
-3.5910 5.5624 -0.8129 0.9737
-4.7499 5.7142 -0.9124 0.9705
-18.9036 2.9693 -2.3495 0.9258
-19.1233 0.6802 -2.3495 0.9258
-20.3019 -1.7236 -2.5017 0.9212
-18.3868 -8.7786 -2.5017 0.9212
-17.2010 -10.9209 -2.5017 0.9212
-15.7667 -12.9054 -2.5017 0.9212
-12.2391 -16.2894 -2.5017 0.9212
14.3716 3.6762 -2.3495 0.9417
13.8269 5.3736 -2.3495 0.9417
6.8491 6.1469 -1.4576 0.9634
3.8638 5.6612 -1.0856 0.9726
2.1245 5.6719 -0.9593 0.9758
1.3780 5.6765 -0.9252 0.9766
0.6729 5.6808 -0.9060 0.9771
-0.0134 5.6851 -0.9004 0.9772
-0.7005 5.6849 -0.9072 0.9771
-2.1343 5.6176 -0.9518 0.9760
-2.9295 5.5814 -0.9984 0.9748
-3.8097 5.5259 -1.0631 0.9732
-5.0522 5.7160 -1.2083 0.9696
-6.4392 5.7246 -1.3646 0.9657
-5.2625 2.7815 -0.9428 0.9762
-7.6902 2.9472 -1.3043 0.9672
-14.3887 3.6086 -2.3495 0.9417
-14.7177 1.8565 -2.3495 0.9417
-15.7951 0.0826 -2.5017 0.9380
-8.8233 -2.1150 -1.4371 0.9639
-14.0412 -7.2344 -2.5017 0.9380
-13.0719 -8.8666 -2.5017 0.9380
-10.5839 -11.7249 -2.5017 0.9380
-9.1009 -12.9098 -2.5017 0.9380
-7.4866 -13.9084 -2.5017 0.9380
-3.9584 -15.2912 -2.5017 0.9380
-2.0955 -15.6557 -2.5017 0.9380
3.5653 -15.3877 -2.5017 0.9380
5.3855 -14.8488 -2.5017 0.9380
10.2800 -11.9922 -2.5017 0.9380
11.6443 -10.6724 -2.5017 0.9380
12.8405 -9.1985 -2.5017 0.9380
14.6619 -5.8754 -2.5017 0.9380
15.2608 -4.0742 -2.5017 0.9380
15.0710 1.5100 -2.3990 0.9405
14.4765 3.2388 -2.3495 0.9417
13.9834 4.9520 -2.3495 0.9417
13.2884 6.5936 -2.3495 0.9417
12.4089 8.1449 -2.3509 0.9417
7.0117 5.9190 -1.4533 0.9635
5.2602 5.6526 -1.2230 0.9692
3.1614 5.6655 -1.0276 0.9741
2.3225 5.6707 -0.9706 0.9755
1.5614 5.6754 -0.9323 0.9764
0.8481 5.6798 -0.9096 0.9770
-1.2214 5.6604 -0.9172 0.9768
-1.9446 5.6265 -0.9429 0.9762
-2.7221 5.5921 -0.9851 0.9751
-4.7499 5.7142 -1.1769 0.9704
-6.0563 5.7222 -1.3197 0.9668
-7.7513 5.7326 -1.5270 0.9617
-9.7076 5.5137 -1.7682 0.9558
-14.2727 4.0432 -2.3495 0.9417
-14.6547 2.3018 -2.3495 0.9417
-7.5929 -2.5600 -1.2691 0.9681
-7.5320 -3.5961 -1.3219 0.9668
-6.2073 -14.5245 -2.5017 0.9380
-4.4202 -15.1642 -2.5017 0.9380
11.2664 4.3785 -2.3495 0.9519
10.6598 5.6984 -2.3495 0.9519
8.2424 5.7751 -1.9563 0.9598
6.8491 6.1469 -1.7889 0.9632
1.3780 5.6765 -1.1354 0.9765
0.6729 5.6808 -1.1120 0.9770
-0.0134 5.6851 -1.1051 0.9771
-1.3942 5.6280 -1.1270 0.9767
-2.1217 5.5844 -1.1612 0.9760
-2.9043 5.5334 -1.2147 0.9749
-6.4392 5.7246 -1.6748 0.9655
-8.2687 5.7358 -1.9561 0.9598
-5.2624 2.7815 -1.1570 0.9760
-11.7242 2.9404 -2.3495 0.9519
-12.8701 0.0673 -2.5017 0.9489
-12.7852 -1.4771 -2.5017 0.9489
-8.4912 -2.0354 -1.6973 0.9650
-7.0532 -3.6340 -1.5423 0.9682
-10.6512 -7.2246 -2.5017 0.9489
-9.7077 -8.4502 -2.5017 0.9489
-7.4156 -10.5192 -2.5017 0.9489
-4.6967 -11.9827 -2.5017 0.9489
-1.7074 -12.7565 -2.5017 0.9489
1.3801 -12.7961 -2.5017 0.9489
2.9051 -12.5381 -2.5017 0.9489
7.1437 -10.7057 -2.5017 0.9489
9.4880 -8.6961 -2.5017 0.9489
11.2862 -6.1859 -2.5017 0.9489
12.4348 -3.3197 -2.5017 0.9489
6.3868 -0.9042 -1.2538 0.9741
10.8276 5.3726 -2.3495 0.9519
10.1050 6.6327 -2.3495 0.9519
7.0117 5.9190 -1.7836 0.9633
4.1197 5.6597 -1.3607 0.9719
3.1614 5.6655 -1.2611 0.9739
2.3225 5.6707 -1.1911 0.9753
0.8481 5.6798 -1.1163 0.9769
0.1590 5.6840 -1.1053 0.9771
-1.2166 5.6381 -1.1211 0.9768
-1.9341 5.5960 -1.1509 0.9762
-3.5436 5.4889 -1.2700 0.9737
-6.0563 5.7222 -1.6196 0.9666
-10.0973 5.7351 -2.2572 0.9538
-12.8621 0.4575 -2.5017 0.9489
-12.8241 -1.0888 -2.5017 0.9489
-9.5942 -1.9942 -1.9048 0.9609
-7.0333 -3.3580 -1.5150 0.9687
-10.8654 -6.8984 -2.5017 0.9489
-9.9594 -8.1520 -2.5017 0.9489
-8.9096 -9.2878 -2.5017 0.9489
-7.7311 -10.2895 -2.5017 0.9489
-5.0578 -11.8348 -2.5017 0.9489
-3.6016 -12.3561 -2.5017 0.9489
-2.0934 -12.6989 -2.5017 0.9489
10.8357 0.1076 -2.5017 0.9565
10.4916 1.3736 -2.4428 0.9575
9.4858 3.6865 -2.3495 0.9591
8.2424 5.7751 -2.3235 0.9595
4.9508 5.6546 -1.7351 0.9696
2.9405 5.6669 -1.4739 0.9741
2.1245 5.6719 -1.3983 0.9754
1.3780 5.6765 -1.3486 0.9763
0.6729 5.6808 -1.3207 0.9768
-0.0134 5.6851 -1.3125 0.9769
-1.3824 5.5803 -1.3272 0.9767
-3.7066 5.3765 -1.5076 0.9735
-5.0522 5.7160 -1.7612 0.9692
-6.4392 5.7246 -1.9891 0.9652
-9.8712 2.4756 -2.3495 0.9591
-10.7329 1.3539 -2.4975 0.9566
-8.3241 -1.9953 -1.9762 0.9655
-6.3488 -3.2711 -1.6488 0.9711
-7.2610 -8.0437 -2.5017 0.9565
-5.1361 -9.5417 -2.5017 0.9565
-2.7156 -10.4904 -2.5017 0.9565
3.6946 -10.1869 -2.5017 0.9565
4.8899 -9.6701 -2.5017 0.9565
6.0146 -9.0137 -2.5017 0.9565
8.8091 -6.3105 -2.5017 0.9565
10.0586 -4.0308 -2.5017 0.9565
10.4695 -2.7950 -2.5017 0.9565
6.3173 -0.8944 -1.4730 0.9741
10.8339 -0.2209 -2.5017 0.9565
10.6880 1.0708 -2.4799 0.9569
9.9314 2.2219 -2.3495 0.9591
9.5932 3.3973 -2.3495 0.9591
9.1164 4.5235 -2.3495 0.9591
3.1614 5.6655 -1.4978 0.9737
1.5613 5.6754 -1.3589 0.9761
0.8481 5.6798 -1.3258 0.9767
-1.2063 5.5905 -1.3204 0.9768
-1.9173 5.5475 -1.3551 0.9762
-2.6758 5.4970 -1.4115 0.9752
-3.5098 5.4365 -1.4940 0.9738
-9.7916 2.7738 -2.3495 0.9591
-10.1232 1.5901 -2.3658 0.9588
-10.8293 0.3852 -2.5017 0.9565
-9.5942 -1.9942 -2.2623 0.9606
-6.6053 -2.2270 -1.6093 0.9718
-6.3784 -3.0453 -1.6318 0.9714
-9.1481 -5.8081 -2.5017 0.9565
-8.3854 -6.8636 -2.5017 0.9565
-6.5092 -8.6633 -2.5017 0.9565
-5.4230 -9.3816 -2.5017 0.9565
-0.4672 -10.8261 -2.5017 0.9565
9.3361 0.0927 -2.5017 0.9621
8.7176 1.1413 -2.3558 0.9642
8.4951 2.1730 -2.3495 0.9643
7.7330 4.1338 -2.3495 0.9643
7.1813 5.0316 -2.3495 0.9643
6.5258 5.8567 -2.3495 0.9643
2.1245 5.6719 -1.6229 0.9752
1.3780 5.6765 -1.5652 0.9761
-0.6991 5.6737 -1.5318 0.9766
-1.3745 5.5484 -1.5316 0.9766
-2.0847 5.4868 -1.5727 0.9760
-2.8512 5.4324 -1.6439 0.9749
-3.6322 5.2685 -1.7147 0.9738
-6.5533 5.8260 -2.3495 0.9643
-7.2048 4.9978 -2.3495 0.9643
-8.5052 2.1330 -2.3495 0.9643
-9.2609 1.1682 -2.5011 0.9621
-9.2749 -1.0715 -2.5017 0.9621
-9.0794 -2.1764 -2.5017 0.9621
-6.1393 -2.2794 -1.7547 0.9732
-5.9838 -3.0830 -1.8037 0.9725
-7.7268 -5.2410 -2.5017 0.9621
-7.0423 -6.1301 -2.5017 0.9621
-6.2561 -6.9306 -2.5017 0.9621
-5.3796 -7.6310 -2.5017 0.9621
-4.4253 -8.2212 -2.5017 0.9621
-2.3398 -9.0386 -2.5017 0.9621
-0.1196 -9.3358 -2.5017 0.9621
2.1075 -9.0956 -2.5017 0.9621
6.0765 -7.0886 -2.5017 0.9621
8.1874 -4.4875 -2.5017 0.9621
9.0206 -2.4083 -2.5017 0.9621
6.2785 -0.8889 -1.6991 0.9741
7.8548 3.8975 -2.3495 0.9643
7.3305 4.8116 -2.3495 0.9643
6.7004 5.6562 -2.3495 0.9643
5.2602 5.6526 -2.0690 0.9685
4.1197 5.6597 -1.8757 0.9714
3.1614 5.6655 -1.7384 0.9735
-1.9006 5.4991 -1.5590 0.9762
-7.6246 4.3306 -2.3495 0.9643
-8.4366 2.3899 -2.3495 0.9643
-9.3307 0.3319 -2.5017 0.9621
-6.2662 -2.1127 -1.7719 0.9730
-6.0075 -2.8682 -1.7838 0.9728
-7.8821 -5.0043 -2.5017 0.9621
-6.4634 -6.7377 -2.5017 0.9621
-5.6084 -7.4644 -2.5017 0.9621
-4.6725 -8.0833 -2.5017 0.9621
-3.6691 -8.5854 -2.5017 0.9621
-1.5186 -9.2122 -2.5017 0.9621
