ply
format ascii 1.0
element vertex 629
property float32 x
property float32 y
property float32 z
property float32 I
end_header
-24.1662 -34.1049 11.2000 0.8411
-12.1856 -47.1532 13.0497 0.8174
43.9257 -85.5716 25.7733 0.6714
48.8852 -34.2971 16.0010 0.7809
44.5557 16.6557 12.7456 0.8212
33.1747 17.2258 10.0160 0.8566
24.1084 21.2005 8.6023 0.8755
23.6411 26.5075 9.5171 0.8632
2.1655 5.6717 1.6267 0.9752
0.6985 5.6807 1.5336 0.9766
-0.6862 5.6892 1.5355 0.9765
-1.4007 5.6936 1.5711 0.9760
-2.1605 5.6983 1.6329 0.9751
-2.9934 5.6995 1.7250 0.9737
-24.0473 21.2459 8.5980 0.8756
-27.9994 19.2557 9.1053 0.8687
-32.1493 -0.1130 8.6144 0.8753
-48.2089 -12.0993 13.3182 0.8140
-16.2982 -43.9143 12.5511 0.8237
-15.3244 -64.2353 17.6948 0.7607
23.8562 21.7832 8.6561 0.8748
24.6547 28.7073 10.1395 0.8550
3.7778 5.6617 1.8238 0.9722
2.8590 5.6674 1.7009 0.9741
-38.6176 -42.4932 13.2563 0.7900
-20.5177 -28.9560 8.1931 0.8644
-15.7556 -29.1672 7.6534 0.8728
-12.1856 -47.1532 11.2438 0.8188
16.0927 -43.6712 10.7451 0.8261
48.8852 -34.2971 13.7866 0.7826
49.1770 11.8545 11.6786 0.8125
44.5557 16.6557 10.9817 0.8226
24.6433 27.6313 8.5477 0.8590
2.9929 5.6666 1.4795 0.9740
1.4104 5.6763 1.3503 0.9763
0.0066 5.6849 1.3125 0.9769
-0.6862 5.6892 1.3230 0.9767
-1.4007 5.6936 1.3537 0.9762
-2.1605 5.6983 1.4069 0.9753
-2.9934 5.6995 1.4863 0.9739
-5.0743 5.7162 1.7646 0.9691
-24.2208 21.3991 7.4616 0.8757
-29.4666 20.2648 8.2564 0.8635
-7.5036 2.8249 1.8510 0.9676
-32.1766 -0.1131 7.4286 0.8763
-61.4164 -32.6228 16.0552 0.7516
-24.9191 -36.5998 10.2223 0.8338
-16.6176 -44.7748 11.0260 0.8220
16.7456 -42.9496 10.6427 0.8276
49.0185 -54.1900 16.8698 0.7408
49.1830 12.8338 11.7350 0.8117
43.4183 17.1627 10.7786 0.8256
24.6163 22.4773 7.6959 0.8721
24.6547 28.7073 8.7363 0.8561
3.7778 5.6617 1.5714 0.9724
-11.2532 -9.7108 2.8892 0.9412
-14.6346 -37.2792 7.7847 0.8494
-13.0738 -50.5903 10.1568 0.8082
39.0322 -57.6153 13.5273 0.7531
51.5394 -27.5300 11.3579 0.7881
33.1748 17.2258 7.2660 0.8587
24.6481 27.6366 7.1981 0.8599
2.9929 5.6666 1.2457 0.9742
0.0066 5.6849 1.1050 0.9771
-1.4007 5.6936 1.1397 0.9764
-2.1605 5.6983 1.1846 0.9755
-2.9934 5.6995 1.2514 0.9741
-3.9462 5.7092 1.3491 0.9721
-6.4797 5.7248 1.6807 0.9654
-48.3416 -12.1326 9.6881 0.8162
-60.7741 -32.2817 13.3764 0.7555
-10.9226 -16.0425 3.7725 0.9240
-16.7792 -70.3333 14.0551 0.7448
14.0675 -54.9615 11.0278 0.7936
16.7418 -42.9397 8.9586 0.8288
42.3256 -46.7911 12.2642 0.7733
51.3868 -44.5518 13.2200 0.7580
53.9727 -27.5450 11.7785 0.7812
43.4183 17.1627 9.0751 0.8268
24.6163 22.4773 6.4796 0.8730
24.6547 28.7073 7.3556 0.8571
2.8590 5.6674 1.2339 0.9745
-33.2246 -36.5590 7.8243 0.8187
-25.9296 -36.5936 7.1034 0.8339
-13.5802 -34.5932 5.8861 0.8603
-12.6319 -48.8802 7.9962 0.8151
15.9872 -43.3847 7.3232 0.8292
50.4544 -45.4238 10.7526 0.7596
49.3439 -34.6189 9.5469 0.7834
53.5867 -20.7478 9.1013 0.7924
53.3188 -13.5133 8.7119 0.8003
53.4953 -6.8321 8.5416 0.8038
53.5755 6.2077 8.5423 0.8038
49.1770 11.8545 8.0120 0.8148
33.1748 17.2258 5.9205 0.8595
24.5198 16.7791 4.7058 0.8866
24.1085 21.2005 5.0848 0.8781
2.9929 5.6666 1.0150 0.9744
2.1655 5.6717 0.9616 0.9757
0.6985 5.6807 0.9065 0.9771
-5.0743 5.7162 1.2106 0.9695
-6.4797 5.7248 1.3694 0.9656
-7.7415 2.9144 1.3101 0.9671
-32.2288 -0.1133 5.1045 0.8776
-69.0074 -17.3191 11.2687 0.7497
-71.1895 -63.7929 15.1400 0.6790
-24.9191 -36.5998 7.0129 0.8358
-12.8534 -34.6325 5.8508 0.8610
-16.1541 -67.7129 11.0256 0.7543
11.5471 -45.1144 7.3758 0.8281
16.9407 -43.4499 7.3864 0.8279
48.8464 -42.3492 10.2393 0.7697
53.9727 -27.5450 9.5973 0.7824
53.3253 -12.4584 8.6733 0.8011
53.3662 -5.8035 8.5022 0.8046
43.4183 17.1627 7.3945 0.8277
31.5446 17.1359 5.6858 0.8647
24.6163 22.4773 5.2797 0.8737
3.7778 5.6617 1.0780 0.9728
2.8590 5.6674 1.0054 0.9746
-67.9645 -45.5812 10.0477 0.7191
-13.0739 -50.5903 6.4158 0.8101
12.2513 -51.8873 6.5461 0.8067
22.4784 -43.7900 6.0437 0.8201
30.6834 -45.2918 6.7171 0.8021
39.3682 -45.1926 7.3591 0.7854
50.4209 -45.3936 8.3302 0.7608
49.3937 -34.6538 7.4085 0.7841
53.3188 -13.5133 6.7537 0.8012
53.3600 -6.8148 6.6050 0.8051
49.6277 11.9631 6.2680 0.8141
24.5199 16.7791 3.6481 0.8872
23.6411 26.5076 4.3611 0.8666
2.1655 5.6717 0.7454 0.9758
1.4104 5.6763 0.7182 0.9767
0.0066 5.6849 0.6980 0.9773
-2.1605 5.6983 0.7483 0.9757
-2.9934 5.6995 0.7905 0.9744
-3.9462 5.7092 0.8522 0.9724
-7.7402 2.9139 1.0155 0.9672
-32.2362 -0.1133 3.9581 0.8782
-30.2224 -34.5315 5.6345 0.8312
-23.5149 -34.5374 5.1303 0.8450
-18.5598 -35.9506 4.9677 0.8495
-14.0775 -37.9307 4.9677 0.8495
31.9408 -45.2995 6.8057 0.7998
40.8883 -45.2021 7.4839 0.7822
48.8464 -42.3492 7.9378 0.7706
53.4102 -27.2579 7.3627 0.7853
53.3662 -5.8035 6.5912 0.8055
49.8443 6.7223 6.1755 0.8165
49.6337 12.9514 6.2983 0.8132
31.5446 17.1359 4.4078 0.8653
23.6475 27.5345 4.4565 0.8639
3.7778 5.6617 0.8357 0.9729
2.8590 5.6674 0.7794 0.9747
-25.9296 -36.5936 3.9238 0.8352
-19.7803 -36.6181 3.6412 0.8461
-14.6346 -37.2792 3.5038 0.8515
-13.0738 -50.5903 4.5715 0.8107
12.5590 -53.1902 4.7815 0.8030
22.5932 -44.0138 4.3284 0.8198
50.2047 -45.1990 5.9101 0.7624
48.8959 -34.3045 5.2256 0.7868
53.4599 -6.8276 4.7151 0.8054
43.9120 5.0880 3.8675 0.8374
49.1770 11.8545 4.4257 0.8162
24.5199 16.7791 2.5994 0.8875
24.1085 21.2005 2.8088 0.8791
3.9322 5.6608 0.6030 0.9727
2.9929 5.6666 0.5607 0.9746
0.0066 5.6849 0.4974 0.9774
-0.6862 5.6892 0.5013 0.9773
-2.1605 5.6983 0.5332 0.9758
-2.9934 5.6995 0.5632 0.9745
-5.0743 5.7162 0.6687 0.9698
-6.4797 5.7248 0.7565 0.9659
-8.3410 5.7362 0.8857 0.9602
-10.9840 5.7358 1.0841 0.9515
-68.7187 -17.2466 6.1986 0.7524
-44.4695 -39.8491 5.2241 0.7868
-32.0034 -36.5665 4.2514 0.8227
-13.1763 -55.2312 4.9677 0.7961
31.5214 -44.7048 4.7857 0.8028
40.8421 -45.1510 5.3265 0.7831
48.8464 -42.3492 5.6560 0.7714
44.1042 -22.5086 4.3321 0.8197
49.5809 -18.1380 4.6189 0.8090
53.4252 -12.4817 4.8000 0.8023
53.4662 -5.8144 4.7053 0.8058
53.4134 0.6873 4.6734 0.8070
43.5824 5.8778 3.8475 0.8381
2.8590 5.6674 0.5554 0.9748
-31.3757 -34.5245 2.4449 0.8296
-24.4932 -34.5665 2.2202 0.8439
-14.8129 -27.4222 1.6334 0.8826
12.7103 -53.8311 2.8987 0.8013
16.3958 -44.4937 2.4851 0.8270
22.4955 -43.8234 2.5816 0.8209
23.4601 -34.6295 2.1921 0.8457
23.7252 -27.2353 1.8930 0.8653
30.2964 -27.2757 2.1364 0.8493
41.5551 -22.1969 2.4690 0.8280
58.4124 -22.6162 3.2827 0.7781
58.3597 -14.7909 3.1552 0.7857
58.3107 -7.4471 3.0808 0.7902
41.6754 4.8289 2.1987 0.8453
33.1748 17.2258 1.9590 0.8609
24.5198 16.7790 1.5571 0.8878
24.1085 21.2005 1.6825 0.8793
4.3082 6.2022 0.3958 0.9702
2.1655 5.6717 0.3182 0.9760
1.4104 5.6763 0.3065 0.9768
0.0066 5.6849 0.2979 0.9775
-0.6862 5.6892 0.3003 0.9773
-1.4007 5.6936 0.3073 0.9768
-3.9413 5.7022 0.3633 0.9726
-6.4753 5.7209 0.4528 0.9660
-10.9840 5.7358 0.6494 0.9516
-7.7400 2.9139 0.4334 0.9674
-32.2508 -0.1134 1.6903 0.8788
-30.2224 -34.5315 2.4050 0.8321
-17.8401 -34.5566 2.0381 0.8558
-12.8686 -34.6735 1.9383 0.8623
11.9936 -92.1817 4.8718 0.6891
13.9634 -54.5551 2.9513 0.7981
31.4686 -27.2829 2.1827 0.8463
49.0037 -33.0300 3.0971 0.7892
42.0315 -21.4508 2.4731 0.8278
49.5768 -18.1365 2.7666 0.8094
58.3520 -13.6328 3.1404 0.7866
58.2567 0.7496 3.0534 0.7919
41.1985 5.5563 2.1787 0.8466
24.0835 17.1505 1.5495 0.8883
23.8562 21.7832 1.6930 0.8786
5.7293 6.6711 0.4609 0.9654
4.2221 6.3276 0.3987 0.9700
2.8590 5.6674 0.3327 0.9749
-18.4468 -34.1493 0.6775 0.8562
-13.0739 -50.5903 0.9121 0.8114
21.6127 -42.1036 0.8261 0.8275
30.2964 -27.2757 0.7116 0.8495
38.9532 -27.3289 0.8306 0.8267
39.7382 -21.2263 0.7864 0.8351
39.6197 4.5907 0.6962 0.8525
22.9972 5.5436 0.4129 0.9097
44.5559 16.6558 0.8303 0.8267
24.5199 16.7791 0.5186 0.8879
23.8869 26.7831 0.6264 0.8663
2.9929 5.6666 0.1119 0.9747
0.0066 5.6849 0.0992 0.9775
-0.6862 5.6892 0.1000 0.9773
-2.1605 5.6983 0.1064 0.9759
-2.9934 5.6995 0.1124 0.9746
-3.9301 5.6860 0.1206 0.9727
-6.4309 5.6817 0.1498 0.9663
-8.3410 5.7362 0.1767 0.9603
-31.8766 -36.4216 0.8448 0.8240
-26.0739 -38.2959 0.8087 0.8308
21.0546 -82.2604 1.4825 0.7120
31.4686 -27.2829 0.7270 0.8465
49.5724 -18.1349 0.9214 0.8096
39.2234 5.2899 0.6908 0.8536
23.7411 9.3846 0.4456 0.9029
24.6164 22.4774 0.5819 0.8752
23.6475 27.5345 0.6335 0.8648
4.2234 6.3296 0.1328 0.9700
2.8590 5.6674 0.1108 0.9749
-20.4784 -22.5336 -0.5315 0.8853
23.4601 -34.6295 -0.7301 0.8459
30.2964 -27.2757 -0.7116 0.8495
41.2041 -22.0094 -0.8154 0.8295
71.7640 -27.7857 -1.3433 0.7350
86.4831 -21.9186 -1.5573 0.6998
66.6134 -0.3888 -1.1628 0.7661
38.9161 4.5091 -0.6838 0.8549
44.5559 16.6558 -0.8303 0.8267
33.1748 17.2258 -0.6525 0.8611
23.8869 26.7831 -0.6264 0.8663
4.3112 6.2065 -0.1319 0.9702
0.0066 5.6849 -0.0992 0.9775
-0.6862 5.6892 -0.1000 0.9773
-2.1605 5.6983 -0.1064 0.9759
-3.9189 5.6698 -0.1203 0.9728
-6.3851 5.6412 -0.1487 0.9665
-8.3410 5.7362 -0.1767 0.9603
-10.9840 5.7358 -0.2163 0.9516
-7.7397 2.9138 -0.1444 0.9675
-91.2029 10.7821 -1.6030 0.6925
-83.8234 -10.5078 -1.4746 0.7132
-83.8016 -32.2229 -1.5672 0.6982
-19.6049 -22.4003 -0.5196 0.8877
-12.5509 -24.3112 -0.4776 0.8963
-9.9776 -26.8838 -0.5005 0.8916
-8.7364 -76.9845 -1.3524 0.7335
14.1244 -36.2265 -0.6787 0.8559
23.4684 -33.2837 -0.7109 0.8497
31.4686 -27.2829 -0.7270 0.8465
49.5640 -18.1318 -0.9212 0.8097
88.1197 -20.5874 -1.5795 0.6963
65.9495 0.8486 -1.1512 0.7681
41.3735 5.5799 -0.7287 0.8462
23.7411 9.3846 -0.4456 0.9029
23.6475 27.5345 -0.6335 0.8648
2.8590 5.6674 -0.1108 0.9749
-33.9422 -29.2897 -2.3496 0.8356
-12.8524 -23.7928 -1.4172 0.8973
-5.8875 -44.4443 -2.3496 0.8356
-0.5018 -47.7341 -2.5018 0.8260
23.3562 -34.4761 -2.1824 0.8464
23.7252 -27.2353 -1.8930 0.8653
28.1924 -25.3815 -1.9880 0.8590
39.0299 -15.1117 -2.1934 0.8457
46.2737 -11.7278 -2.5018 0.8260
47.3521 -6.0476 -2.5018 0.8260
38.8960 4.5068 -2.0521 0.8548
18.2331 6.8159 -1.0201 0.9250
18.3054 9.5050 -1.0810 0.9207
23.8869 26.7832 -1.8808 0.8661
4.3112 6.2065 -0.3960 0.9702
0.6985 5.6807 -0.3000 0.9773
-0.6862 5.6892 -0.3003 0.9773
-2.1605 5.6983 -0.3194 0.9759
-2.9934 5.6995 -0.3374 0.9745
-3.9170 5.6670 -0.3610 0.9728
-5.0215 5.6567 -0.3964 0.9702
-35.8035 4.2327 -1.8894 0.8655
-32.3033 -0.1136 -1.6930 0.8786
-44.4844 -5.5764 -2.3496 0.8356
-46.1199 -11.5749 -2.4920 0.8266
-44.5564 -17.1326 -2.5018 0.8260
-39.1419 -27.3259 -2.5018 0.8260
-19.4619 -22.2368 -1.5487 0.8884
-15.4422 -22.6806 -1.4380 0.8959
-12.4721 -24.1587 -1.4249 0.8968
-9.9886 -26.9136 -1.5045 0.8914
-5.3765 -47.3778 -2.4989 0.8261
6.1590 -47.3377 -2.5018 0.8260
11.8367 -46.2460 -2.5018 0.8260
20.5949 -29.2084 -1.8730 0.8666
26.7456 -18.0274 -1.6904 0.8788
30.4147 -15.5221 -1.7895 0.8722
44.8310 -16.4004 -2.5018 0.8260
47.4569 -5.1609 -2.5018 0.8260
47.7328 0.6142 -2.5018 0.8260
21.2853 5.5542 -1.1529 0.9157
18.2315 7.2067 -1.0274 0.9245
23.8118 21.7427 -1.6899 0.8788
23.6475 27.5346 -1.9022 0.8647
4.2234 6.3296 -0.3988 0.9700
-23.7489 -15.9275 -2.5018 0.8915
-15.5267 -21.9124 -2.3496 0.8978
-3.7552 -28.3478 -2.5018 0.8915
3.1584 -28.4204 -2.5018 0.8915
9.8874 -26.8316 -2.5018 0.8915
13.0531 -25.4287 -2.5007 0.8916
15.0626 -22.2339 -2.3496 0.8978
17.6401 -20.2499 -2.3496 0.8978
23.4088 -16.4232 -2.5018 0.8915
26.6664 -10.3247 -2.5018 0.8915
28.3650 -3.6226 -2.5018 0.8915
28.5949 -0.1669 -2.5018 0.8915
26.6773 3.0910 -2.3496 0.8978
22.9972 5.5436 -2.0696 0.9094
18.6501 6.9717 -1.7419 0.9232
18.2333 20.4441 -2.3966 0.8958
4.3112 6.2065 -0.6611 0.9701
0.0066 5.6849 -0.4974 0.9774
-0.6862 5.6892 -0.5013 0.9773
-2.1605 5.6983 -0.5332 0.9758
-2.9934 5.6995 -0.5632 0.9745
-3.9170 5.6670 -0.6027 0.9727
-10.9840 5.7358 -1.0841 0.9515
-7.7395 2.9137 -0.7235 0.9673
-26.8556 -0.0944 -2.3496 0.8978
-26.6903 -10.2628 -2.5018 0.8915
-23.4469 -16.3689 -2.5018 0.8915
-15.7255 -17.9676 -2.0890 0.9086
-12.3196 -23.8633 -2.3496 0.8978
-9.3444 -25.1776 -2.3496 0.8978
-6.2320 -26.1227 -2.3496 0.8978
-3.2244 -28.4130 -2.5018 0.8915
0.2342 -28.5944 -2.5018 0.8915
18.0157 -19.9164 -2.3496 0.8978
20.2914 -17.5923 -2.3496 0.8978
23.7119 -15.9826 -2.5018 0.8915
26.8548 -9.8242 -2.5018 0.8915
27.8455 -6.5056 -2.5018 0.8915
28.4278 -3.0915 -2.5018 0.8915
28.5930 0.3679 -2.5018 0.8915
18.6585 7.3755 -1.7553 0.9226
18.7242 10.1715 -1.8643 0.9180
18.8136 13.3977 -2.0207 0.9114
20.1655 18.4132 -2.3891 0.8962
2.8590 5.6674 -0.5554 0.9748
-16.9220 -11.3490 -2.5018 0.9212
-15.4259 -13.3115 -2.5018 0.9212
-13.7035 -15.0787 -2.5018 0.9212
-11.7801 -16.6248 -2.5018 0.9212
-7.4455 -18.9662 -2.5018 0.9212
-5.0980 -19.7272 -2.5018 0.9212
-2.6757 -20.1989 -2.5018 0.9212
-0.2142 -20.3742 -2.5018 0.9212
9.3048 -18.1266 -2.5018 0.9212
13.3835 -15.3635 -2.5018 0.9212
16.6797 -11.7022 -2.5018 0.9212
17.9721 -9.5999 -2.5018 0.9212
20.2112 -2.5813 -2.5018 0.9212
19.0086 2.2025 -2.3496 0.9258
18.6029 4.4844 -2.3496 0.9258
17.9243 6.7004 -2.3496 0.9258
17.0110 8.8329 -2.3535 0.9257
4.3112 6.2065 -0.9279 0.9700
2.9929 5.6666 -0.7868 0.9745
2.1655 5.6717 -0.7454 0.9758
1.4104 5.6763 -0.7182 0.9767
0.6985 5.6807 -0.7028 0.9772
-2.9934 5.6995 -0.7905 0.9744
-3.9170 5.6670 -0.8458 0.9726
-4.9914 5.6228 -0.9232 0.9702
-8.3410 5.7362 -1.2430 0.9600
-18.5924 4.5275 -2.3496 0.9258
-19.0034 2.2466 -2.3496 0.9258
-9.2168 -2.3132 -1.1668 0.9624
-17.9943 -9.5581 -2.5018 0.9212
-16.7068 -11.6634 -2.5018 0.9212
-13.4191 -15.3324 -2.5018 0.9212
-11.4671 -16.8422 -2.5018 0.9212
-4.7282 -19.8191 -2.5018 0.9212
0.1669 -20.3746 -2.5018 0.9212
2.6288 -20.2050 -2.5018 0.9212
5.0522 -19.7390 -2.5018 0.9212
11.7414 -16.6521 -2.5018 0.9212
13.6685 -15.1105 -2.5018 0.9212
15.3950 -13.3472 -2.5018 0.9212
16.8956 -11.3882 -2.5018 0.9212
18.1485 -9.2621 -2.5018 0.9212
19.1351 -7.0001 -2.5018 0.9212
20.3736 0.2622 -2.5018 0.9212
18.5158 4.8315 -2.3496 0.9258
17.7959 7.0345 -2.3496 0.9258
14.2480 13.0099 -2.3690 0.9252
12.6035 14.6752 -2.3752 0.9250
2.8590 5.6674 -0.7794 0.9747
-10.6234 -11.6895 -2.5018 0.9380
-9.1323 -12.8881 -2.5018 0.9380
-7.5072 -13.8976 -2.5018 0.9380
-5.7720 -14.7032 -2.5018 0.9380
-3.9521 -15.2931 -2.5018 0.9380
-2.0743 -15.6588 -2.5018 0.9380
3.6298 -15.3729 -2.5018 0.9380
5.4616 -14.8213 -2.5018 0.9380
7.2134 -14.0523 -2.5018 0.9380
11.7390 -10.5686 -2.5018 0.9380
13.9325 -7.4421 -2.5018 0.9380
15.7953 -0.0922 -2.5018 0.9380
14.7360 1.7074 -2.3496 0.9417
14.4215 3.4764 -2.3496 0.9417
13.8955 5.1944 -2.3496 0.9417
13.1656 6.8361 -2.3496 0.9417
5.4252 6.0830 -1.2910 0.9675
4.3112 6.2065 -1.1969 0.9699
2.1655 5.6717 -0.9616 0.9757
0.6985 5.6807 -0.9065 0.9771
-0.6862 5.6892 -0.9076 0.9771
-1.4007 5.6936 -0.9287 0.9765
-10.9840 5.7358 -1.9626 0.9511
-14.4134 3.5099 -2.3496 0.9417
-14.7320 1.7416 -2.3496 0.9417
-15.7955 -0.0555 -2.5018 0.9380
-15.6729 -1.9647 -2.5018 0.9380
-8.6617 -2.1739 -1.4144 0.9645
-8.4545 -3.2509 -1.4346 0.9640
-13.9497 -7.4098 -2.5018 0.9380
-12.9516 -9.0419 -2.5018 0.9380
-11.7635 -10.5413 -2.5018 0.9380
-10.4029 -11.8861 -2.5018 0.9380
-8.8896 -13.0566 -2.5018 0.9380
-7.2460 -14.0355 -2.5018 0.9380
-5.4960 -14.8086 -2.5018 0.9380
-1.7811 -15.6948 -2.5018 0.9380
0.1294 -15.7950 -2.5018 0.9380
2.0380 -15.6635 -2.5018 0.9380
3.9166 -15.3023 -2.5018 0.9380
5.7378 -14.7166 -2.5018 0.9380
7.4749 -13.9149 -2.5018 0.9380
9.1023 -12.9092 -2.5018 0.9380
13.0980 -8.8285 -2.5018 0.9380
14.0693 -7.1803 -2.5018 0.9380
15.7943 0.2032 -2.5018 0.9380
14.7015 1.9827 -2.3496 0.9417
13.0354 7.0812 -2.3496 0.9417
12.0997 8.6165 -2.3527 0.9416
4.2234 6.3296 -1.2052 0.9697
2.8590 5.6674 -1.0054 0.9746
-9.7441 -8.4085 -2.5018 0.9489
-7.4411 -10.5014 -2.5018 0.9489
-6.1170 -11.3240 -2.5018 0.9489
-4.7031 -11.9804 -2.5018 0.9489
-1.6902 -12.7591 -2.5018 0.9489
-0.1353 -12.8698 -2.5018 0.9489
2.9576 -12.5261 -2.5018 0.9489
5.8776 -11.4501 -2.5018 0.9489
8.4539 -9.7047 -2.5018 0.9489
9.5652 -8.6115 -2.5018 0.9489
10.5361 -7.3919 -2.5018 0.9489
11.3525 -6.0640 -2.5018 0.9489
12.0023 -4.6471 -2.5018 0.9489
12.8703 -0.0751 -2.5018 0.9489
12.4344 1.4408 -2.4332 0.9503
9.9755 6.8263 -2.3496 0.9519
9.0799 7.9847 -2.3503 0.9519
2.9929 5.6666 -1.2457 0.9742
2.1655 5.6717 -1.1801 0.9756
0.6985 5.6807 -1.1125 0.9769
0.0066 5.6849 -1.1050 0.9771
-2.1605 5.6983 -1.1846 0.9755
-8.3410 5.7362 -1.9677 0.9596
-10.7146 5.5951 -2.3496 0.9519
-11.7443 2.8599 -2.3496 0.9519
-12.7488 1.5072 -2.4954 0.9490
-12.8704 -0.0452 -2.5018 0.9489
-12.7706 -1.6009 -2.5018 0.9489
-10.5532 -7.3674 -2.5018 0.9489
-2.9867 -12.5192 -2.5018 0.9489
-1.4513 -12.7884 -2.5018 0.9489
1.6606 -12.7629 -2.5018 0.9489
3.1913 -12.4686 -2.5018 0.9489
4.6753 -11.9913 -2.5018 0.9489
6.0907 -11.3381 -2.5018 0.9489
10.6725 -7.1936 -2.5018 0.9489
12.0871 -4.4218 -2.5018 0.9489
12.5330 -2.9281 -2.5018 0.9489
12.8694 0.1656 -2.5018 0.9489
12.0341 1.6230 -2.3604 0.9517
11.6959 3.0519 -2.3496 0.9519
11.2411 4.4435 -2.3496 0.9519
9.8461 7.0117 -2.3496 0.9519
5.9009 6.8708 -1.7605 0.9638
4.2234 6.3296 -1.4791 0.9695
-8.9998 -6.0358 -2.5018 0.9565
-8.2041 -7.0796 -2.5018 0.9565
-7.2880 -8.0194 -2.5018 0.9565
-6.2651 -8.8417 -2.5018 0.9565
-1.4231 -10.7425 -2.5018 0.9565
-0.1139 -10.8358 -2.5018 0.9565
2.4902 -10.5464 -2.5018 0.9565
3.7469 -10.1680 -2.5018 0.9565
4.9486 -9.6404 -2.5018 0.9565
6.0778 -8.9715 -2.5018 0.9565
7.1178 -8.1709 -2.5018 0.9565
8.0534 -7.2505 -2.5018 0.9565
9.5582 -5.1056 -2.5018 0.9565
10.1054 -3.9126 -2.5018 0.9565
10.5043 -2.6622 -2.5018 0.9565
10.8362 -0.0633 -2.5018 0.9565
10.5882 1.2268 -2.4608 0.9572
9.5328 3.5635 -2.3496 0.9591
7.6425 6.7206 -2.3496 0.9591
4.3112 6.2065 -1.7447 0.9695
1.4104 5.6763 -1.3503 0.9763
0.0066 5.6849 -1.3125 0.9769
-3.8497 5.5696 -1.5631 0.9726
-8.3855 5.7669 -2.3496 0.9591
-9.0212 4.7108 -2.3496 0.9591
-7.6344 2.8741 -1.8833 0.9671
-10.7525 1.2712 -2.4997 0.9565
-10.7522 -1.3479 -2.5018 0.9565
-7.9152 -1.9865 -1.8840 0.9671
-8.8853 -6.2030 -2.5018 0.9565
-4.9710 -9.6289 -2.5018 0.9565
-2.5146 -10.5406 -2.5018 0.9565
-1.2219 -10.7673 -2.5018 0.9565
0.0888 -10.8360 -2.5018 0.9565
5.1281 -9.5462 -2.5018 0.9565
6.2445 -8.8562 -2.5018 0.9565
7.2694 -8.0363 -2.5018 0.9565
8.9857 -6.0567 -2.5018 0.9565
10.5522 -2.4653 -2.5018 0.9565
10.7729 -1.1715 -2.5018 0.9565
10.8355 0.1394 -2.5018 0.9565
9.8474 2.5696 -2.3496 0.9591
9.4645 3.7412 -2.3496 0.9591
8.2899 5.9035 -2.3496 0.9591
7.5154 6.8624 -2.3496 0.9591
2.8590 5.6674 -1.4655 0.9743
-7.0687 -6.0998 -2.5018 0.9621
-4.4375 -8.2148 -2.5018 0.9621
-3.4118 -8.6910 -2.5018 0.9621
-1.2261 -9.2559 -2.5018 0.9621
-0.0982 -9.3362 -2.5018 0.9621
2.1455 -9.0869 -2.5018 0.9621
6.1328 -7.0401 -2.5018 0.9621
8.7069 -3.3712 -2.5018 0.9621
9.0506 -2.2938 -2.5018 0.9621
9.3366 -0.0545 -2.5018 0.9621
8.5246 2.0549 -2.3496 0.9643
8.2136 3.0704 -2.3496 0.9643
7.7822 4.0408 -2.3496 0.9643
7.2366 4.9520 -2.3496 0.9643
6.5848 5.7905 -2.3496 0.9643
5.4252 6.0830 -2.1840 0.9668
4.3112 6.2065 -2.0249 0.9692
-2.1605 5.6983 -1.6329 0.9751
-4.7976 5.4045 -1.9364 0.9705
-6.5714 5.8058 -2.3496 0.9643
-7.2251 4.9688 -2.3496 0.9643
-7.5914 2.8579 -2.1735 0.9670
-9.2722 1.0962 -2.5018 0.9621
-9.3367 -0.0328 -2.5018 0.9621
-9.2642 -1.1613 -2.5018 0.9621
-7.6557 -5.3446 -2.5018 0.9621
-6.9534 -6.2310 -2.5018 0.9621
-5.2547 -7.7177 -2.5018 0.9621
-4.2831 -8.2964 -2.5018 0.9621
-3.2487 -8.7533 -2.5018 0.9621
-2.1666 -9.0819 -2.5018 0.9621
0.0765 -9.3364 -2.5018 0.9621
1.2046 -9.2587 -2.5018 0.9621
2.3151 -9.0452 -2.5018 0.9621
3.3916 -8.6989 -2.5018 0.9621
4.4184 -8.2251 -2.5018 0.9621
7.7422 -5.2185 -2.5018 0.9621
9.2820 -1.0094 -2.5018 0.9621
9.3360 0.1201 -2.5018 0.9621
9.1052 1.2280 -2.4618 0.9627
7.7052 4.1857 -2.3496 0.9643
6.4754 5.9127 -2.3496 0.9643
4.2234 6.3296 -2.0389 0.9690
