ply
format ascii 1.0
element vertex 612
property float32 x
property float32 y
property float32 z
property float32 I
end_header
44.7346 16.7507 12.7993 0.8205
24.8642 16.9540 8.0637 0.8828
24.8938 21.7690 8.8610 0.8720
2.2124 5.6714 1.6312 0.9751
0.0665 5.6846 1.5233 0.9767
-1.3239 5.6931 1.5662 0.9761
-20.5530 23.9699 8.4605 0.8774
-26.8583 19.2487 8.8540 0.8721
-6.9796 2.8013 2.0152 0.9693
-45.4827 -10.1110 12.4845 0.8245
-19.9576 -27.2829 9.0576 0.8694
-16.4356 -29.2815 8.9974 0.8702
-18.1182 -43.9032 12.7262 0.8215
22.5801 -46.8424 13.9335 0.8063
49.5451 -36.9878 16.5670 0.7741
49.9231 -28.6640 15.4250 0.7879
26.7687 16.7652 8.4633 0.8774
24.8836 20.1066 8.5721 0.8759
3.3261 5.6645 1.7601 0.9732
0.9789 5.6790 1.5441 0.9764
0.2879 5.6832 1.5248 0.9767
16.8355 -43.6626 10.8037 0.8252
23.8980 -45.0103 11.7653 0.8112
49.7903 -55.8317 17.2708 0.7356
53.6513 -47.2892 16.5111 0.7456
44.7346 16.7507 11.0281 0.8219
32.9674 17.0948 8.5735 0.8586
24.8938 21.7691 7.6347 0.8731
5.0819 5.6537 1.7551 0.9693
3.9740 5.6605 1.5967 0.9720
2.2124 5.6714 1.4054 0.9753
1.4605 5.6760 1.3531 0.9762
0.0665 5.6846 1.3125 0.9769
-0.6190 5.6888 1.3211 0.9768
-1.3239 5.6931 1.3494 0.9763
-3.8115 5.7084 1.5847 0.9722
-4.9004 5.7151 1.7381 0.9696
-28.2658 20.2574 8.0285 0.8670
-51.9060 -11.5390 12.2760 0.8039
-17.1430 -30.5417 8.0859 0.8661
-18.3896 -44.5610 11.1293 0.8205
-12.0809 -43.4297 10.4072 0.8311
21.7776 -45.1775 11.5786 0.8139
49.8415 -47.5020 15.8958 0.7538
51.0215 -29.2947 13.5828 0.7854
49.9876 16.5304 12.1552 0.8056
26.9268 16.8643 7.3351 0.8777
5.4690 5.6277 1.8117 0.9683
4.3107 5.6585 1.6423 0.9712
0.9789 5.6790 1.3304 0.9766
0.2879 5.6832 1.3138 0.9769
22.9184 -90.5357 18.1535 0.6835
16.3529 -42.4110 8.8355 0.8309
23.2527 -43.7948 9.6383 0.8171
39.8166 -57.1904 13.5455 0.7528
44.7346 16.7507 9.2851 0.8231
33.2195 17.2256 7.2737 0.8586
24.8642 16.9540 5.8497 0.8846
24.8938 21.7691 6.4281 0.8739
5.0819 5.6537 1.4777 0.9695
2.2124 5.6714 1.1833 0.9755
1.4605 5.6760 1.1392 0.9764
-0.6190 5.6888 1.1123 0.9770
-2.8870 5.7027 1.2425 0.9743
-4.9004 5.7151 1.4634 0.9698
-6.9775 2.8004 1.4615 0.9698
-67.8504 -15.0833 13.5107 0.7533
-61.4612 -30.3674 13.3256 0.7563
-17.5160 -31.2063 6.9561 0.8643
-15.1235 -36.6466 7.7061 0.8508
-12.0809 -43.4297 8.7624 0.8322
-13.9277 -91.3931 17.9701 0.6861
21.7139 -45.0453 9.7201 0.8157
29.0954 -45.4666 10.4925 0.8026
39.8708 -48.3732 12.1851 0.7746
49.7629 -47.4272 13.3624 0.7557
49.6607 -37.0740 12.0464 0.7768
49.9100 -28.6565 11.1869 0.7910
34.8609 16.3884 7.4877 0.8547
26.7687 16.7653 6.1396 0.8792
24.8836 20.1066 6.2186 0.8778
4.3107 5.6585 1.3827 0.9714
0.2879 5.6832 1.1061 0.9771
-0.3958 5.6874 1.1082 0.9770
23.3715 -44.0186 7.8936 0.8172
31.4691 -45.2005 8.7232 0.8001
40.3078 -45.1987 9.5919 0.7825
54.8240 -20.7742 9.2858 0.7886
54.1017 -13.3615 8.8263 0.7980
54.1430 -6.6407 8.6397 0.8018
54.1832 -0.1062 8.5818 0.8030
49.9606 12.1311 8.1429 0.8120
44.7346 16.7507 7.5657 0.8241
33.2195 17.2256 5.9267 0.8594
24.8938 21.7690 5.2377 0.8747
3.0370 5.6663 1.0182 0.9743
2.2124 5.6714 0.9642 0.9756
-0.6190 5.6888 0.9063 0.9771
-2.0705 5.6977 0.9602 0.9757
-2.8870 5.7027 1.0124 0.9744
-23.3403 21.3937 5.0147 0.8797
-8.0010 5.7341 1.5591 0.9609
-6.9766 2.8001 1.1907 0.9700
-68.0623 -15.1305 11.0432 0.7540
-66.6803 -43.5908 12.6176 0.7242
-10.5186 -14.3794 2.8218 0.9304
-19.1431 -34.1051 6.1945 0.8535
-14.2887 -34.6238 5.9325 0.8593
-12.0809 -43.4297 7.1398 0.8331
15.0255 -43.9964 7.3635 0.8284
21.7326 -45.0842 7.9270 0.8165
37.1662 -45.0918 9.2551 0.7893
49.7602 -37.1483 9.8352 0.7776
49.9100 -28.6565 9.1153 0.7921
54.1702 -2.2156 8.5869 0.8029
54.2103 4.3027 8.6131 0.8023
52.2542 10.5537 8.4434 0.8058
49.9876 16.5304 8.3389 0.8080
5.4690 5.6277 1.2429 0.9687
4.3107 5.6585 1.1267 0.9716
3.3261 5.6645 1.0404 0.9737
18.5286 61.9165 10.2363 0.7697
0.9789 5.6790 0.9127 0.9769
0.2879 5.6832 0.9013 0.9772
-0.3958 5.6874 0.9030 0.9772
53.4293 -27.9715 7.4049 0.7842
54.1017 -13.3615 6.8424 0.7988
54.1430 -6.6408 6.6977 0.8027
54.1832 -0.1062 6.6529 0.8038
50.1906 5.9563 6.2059 0.8157
24.8642 16.9540 3.6951 0.8858
5.0819 5.6537 0.9334 0.9698
3.9740 5.6605 0.8492 0.9725
3.0370 5.6663 0.7894 0.9744
2.2124 5.6714 0.7475 0.9758
1.4605 5.6760 0.7196 0.9767
0.7529 5.6803 0.7036 0.9772
-0.6190 5.6888 0.7026 0.9772
-1.3239 5.6931 0.7177 0.9767
-2.0705 5.6977 0.7443 0.9759
-2.8870 5.7027 0.7848 0.9746
-4.9004 5.7151 0.9244 0.9701
-10.4806 5.7494 1.4678 0.9530
-6.9762 2.7999 0.9230 0.9702
-90.5228 24.2346 11.5062 0.6855
-32.2638 -34.5190 5.8015 0.8266
-15.1235 -36.6466 4.8677 0.8523
-13.4685 -88.3796 10.9769 0.6975
11.5737 -54.5633 6.8486 0.7987
28.8788 -45.1282 6.5785 0.8058
49.7603 -37.1484 7.6247 0.7786
49.9100 -28.6565 7.0665 0.7930
51.3079 -21.7607 6.8430 0.7988
54.1298 -8.7887 6.7333 0.8017
54.2103 4.3027 6.6771 0.8032
53.8029 10.8664 6.7395 0.8016
34.8609 16.3884 4.7298 0.8562
24.9842 20.1878 3.9440 0.8786
5.4690 5.6277 0.9635 0.9689
0.9789 5.6790 0.7076 0.9770
0.2879 5.6832 0.6987 0.9773
-0.3958 5.6874 0.7000 0.9773
16.4664 -42.7054 4.0044 0.8321
23.3715 -44.0186 4.3603 0.8186
49.6786 -34.1602 5.2747 0.7850
52.5985 -27.5366 5.1943 0.7879
54.0652 -20.4866 5.0583 0.7928
54.2015 -13.3861 4.8845 0.7992
54.2429 -6.6530 4.7812 0.8030
44.6130 5.2944 3.9305 0.8349
33.2195 17.2256 3.2738 0.8605
24.8939 21.7691 2.8932 0.8757
3.9740 5.6605 0.6051 0.9726
0.7529 5.6803 0.5013 0.9773
-1.3239 5.6931 0.5114 0.9768
-2.0705 5.6977 0.5304 0.9760
-2.8870 5.7027 0.5592 0.9747
-23.3403 21.3937 2.7700 0.8806
-10.4806 5.7494 1.0458 0.9531
-6.9762 2.7999 0.6577 0.9703
-75.7438 -37.4243 7.3915 0.7123
-26.7647 -36.5885 3.9661 0.8336
-10.5448 -18.7864 1.8848 0.9171
-12.0809 -43.4297 3.9439 0.8344
-12.8572 -84.3684 7.4665 0.7099
12.3427 -58.1889 5.2041 0.7875
15.1464 -44.3502 4.1002 0.8285
49.7107 -28.5421 5.0150 0.7944
54.0951 -15.6163 4.9260 0.7977
54.2297 -8.8049 4.8066 0.8020
54.2702 -2.2196 4.7520 0.8041
52.4942 10.6021 4.6854 0.8065
16.8777 5.5812 1.5552 0.9311
3.3261 5.6645 0.5747 0.9740
2.4700 5.6698 0.5411 0.9755
17.1556 -44.4929 2.4991 0.8261
23.2571 -43.8032 2.5991 0.8198
30.9498 -27.2797 2.1621 0.8477
42.3962 -22.1954 2.5080 0.8256
59.0917 -7.2477 3.1201 0.7878
59.0446 -0.1157 3.0944 0.7894
42.4010 5.0319 2.2377 0.8428
22.8349 5.5446 1.2315 0.9102
24.8642 16.9540 1.5772 0.8864
0.7529 5.6803 0.3003 0.9773
-2.0705 5.6977 0.3177 0.9760
-3.8067 5.7012 0.3593 0.9729
-23.3403 21.3937 1.6593 0.8809
-8.0010 5.7341 0.5159 0.9613
-10.4806 5.7494 0.6265 0.9532
-6.9761 2.7999 0.3940 0.9703
-21.7339 5.8186 1.1791 0.9138
-11.8392 -42.5609 2.3152 0.8378
-10.0069 -65.6646 3.4811 0.7664
16.1057 -47.1592 2.6117 0.8191
28.8787 -45.1280 2.8079 0.8069
24.2739 -29.4502 2.0001 0.8582
28.6081 -27.2653 2.0711 0.8536
49.7603 -37.1484 3.2544 0.7798
59.2116 -25.1127 3.3707 0.7729
59.1073 -9.5969 3.1382 0.7867
59.0132 4.6839 3.1025 0.7889
53.8029 10.8665 2.8766 0.8026
26.7687 16.7652 1.6553 0.8812
5.4690 5.6277 0.4113 0.9691
5.0851 6.6750 0.4398 0.9669
2.4700 5.6698 0.3241 0.9755
-0.3958 5.6874 0.2988 0.9774
20.1073 -52.1480 0.9756 0.7996
24.2705 -27.2154 0.6365 0.8643
30.9498 -27.2797 0.7201 0.8479
40.5415 -21.2244 0.7988 0.8327
72.8673 -27.6112 1.3601 0.7322
24.5378 9.1881 0.4573 0.9005
24.8642 16.9540 0.5253 0.8866
5.3060 5.9031 0.1385 0.9687
2.2124 5.6714 0.1063 0.9759
0.0665 5.6846 0.0992 0.9775
-0.6190 5.6888 0.0999 0.9774
-4.8613 5.6695 0.1304 0.9706
-23.3403 21.3937 0.5527 0.8810
-8.0010 5.7341 0.1718 0.9614
-21.7339 5.8186 0.3927 0.9139
-73.9261 -36.5263 1.4393 0.7190
-27.7027 -37.8709 0.8190 0.8289
-17.5400 -31.2490 0.6255 0.8664
21.7327 -45.0845 0.8736 0.8185
24.2183 -37.8453 0.7843 0.8355
24.2739 -29.4502 0.6662 0.8584
28.6081 -27.2653 0.6898 0.8538
80.6366 6.4002 1.4119 0.7235
52.4942 10.6021 0.9348 0.8071
16.8143 5.5603 0.3091 0.9316
24.5477 11.5401 0.4735 0.8972
24.9540 20.1635 0.5600 0.8795
4.9149 6.4516 0.1416 0.9681
3.3261 5.6645 0.1147 0.9741
2.4700 5.6698 0.1079 0.9756
18.5287 61.9166 1.1281 0.7722
0.2879 5.6832 0.0993 0.9775
22.2429 -41.8930 -0.8279 0.8272
30.9498 -27.2797 -0.7201 0.8479
39.7511 -27.3338 -0.8421 0.8245
41.9862 -21.9807 -0.8272 0.8273
87.2672 -21.5524 -1.5690 0.6979
42.1518 5.0024 -0.7409 0.8438
22.8349 5.5446 -0.4102 0.9103
24.8642 16.9540 -0.5253 0.8866
24.8939 21.7691 -0.5772 0.8761
5.3060 5.9031 -0.1385 0.9687
3.0370 5.6663 -0.1122 0.9746
0.7529 5.6803 -0.1000 0.9773
-2.0705 5.6977 -0.1058 0.9760
-3.7853 5.6691 -0.1190 0.9731
-23.3402 21.3937 -0.5527 0.8810
-8.0010 5.7341 -0.1718 0.9614
-10.4580 5.7370 -0.2082 0.9534
-6.9760 2.7998 -0.1312 0.9704
-64.6193 9.2052 -1.1393 0.7702
-74.3213 -7.3567 -1.3036 0.7417
-82.9481 -29.2325 -1.5351 0.7034
-67.2957 -33.2502 -1.3102 0.7406
-71.0922 -46.4750 -1.4825 0.7119
-68.2481 -57.3766 -1.5563 0.7000
-21.3143 -22.8043 -0.5448 0.8826
-8.5279 -30.6569 -0.5554 0.8805
-8.0691 -52.9487 -0.9349 0.8071
20.2142 -41.9344 -0.8126 0.8301
24.2222 -37.8514 -0.7844 0.8355
28.6081 -27.2653 -0.6898 0.8538
36.5876 -27.3143 -0.7970 0.8330
41.4461 -23.7968 -0.8341 0.8260
87.4424 6.9404 -1.5311 0.7040
36.5974 17.2048 -0.7059 0.8506
5.4690 5.6277 -0.1370 0.9691
3.3261 5.6645 -0.1147 0.9741
18.5287 61.9166 -1.1281 0.7722
0.2879 5.6832 -0.0993 0.9775
-0.3958 5.6874 -0.0995 0.9775
0.3708 -47.7350 -2.5018 0.8260
6.0865 -47.3468 -2.5018 0.8260
11.7146 -46.2767 -2.5018 0.8260
36.9415 -25.4018 -2.3496 0.8356
31.1251 -16.2947 -1.8412 0.8687
39.9199 -15.1266 -2.2373 0.8428
47.3813 -5.8114 -2.5018 0.8260
47.7363 -0.0936 -2.5018 0.8260
40.2754 4.7797 -2.1256 0.8501
22.8349 5.5446 -1.2315 0.9102
19.2375 13.1174 -1.2203 0.9110
24.5923 21.5053 -1.7121 0.8773
5.3060 5.9031 -0.4160 0.9687
3.9740 5.6605 -0.3625 0.9727
1.4605 5.6760 -0.3072 0.9768
0.7529 5.6803 -0.3003 0.9773
0.0665 5.6846 -0.2979 0.9775
-0.6190 5.6888 -0.2999 0.9773
-1.3239 5.6931 -0.3063 0.9769
-2.8727 5.6745 -0.3333 0.9748
-3.7747 5.6532 -0.3562 0.9731
-4.8229 5.6247 -0.3883 0.9708
-23.0107 21.0917 -1.6359 0.8825
-21.7339 5.8186 -1.1791 0.9138
-45.0533 0.9651 -2.3617 0.8349
-43.7639 -9.7289 -2.3496 0.8356
-45.0223 -15.8667 -2.5018 0.8260
-34.3163 -28.8500 -2.3496 0.8356
-16.0904 -21.9964 -1.4283 0.8966
-13.0650 -23.2764 -1.3989 0.8986
-10.2875 -24.9282 -1.4133 0.8976
-8.3863 -30.1478 -1.6400 0.8822
9.9052 -46.6974 -2.5018 0.8260
14.4893 -42.4263 -2.3496 0.8356
19.4674 -40.3850 -2.3496 0.8356
21.4893 -33.5807 -2.0894 0.8524
24.3779 -29.5765 -2.0087 0.8577
45.8636 -13.2400 -2.5018 0.8260
47.1194 -7.6505 -2.5018 0.8260
47.6965 -1.9508 -2.5018 0.8260
44.0222 8.8911 -2.3537 0.8354
19.2166 12.0354 -1.1883 0.9132
24.5821 19.8630 -1.6563 0.8811
3.3261 5.6645 -0.3443 0.9740
13.6210 45.5167 -2.4899 0.8267
0.9789 5.6790 -0.3020 0.9772
-0.3958 5.6874 -0.2988 0.9774
0.2221 -28.5943 -2.5018 0.8915
10.2875 -26.6806 -2.5018 0.8915
15.3445 -22.0401 -2.3496 0.8978
17.8743 -20.0432 -2.3496 0.8978
20.1467 -17.7576 -2.3496 0.8978
26.7399 -10.1324 -2.5018 0.8915
27.7611 -6.8562 -2.5018 0.8915
28.3825 -3.4812 -2.5018 0.8915
28.5952 -0.0561 -2.5018 0.8915
26.6684 3.1648 -2.3496 0.8978
22.8349 5.5446 -2.0558 0.9100
19.6208 13.3787 -2.0777 0.9091
5.3060 5.9031 -0.6944 0.9686
3.9740 5.6605 -0.6051 0.9726
1.4605 5.6760 -0.5128 0.9767
0.7529 5.6803 -0.5013 0.9773
-0.6190 5.6888 -0.5006 0.9773
-2.8727 5.6745 -0.5564 0.9748
-3.7641 5.6373 -0.5930 0.9731
-4.8087 5.6082 -0.6463 0.9708
-6.0684 5.5623 -0.7202 0.9675
-8.0010 5.7341 -0.8612 0.9612
-10.4527 5.7341 -1.0431 0.9533
-26.5871 3.7874 -2.3496 0.8978
-26.8494 0.5752 -2.3496 0.8978
-28.4561 -2.8167 -2.5018 0.8915
-25.6366 -12.6669 -2.5018 0.8915
-21.8879 -18.4013 -2.5018 0.8915
-10.1615 -24.6229 -2.3305 0.8986
-7.1972 -25.8732 -2.3496 0.8978
-4.3065 -28.2587 -2.5009 0.8916
-0.8905 -28.5813 -2.5018 0.8915
2.5397 -28.4822 -2.5018 0.8915
12.4168 -25.7587 -2.5018 0.8915
14.5846 -22.7910 -2.3673 0.8970
19.4405 -18.5280 -2.3496 0.8978
24.7983 -14.2383 -2.5018 0.8915
27.4733 -7.9311 -2.5018 0.8915
28.2256 -4.5828 -2.5018 0.8915
21.1976 17.1282 -2.3843 0.8963
4.9149 6.4516 -0.7096 0.9680
3.3261 5.6645 -0.5747 0.9740
2.4700 5.6698 -0.5411 0.9755
7.9275 26.4912 -2.4192 0.8949
0.9789 5.6790 -0.5042 0.9771
0.2879 5.6832 -0.4979 0.9774
-0.3958 5.6874 -0.4988 0.9774
0.1583 -20.3746 -2.5018 0.9212
2.5979 -20.2089 -2.5018 0.9212
5.0001 -19.7521 -2.5018 0.9212
7.3303 -19.0109 -2.5018 0.9212
9.5549 -17.9959 -2.5018 0.9212
11.6419 -16.7217 -2.5018 0.9212
15.2852 -13.4726 -2.5018 0.9212
16.7890 -11.5445 -2.5018 0.9212
18.0511 -9.4502 -2.5018 0.9212
19.0532 -7.2197 -2.5018 0.9212
19.7809 -4.8853 -2.5018 0.9212
20.2236 -2.4805 -2.5018 0.9212
20.3751 -0.0400 -2.5018 0.9212
17.9205 6.7103 -2.3496 0.9258
17.0157 8.8233 -2.3534 0.9257
3.9740 5.6605 -0.8492 0.9725
3.0370 5.6663 -0.7894 0.9744
0.7529 5.6803 -0.7036 0.9772
0.0665 5.6846 -0.6980 0.9773
-2.0705 5.6977 -0.7443 0.9759
-2.8727 5.6745 -0.7809 0.9747
-4.7945 5.5916 -0.9044 0.9708
-8.0010 5.7341 -1.2086 0.9611
-10.4144 5.7130 -1.4585 0.9533
-6.9758 2.7997 -0.9229 0.9702
-18.9444 2.6987 -2.3496 0.9258
-20.3473 0.4359 -2.4989 0.9213
-19.8897 -4.4215 -2.5018 0.9212
-18.2671 -9.0256 -2.5018 0.9212
-15.5960 -13.1116 -2.5018 0.9212
-13.9129 -14.8855 -2.5018 0.9212
-12.0296 -16.4450 -2.5018 0.9212
-9.9729 -17.7676 -2.5018 0.9212
-7.7727 -18.8344 -2.5018 0.9212
-0.6345 -20.3653 -2.5018 0.9212
1.8097 -20.2946 -2.5018 0.9212
10.9825 -17.1620 -2.5018 0.9212
12.9593 -15.7228 -2.5018 0.9212
17.6698 -10.1453 -2.5018 0.9212
18.7579 -7.9556 -2.5018 0.9212
20.1118 -3.2654 -2.5018 0.9212
20.3582 -0.8327 -2.5018 0.9212
18.1680 6.0080 -2.3496 0.9258
4.9149 6.4516 -0.9958 0.9678
3.3261 5.6645 -0.8066 0.9739
5.5805 18.6483 -2.3900 0.9246
0.9789 5.6790 -0.7076 0.9770
0.2879 5.6832 -0.6987 0.9773
-0.3958 5.6874 -0.7000 0.9773
5.6826 -14.7378 -2.5018 0.9380
13.9938 -7.3261 -2.5018 0.9380
14.7706 -5.5969 -2.5018 0.9380
15.6780 -1.9229 -2.5018 0.9380
15.7954 -0.0310 -2.5018 0.9380
14.7311 1.7482 -2.3496 0.9417
14.4156 3.5003 -2.3496 0.9417
6.5043 5.6879 -1.3685 0.9656
3.9740 5.6605 -1.0954 0.9724
3.0370 5.6663 -1.0182 0.9743
1.4605 5.6760 -0.9283 0.9765
0.7529 5.6803 -0.9075 0.9771
0.0665 5.6846 -0.9004 0.9772
-0.6190 5.6888 -0.9063 0.9771
-2.0705 5.6977 -0.9602 0.9757
-3.7534 5.6214 -1.0706 0.9730
-4.7599 5.5512 -1.1582 0.9708
-8.0010 5.7341 -1.5591 0.9609
-10.4144 5.7131 -1.8814 0.9530
-6.9758 2.7997 -1.1905 0.9700
-14.3299 3.8364 -2.3496 0.9417
-15.4191 -3.4277 -2.5018 0.9380
-6.6567 -2.3459 -1.1179 0.9718
-13.2210 -8.6430 -2.5018 0.9380
-12.0905 -10.1645 -2.5018 0.9380
-10.7858 -11.5397 -2.5018 0.9380
-9.3257 -12.7487 -2.5018 0.9380
-7.7313 -13.7740 -2.5018 0.9380
-6.0256 -14.6010 -2.5018 0.9380
-2.3797 -15.6152 -2.5018 0.9380
-0.4919 -15.7878 -2.5018 0.9380
1.4029 -15.7330 -2.5018 0.9380
5.1049 -14.9478 -2.5018 0.9380
6.8588 -14.2286 -2.5018 0.9380
10.0464 -12.1888 -2.5018 0.9380
13.6981 -7.8650 -2.5018 0.9380
15.1758 -4.3810 -2.5018 0.9380
15.1748 1.2044 -2.4110 0.9402
14.0844 4.6575 -2.3496 0.9417
4.9149 6.4516 -1.2846 0.9677
4.2973 14.3602 -2.3741 0.9411
0.9789 5.6790 -0.9127 0.9769
0.2879 5.6832 -0.9013 0.9772
0.1000 -12.8700 -2.5018 0.9489
3.1584 -12.4769 -2.5018 0.9489
4.6303 -12.0087 -2.5018 0.9489
8.5662 -9.6056 -2.5018 0.9489
12.0353 -4.5605 -2.5018 0.9489
12.7747 -1.5668 -2.5018 0.9489
12.8704 -0.0252 -2.5018 0.9489
12.3942 1.4709 -2.4261 0.9504
9.9867 6.8096 -2.3496 0.9519
6.6155 5.7851 -1.7083 0.9648
5.3060 5.9031 -1.5429 0.9682
3.0370 5.6663 -1.2497 0.9741
0.7529 5.6803 -1.1138 0.9769
0.0665 5.6846 -1.1050 0.9771
-0.6190 5.6888 -1.1123 0.9770
-2.0705 5.6977 -1.1784 0.9756
-2.8491 5.6278 -1.2261 0.9746
-4.7106 5.4937 -1.4067 0.9709
-5.7693 5.2881 -1.5212 0.9686
-6.9757 2.7997 -1.4611 0.9698
-11.9666 1.7047 -2.3496 0.9519
-12.5637 -2.7929 -2.5018 0.9489
-6.2958 -2.2188 -1.2976 0.9732
-10.7727 -7.0425 -2.5018 0.9489
-9.8515 -8.2822 -2.5018 0.9489
-7.5987 -10.3878 -2.5018 0.9489
-1.9390 -12.7235 -2.5018 0.9489
4.1596 -12.1797 -2.5018 0.9489
5.5887 -11.5937 -2.5018 0.9489
8.1860 -9.9316 -2.5018 0.9489
10.3134 -7.6994 -2.5018 0.9489
11.1615 -6.4085 -2.5018 0.9489
11.8488 -5.0253 -2.5018 0.9489
12.3655 -3.5697 -2.5018 0.9489
12.7041 -2.0627 -2.5018 0.9489
12.8597 -0.5260 -2.5018 0.9489
12.7322 1.0106 -2.4827 0.9493
3.3261 5.6645 -1.2769 0.9736
0.9789 5.6790 -1.1202 0.9768
0.2879 5.6832 -1.1061 0.9771
-0.3958 5.6874 -1.1082 0.9770
1.3817 -10.7479 -2.5018 0.9565
3.8985 -10.1107 -2.5018 0.9565
5.0816 -9.5709 -2.5018 0.9565
6.1916 -8.8932 -2.5018 0.9565
9.6003 -5.0260 -2.5018 0.9565
10.1332 -3.8397 -2.5018 0.9565
10.7557 -1.3192 -2.5018 0.9565
10.8363 -0.0212 -2.5018 0.9565
10.5702 1.2544 -2.4574 0.9572
9.8897 2.4014 -2.3496 0.9591
9.0346 4.6848 -2.3496 0.9591
8.4084 5.7334 -2.3496 0.9591
6.6155 5.7851 -2.0289 0.9646
5.3060 5.9031 -1.8325 0.9679
3.9740 5.6605 -1.5967 0.9720
0.7529 5.6803 -1.3229 0.9768
-2.0705 5.6977 -1.3996 0.9754
-2.8387 5.6073 -1.4510 0.9745
-3.6816 5.5138 -1.5306 0.9731
-8.2721 5.9284 -2.3496 0.9591
-6.8759 2.7596 -1.7105 0.9700
-10.7003 1.5243 -2.4953 0.9566
-10.7836 -1.0674 -2.5018 0.9565
-6.0499 -2.1321 -1.4809 0.9740
-6.3978 -8.7461 -2.5018 0.9565
-4.1338 -10.0168 -2.5018 0.9565
-2.9041 -10.4399 -2.5018 0.9565
-1.6325 -10.7126 -2.5018 0.9565
-0.3375 -10.8311 -2.5018 0.9565
0.9624 -10.7935 -2.5018 0.9565
4.7054 -9.7614 -2.5018 0.9565
5.8409 -9.1274 -2.5018 0.9565
6.8922 -8.3620 -2.5018 0.9565
7.8443 -7.4761 -2.5018 0.9565
8.6834 -6.4826 -2.5018 0.9565
10.6962 -1.7367 -2.5018 0.9565
10.8272 -0.4428 -2.5018 0.9565
8.6251 5.4019 -2.3496 0.9591
5.4690 5.6277 -1.8117 0.9683
3.3261 5.6645 -1.5165 0.9734
2.4700 5.6698 -1.4278 0.9749
0.2879 5.6832 -1.3138 0.9769
-0.3958 5.6874 -1.3162 0.9769
1.1905 -9.2605 -2.5018 0.9621
3.3590 -8.7115 -2.5018 0.9621
4.3784 -8.2464 -2.5018 0.9621
5.3347 -7.6625 -2.5018 0.9621
6.2142 -6.9683 -2.5018 0.9621
8.7309 -3.3083 -2.5018 0.9621
9.2672 -1.1366 -2.5018 0.9621
9.1860 1.0901 -2.4787 0.9624
8.5211 2.0690 -2.3496 0.9643
7.2448 4.9400 -2.3496 0.9643
5.3060 5.9031 -2.1268 0.9677
1.4605 5.6760 -1.5704 0.9760
-2.0705 5.6977 -1.6244 0.9752
-3.6459 5.4604 -1.7593 0.9732
-4.6038 5.3692 -1.8951 0.9711
-6.4641 5.9250 -2.3496 0.9643
-7.1273 5.1080 -2.3496 0.9643
-7.6879 4.2174 -2.3496 0.9643
-8.4704 2.2677 -2.3496 0.9643
-9.2326 1.3152 -2.4989 0.9621
-9.2913 -0.9197 -2.5018 0.9621
-5.2602 -2.5990 -1.5721 0.9760
-5.0406 -3.2951 -1.6136 0.9754
-7.1467 -6.0082 -2.5018 0.9621
-5.5124 -7.5357 -2.5018 0.9621
-3.5617 -8.6306 -2.5018 0.9621
-2.5022 -8.9951 -2.5018 0.9621
-1.4066 -9.2301 -2.5018 0.9621
-0.2908 -9.3321 -2.5018 0.9621
5.9384 -7.2048 -2.5018 0.9621
8.5956 -3.6455 -2.5018 0.9621
8.9704 -2.5896 -2.5018 0.9621
9.2160 -1.4964 -2.5018 0.9621
8.5951 1.7359 -2.3496 0.9643
8.3253 2.7531 -2.3496 0.9643
7.4315 4.6543 -2.3496 0.9643
6.8204 5.5110 -2.3496 0.9643
4.9149 6.4516 -2.1732 0.9670
3.3261 5.6645 -1.7601 0.9732
2.4700 5.6698 -1.6571 0.9747
2.5164 8.4090 -2.3519 0.9643
0.2879 5.6832 -1.5248 0.9767
-0.3958 5.6874 -1.5276 0.9767
