ply
format ascii 1.0
element vertex 559
property float32 x
property float32 y
property float32 z
property float32 I
end_header
34.7487 16.3703 10.2924 0.8529
4.2947 5.6468 1.9009 0.9710
3.3201 5.6646 1.7593 0.9732
2.4648 5.6698 1.6566 0.9747
0.9744 5.6790 1.5439 0.9764
-0.4000 5.6874 1.5277 0.9767
-1.8270 5.6962 1.6029 0.9755
-2.6177 5.7011 1.6809 0.9744
-25.3487 19.6752 8.5981 0.8756
-60.6362 -27.1240 17.7989 0.7595
-23.1443 -29.2211 9.9882 0.8570
-21.1710 -34.5467 10.8567 0.8455
-20.1100 -43.8815 12.9339 0.8188
20.3423 -46.7006 13.6490 0.8098
49.6989 -31.1320 15.7138 0.7844
85.2836 13.8362 23.1505 0.6992
38.1994 16.1948 11.1174 0.8421
24.7615 18.4798 8.2789 0.8799
24.2902 23.1427 8.9897 0.8703
1.2054 5.6776 1.5552 0.9763
-0.8659 5.6903 1.5423 0.9764
52.2774 10.6035 12.3150 0.8033
49.8756 16.5389 12.1313 0.8060
34.7487 16.3704 8.8680 0.8541
25.3084 26.0842 8.3907 0.8614
3.3201 5.6646 1.5159 0.9734
2.4648 5.6698 1.4273 0.9749
0.9744 5.6790 1.3303 0.9766
-0.4000 5.6874 1.3163 0.9769
-1.0964 5.6917 1.3382 0.9765
-2.6177 5.7011 1.4483 0.9746
-3.5028 5.7065 1.5458 0.9729
-4.5316 5.7128 1.6835 0.9705
-26.0813 20.2439 7.6223 0.8732
-9.5531 2.9533 2.3085 0.9598
-45.6067 -14.1355 11.0233 0.8220
-18.9304 -30.8905 8.3643 0.8618
-20.1100 -43.8815 11.1440 0.8202
27.5385 -46.9059 12.5575 0.7999
48.3735 -30.3018 13.1781 0.7911
84.8029 13.7582 19.8343 0.7028
29.1833 16.7504 7.7684 0.8710
25.2962 24.1012 8.0664 0.8664
1.9386 5.6731 1.3841 0.9757
0.5078 5.6819 1.3170 0.9769
-0.1760 5.6861 1.3134 0.9769
-0.8659 5.6903 1.3288 0.9766
-1.5827 5.6947 1.3646 0.9760
-18.8835 45.7872 11.4345 0.8160
53.6910 10.8902 10.6490 0.7999
49.8756 16.5389 10.2140 0.8073
26.7211 16.7656 6.1318 0.8794
4.3037 5.6585 1.3819 0.9714
3.3201 5.6646 1.2763 0.9736
1.6934 5.6746 1.1511 0.9762
-0.4000 5.6874 1.1083 0.9770
-1.8270 5.6962 1.1628 0.9759
-2.6177 5.7011 1.2194 0.9748
-3.5028 5.7065 1.3015 0.9731
-4.5316 5.7128 1.4174 0.9707
-5.7812 5.7205 1.5809 0.9674
-7.3827 5.7304 1.8166 0.9626
-9.5521 2.9530 1.9434 0.9601
-66.5091 -20.6139 13.5348 0.7530
-10.5930 -10.4970 2.8988 0.9410
-27.3641 -34.5489 8.5669 0.8356
-13.8917 -43.4204 8.8615 0.8305
-14.6955 -76.5897 15.1591 0.7278
19.2058 -44.0915 9.3483 0.8220
49.7070 -51.1561 13.8648 0.7478
49.5305 -40.0279 12.3787 0.7714
50.1374 14.4667 10.1433 0.8084
24.7615 18.4798 6.0058 0.8817
25.2962 24.1012 6.7915 0.8673
4.6637 5.6563 1.4250 0.9706
3.6251 5.6627 1.3069 0.9730
2.7336 5.6682 1.2232 0.9747
1.9386 5.6731 1.1653 0.9759
1.2054 5.6776 1.1282 0.9766
-0.8659 5.6903 1.1188 0.9768
-1.5827 5.6947 1.1489 0.9762
54.0181 -8.7234 8.6665 0.8012
54.0585 -2.1653 8.5689 0.8032
54.0985 4.3394 8.5959 0.8027
52.0382 10.5550 8.4099 0.8065
49.8756 16.5389 8.3225 0.8083
26.7211 16.7655 4.9963 0.8801
24.7712 20.0486 5.0474 0.8789
3.3201 5.6646 1.0399 0.9738
2.4648 5.6698 0.9792 0.9753
0.9744 5.6790 0.9126 0.9769
0.2836 5.6832 0.9013 0.9772
-1.0964 5.6917 0.9181 0.9768
-1.8270 5.6962 0.9475 0.9761
-9.5828 5.7439 1.7695 0.9558
-9.5511 2.9527 1.5833 0.9603
-90.2837 -16.4733 14.5356 0.6896
-60.8837 -27.2347 10.5638 0.7633
-67.1590 -66.5511 14.9750 0.6819
-15.8630 -34.6141 6.0306 0.8571
-13.8560 -43.3087 7.2019 0.8318
13.4106 -44.8202 7.4098 0.8274
18.9330 -43.4651 7.5090 0.8253
26.5681 -45.2530 8.3113 0.8085
43.9189 -45.1994 9.9818 0.7747
58.6403 -27.5737 10.2633 0.7692
54.0047 -10.9130 8.7264 0.8000
49.8624 14.3874 8.2196 0.8104
38.1995 16.1949 6.5715 0.8453
29.1833 16.7504 5.3295 0.8726
24.7616 18.4798 4.8936 0.8824
25.2962 24.1012 5.5339 0.8681
2.7336 5.6682 0.9967 0.9748
1.2054 5.6776 0.9193 0.9768
0.5078 5.6819 0.9035 0.9772
-0.1760 5.6861 0.9010 0.9772
-1.5827 5.6947 0.9361 0.9763
-19.8688 48.1763 8.2538 0.8097
54.0585 -2.1653 6.6429 0.8041
53.6910 10.8902 6.7267 0.8019
26.8790 16.8646 3.8962 0.8800
24.8718 20.1300 3.9288 0.8790
24.3020 25.0469 4.2850 0.8688
4.3037 5.6585 0.8729 0.9718
3.3201 5.6646 0.8062 0.9739
2.4648 5.6698 0.7591 0.9754
1.6934 5.6746 0.7271 0.9764
0.9744 5.6790 0.7075 0.9770
0.2836 5.6832 0.6987 0.9773
-1.0964 5.6917 0.7117 0.9769
-1.8270 5.6962 0.7345 0.9762
-2.6177 5.7011 0.7703 0.9750
-3.5028 5.7065 0.8221 0.9734
-7.3827 5.7304 1.1475 0.9630
-9.5501 2.9524 1.2273 0.9605
-76.6053 -34.2673 10.3041 0.7131
-10.6171 -17.3250 2.4949 0.9214
-12.3287 -38.5349 4.9677 0.8495
15.9481 -92.5426 11.5303 0.6849
18.5921 -42.6826 5.7164 0.8289
34.5621 -45.3742 7.0034 0.7946
54.1413 -17.9097 7.0020 0.7947
54.0047 -10.9130 6.7650 0.8009
54.0454 -4.2956 6.6569 0.8037
54.0853 2.2058 6.6464 0.8040
54.1258 8.7812 6.7327 0.8017
50.1373 14.4667 6.4072 0.8103
29.1833 16.7504 4.1315 0.8732
24.8621 18.5548 3.8091 0.8825
24.2903 23.1428 4.1194 0.8735
3.6251 5.6627 0.8256 0.9733
1.2054 5.6776 0.7127 0.9769
-1.5827 5.6947 0.7257 0.9765
53.9835 -15.5340 4.9146 0.7981
54.1584 -2.1693 4.7420 0.8044
24.7713 20.0486 2.7881 0.8799
6.4683 6.6665 0.8127 0.9634
4.3037 5.6585 0.6220 0.9719
3.3201 5.6646 0.5744 0.9740
0.9744 5.6790 0.5041 0.9771
0.2836 5.6832 0.4978 0.9774
-0.4000 5.6874 0.4988 0.9774
-2.6177 5.7011 0.5488 0.9751
-3.5028 5.7065 0.5858 0.9735
-4.5316 5.7128 0.6380 0.9711
-9.5828 5.7439 0.9775 0.9561
-9.5484 2.9519 0.8744 0.9607
-27.8650 -35.1812 3.9265 0.8351
-21.1711 -34.5468 3.5448 0.8499
-16.7897 -36.6364 3.5258 0.8506
-13.8560 -43.3087 3.9782 0.8331
-14.9682 -78.0106 6.9495 0.7269
15.3890 -89.2980 7.9277 0.6950
26.5825 -45.2775 4.5935 0.8099
49.9783 -40.3898 5.6219 0.7726
54.1045 -10.9332 4.8292 0.8012
54.1453 -4.3035 4.7520 0.8040
50.4009 2.0556 4.4132 0.8167
19.2915 5.5664 1.7566 0.9225
29.1833 16.7504 2.9439 0.8736
24.7616 18.4798 2.7032 0.8833
24.2903 23.1428 2.9352 0.8740
2.7336 5.6682 0.5506 0.9750
1.2054 5.6776 0.5078 0.9770
-0.8659 5.6903 0.5036 0.9772
58.9947 -9.5271 3.1318 0.7871
58.9473 -2.3611 3.0918 0.7895
16.8320 5.5815 0.9294 0.9314
34.7488 16.3704 2.0131 0.8574
26.7211 16.7655 1.6532 0.8813
24.7712 20.0486 1.6701 0.8802
6.4683 6.6665 0.4868 0.9635
5.0769 6.6751 0.4395 0.9670
3.3201 5.6646 0.3441 0.9740
-0.4000 5.6874 0.2988 0.9774
-1.0964 5.6917 0.3038 0.9771
-7.3827 5.7304 0.4898 0.9633
-9.5828 5.7439 0.5855 0.9562
-12.9114 5.7643 0.7410 0.9449
-32.3810 5.8840 1.7248 0.8765
-34.8186 -34.5034 2.5690 0.8217
-27.3642 -34.5489 2.3098 0.8382
-21.1711 -34.5468 2.1234 0.8502
-15.8422 -34.5689 1.9929 0.8587
-11.8830 -37.1417 2.0437 0.8554
-14.9682 -78.0107 4.1629 0.7275
15.9398 -53.2730 2.9142 0.8003
26.4329 -45.0228 2.7361 0.8113
24.1480 -31.7021 2.0885 0.8525
49.9783 -40.3898 3.3676 0.7731
50.0314 -31.3403 3.0940 0.7894
49.2942 -23.1790 2.8547 0.8040
42.6136 6.9135 2.2625 0.8412
19.2915 5.5664 1.0523 0.9227
38.1995 16.1949 2.1744 0.8469
29.1833 16.7504 1.7635 0.8739
24.7616 18.4798 1.6193 0.8836
2.7336 5.6682 0.3298 0.9751
-0.1760 5.6861 0.2981 0.9775
-0.8659 5.6903 0.3016 0.9772
-18.8835 45.7873 2.5957 0.8201
80.3432 -23.1190 1.4593 0.7157
80.5249 6.4591 1.4101 0.7238
24.4334 11.5107 0.4714 0.8976
26.8317 16.8349 0.5529 0.8810
24.8416 20.1056 0.5578 0.8800
25.3084 26.0842 0.6344 0.8647
4.8534 6.3813 0.1399 0.9684
3.3201 5.6646 0.1146 0.9741
2.4648 5.6698 0.1079 0.9756
1.6934 5.6746 0.1034 0.9766
0.9744 5.6790 0.1006 0.9772
-0.4000 5.6874 0.0995 0.9774
-2.6138 5.6926 0.1093 0.9753
-3.4883 5.6830 0.1164 0.9737
-4.5057 5.6802 0.1266 0.9714
-7.3827 5.7304 0.1631 0.9633
-12.8435 5.7340 0.2455 0.9453
-32.3810 5.8840 0.5745 0.8766
-90.2249 -5.4563 1.5777 0.6966
-67.1903 -20.8250 1.2278 0.7547
-34.5098 -34.1974 0.8480 0.8234
-27.8650 -35.1812 0.7834 0.8356
-21.1710 -34.5467 0.7072 0.8504
-13.8561 -43.3090 0.7937 0.8337
20.0332 -45.9909 0.8756 0.8182
24.1480 -31.7021 0.6956 0.8526
26.4802 -27.2522 0.6633 0.8590
83.8163 -27.7260 1.5410 0.7024
19.2649 5.5587 0.3500 0.9229
29.1833 16.7504 0.5873 0.8741
25.2962 24.1012 0.6099 0.8696
5.0427 6.1160 0.1384 0.9688
1.9386 5.6731 0.1046 0.9763
-0.1760 5.6861 0.0993 0.9775
-1.5827 5.6947 0.1032 0.9766
53.6910 10.8902 -0.9563 0.8032
49.8757 16.5389 -0.9172 0.8104
24.7713 20.0486 -0.5563 0.8803
4.8534 6.3813 -0.1399 0.9684
3.3201 5.6646 -0.1146 0.9741
1.6934 5.6746 -0.1034 0.9766
0.9744 5.6790 -0.1006 0.9772
0.2836 5.6832 -0.0993 0.9775
-1.0964 5.6917 -0.1012 0.9771
-2.6138 5.6926 -0.1093 0.9753
-5.6980 5.6382 -0.1399 0.9684
-7.3827 5.7304 -0.1631 0.9633
-9.5828 5.7439 -0.1950 0.9563
-9.5425 2.9500 -0.1743 0.9608
-64.7641 3.8693 -1.1325 0.7714
-83.1106 -15.1645 -1.4746 0.7132
-70.4098 -42.2729 -1.4335 0.7200
-23.5173 -23.3044 -0.5779 0.8759
-17.7374 -22.3946 -0.4987 0.8920
-11.2961 -24.6488 -0.4733 0.8972
-9.0465 -28.2759 -0.5182 0.8880
-7.9892 -41.6379 -0.7400 0.8440
27.0539 -90.4179 -1.6474 0.6855
24.1480 -31.7021 -0.6956 0.8526
26.4802 -27.2522 -0.6633 0.8590
43.6739 -27.3579 -0.8995 0.8137
83.8163 -27.7260 -1.5410 0.7024
42.0510 6.8223 -0.7436 0.8433
29.1833 16.7504 -0.5873 0.8741
24.7616 18.4798 -0.5393 0.8837
5.0427 6.1160 -0.1384 0.9688
3.6251 5.6627 -0.1174 0.9735
1.9386 5.6731 -0.1046 0.9763
0.5078 5.6819 -0.0996 0.9774
-0.1760 5.6861 -0.0993 0.9775
-1.5827 5.6947 -0.1032 0.9766
-16.5177 40.0508 -0.7562 0.8409
47.1254 -7.6103 -2.5017 0.8260
47.6977 -1.9105 -2.5017 0.8260
44.0169 8.9280 -2.3538 0.8354
18.9526 8.9287 -1.0980 0.9195
24.8053 25.5656 -1.8668 0.8670
2.4648 5.6698 -0.3240 0.9755
0.9744 5.6790 -0.3020 0.9772
0.2836 5.6832 -0.2982 0.9775
-0.4000 5.6874 -0.2988 0.9774
-1.0964 5.6917 -0.3038 0.9771
-4.4799 5.6477 -0.3778 0.9715
-7.3827 5.7304 -0.4898 0.9633
-29.6493 5.3876 -1.5793 0.8863
-45.0709 2.6928 -2.3663 0.8346
-45.5961 -14.1321 -2.5017 0.8260
-43.5750 -19.4921 -2.5017 0.8260
-40.9263 -24.5715 -2.5017 0.8260
-37.6883 -29.2969 -2.5017 0.8260
-17.4809 -22.0707 -1.4755 0.8934
-14.1036 -23.0142 -1.4146 0.8975
-8.9505 -27.9760 -1.5394 0.8890
-3.3147 -47.6207 -2.5017 0.8260
2.4135 -47.6749 -2.5017 0.8260
8.1070 -47.0425 -2.5017 0.8260
13.6663 -45.6746 -2.4986 0.8262
21.1609 -36.0430 -2.1904 0.8459
21.8955 -28.7450 -1.8937 0.8653
26.5827 -27.3577 -1.9991 0.8583
37.9931 -23.7994 -2.3495 0.8356
45.3207 -14.9919 -2.5017 0.8260
46.7902 -9.4551 -2.5017 0.8260
44.7945 1.8269 -2.3495 0.8356
19.1469 14.2895 -1.2521 0.9087
3.6251 5.6627 -0.3524 0.9734
2.7336 5.6682 -0.3298 0.9751
1.9386 5.6731 -0.3142 0.9763
27.4799 -7.9074 -2.5017 0.8915
28.2292 -4.5588 -2.5017 0.8915
26.7693 2.1472 -2.3495 0.8978
19.3344 6.4113 -1.7821 0.9215
20.7160 12.9978 -2.1396 0.9065
3.3201 5.6646 -0.5744 0.9740
2.4648 5.6698 -0.5409 0.9755
0.9744 5.6790 -0.5041 0.9771
-0.4000 5.6874 -0.4988 0.9774
-1.8270 5.6962 -0.5234 0.9763
-5.6311 5.5721 -0.6931 0.9687
-7.3827 5.7304 -0.8176 0.9632
-9.5385 2.9488 -0.8735 0.9607
-26.4226 4.8013 -2.3495 0.8978
-26.8075 1.6016 -2.3495 0.8978
-28.1305 -5.1327 -2.5017 0.8915
-26.1024 -11.6762 -2.5017 0.8915
-24.5158 -14.7189 -2.5017 0.8915
-19.0757 -18.9030 -2.3495 0.8978
-16.6740 -21.0519 -2.3495 0.8978
-13.9079 -22.6948 -2.3287 0.8986
-5.0605 -26.3742 -2.3495 0.8978
-1.9856 -28.5259 -2.5017 0.8915
4.8563 -28.1795 -2.5017 0.8915
8.1968 -27.3949 -2.5017 0.8915
11.4193 -26.2158 -2.5017 0.8915
14.1783 -24.1497 -2.4500 0.8936
16.2729 -21.3635 -2.3495 0.8978
18.7148 -19.2604 -2.3495 0.8978
27.1481 -8.9805 -2.5017 0.8915
28.5050 -2.2656 -2.5017 0.8915
18.4150 5.3135 -1.6768 0.9259
13.2645 5.6236 -1.2605 0.9438
19.4433 11.1599 -1.9614 0.9139
19.5409 14.5836 -2.1332 0.9067
2.7336 5.6682 -0.5506 0.9750
1.9386 5.6731 -0.5245 0.9762
1.2054 5.6776 -0.5078 0.9770
19.5805 -5.6344 -2.5017 0.9212
19.9563 1.6008 -2.4582 0.9225
18.7535 3.8038 -2.3495 0.9258
18.1629 6.0229 -2.3495 0.9258
17.3211 8.1600 -2.3509 0.9257
-1.8270 5.6962 -0.7345 0.9762
-2.6138 5.6926 -0.7691 0.9751
-5.6133 5.5544 -0.9696 0.9687
-7.3827 5.7304 -1.1475 0.9630
-12.3220 5.5012 -1.6569 0.9471
-18.8271 3.4211 -2.3495 0.9258
-20.0441 -3.6573 -2.5017 0.9212
-9.0944 -2.8187 -1.1691 0.9624
-17.4684 -10.4878 -2.5017 0.9212
-16.0864 -12.5047 -2.5017 0.9212
-14.4726 -14.3416 -2.5017 0.9212
-8.4885 -18.5225 -2.5017 0.9212
3.4603 -20.0790 -2.5017 0.9212
5.8405 -19.5199 -2.5017 0.9212
10.3157 -17.5706 -2.5017 0.9212
12.3462 -16.2084 -2.5017 0.9212
14.1988 -14.6128 -2.5017 0.9212
15.8470 -12.8067 -2.5017 0.9212
17.2670 -10.8163 -2.5017 0.9212
19.3441 -6.3989 -2.5017 0.9212
19.9713 -4.0357 -2.5017 0.9212
20.3109 -1.6143 -2.5017 0.9212
20.3581 0.8303 -2.5017 0.9212
16.6425 9.5524 -2.3561 0.9256
-0.1760 5.6861 -0.6985 0.9773
-7.4140 17.9770 -2.3876 0.9246
15.7827 -0.6322 -2.5017 0.9380
15.0787 1.2095 -2.3959 0.9406
14.5383 2.9488 -2.3495 0.9417
12.5679 7.8854 -2.3499 0.9417
6.6620 6.8662 -1.5153 0.9620
3.3201 5.6646 -1.0399 0.9738
2.4648 5.6698 -0.9792 0.9753
1.6934 5.6746 -0.9379 0.9763
0.2836 5.6832 -0.9013 0.9772
-0.4000 5.6874 -0.9030 0.9772
-1.0964 5.6917 -0.9181 0.9768
-1.8270 5.6962 -0.9475 0.9761
-3.4660 5.6466 -1.0494 0.9735
-5.5575 5.4992 -1.2383 0.9688
-9.5828 5.7439 -1.7695 0.9558
-12.8988 5.7587 -2.2373 0.9444
-9.5344 2.9475 -1.5806 0.9604
-14.5953 2.6521 -2.3495 0.9417
-15.7665 -0.9535 -2.5017 0.9380
-10.8563 -1.9809 -1.7479 0.9563
-8.5052 -2.6361 -1.4103 0.9646
-8.7980 -3.9356 -1.5265 0.9617
-13.5421 -8.1305 -2.5017 0.9380
-12.4707 -9.6941 -2.5017 0.9380
-11.2196 -11.1181 -2.5017 0.9380
-9.8071 -12.3820 -2.5017 0.9380
-8.2532 -13.4676 -2.5017 0.9380
-6.5806 -14.3592 -2.5017 0.9380
-4.8131 -15.0441 -2.5017 0.9380
-2.9764 -15.5123 -2.5017 0.9380
-1.0968 -15.7572 -2.5017 0.9380
0.7986 -15.7751 -2.5017 0.9380
2.6825 -15.5658 -2.5017 0.9380
6.3078 -14.4811 -2.5017 0.9380
7.9971 -13.6213 -2.5017 0.9380
11.0074 -11.3283 -2.5017 0.9380
13.3859 -8.3851 -2.5017 0.9380
14.2939 -6.7213 -2.5017 0.9380
14.9961 -4.9606 -2.5017 0.9380
15.7822 0.6437 -2.5017 0.9380
14.6429 2.3756 -2.3495 0.9417
14.2529 4.1126 -2.3495 0.9417
13.6576 5.7902 -2.3495 0.9417
11.9094 8.8881 -2.3537 0.9416
6.1076 5.8191 -1.3361 0.9664
5.0427 6.1160 -1.2555 0.9684
3.6251 5.6627 -1.0649 0.9731
-0.1760 5.6861 -0.9010 0.9772
-0.8659 5.6903 -0.9116 0.9770
-1.5827 5.6947 -0.9361 0.9763
-5.7104 13.8460 -2.3722 0.9411
12.3684 -3.5591 -2.5017 0.9489
12.8600 -0.5151 -2.5017 0.9489
12.7287 1.0210 -2.4822 0.9493
11.8461 2.4028 -2.3495 0.9519
10.9346 5.1514 -2.3495 0.9519
9.3956 7.6043 -2.3495 0.9519
2.4648 5.6698 -1.2017 0.9751
1.6934 5.6746 -1.1511 0.9762
-0.4000 5.6874 -1.1083 0.9770
-1.0964 5.6917 -1.1267 0.9767
-3.4334 5.5935 -1.2758 0.9736
-4.3821 5.5245 -1.3707 0.9717
-7.3827 5.7304 -1.8166 0.9626
-11.0373 4.9276 -2.3495 0.9519
-9.4172 2.9113 -1.9160 0.9606
-11.8925 2.1610 -2.3495 0.9519
-10.8873 -1.9865 -2.1512 0.9559
-7.8529 -2.4339 -1.5981 0.9671
-7.6859 -3.4381 -1.6367 0.9663
-10.1613 -7.8989 -2.5017 0.9489
-3.9218 -12.2582 -2.5017 0.9489
-2.4252 -12.6397 -2.5017 0.9489
-0.8937 -12.8392 -2.5017 0.9489
3.6893 -12.3302 -2.5017 0.9489
5.1397 -11.7995 -2.5017 0.9489
8.9690 -9.2305 -2.5017 0.9489
10.0101 -8.0896 -2.5017 0.9489
12.6153 -2.5492 -2.5017 0.9489
11.6135 3.3510 -2.3495 0.9519
10.4832 6.0171 -2.3495 0.9519
9.6870 7.2295 -2.3495 0.9519
6.1076 5.8191 -1.6398 0.9662
3.6251 5.6627 -1.3069 0.9730
1.2054 5.6776 -1.1282 0.9766
-0.8659 5.6903 -1.1188 0.9768
-4.6338 11.2356 -2.3624 0.9517
10.4136 -2.9966 -2.5017 0.9565
10.7519 0.8625 -2.4902 0.9567
9.9739 2.0230 -2.3495 0.9591
9.2065 4.3372 -2.3495 0.9591
8.6206 5.4088 -2.3495 0.9591
3.3201 5.6646 -1.5159 0.9734
1.6934 5.6746 -1.3672 0.9760
0.9744 5.6790 -1.3303 0.9766
0.2836 5.6832 -1.3137 0.9769
-3.4010 5.5408 -1.5009 0.9737
-5.3524 5.2962 -1.7384 0.9696
-7.3827 5.7304 -2.1576 0.9624
-9.3794 2.8996 -2.2665 0.9605
-10.0130 1.8195 -2.3495 0.9591
-10.8169 0.6463 -2.5017 0.9565
-10.8164 -0.6541 -2.5017 0.9565
-10.6602 -1.9451 -2.5017 0.9565
-7.2324 -3.2352 -1.8292 0.9680
-9.2904 -5.5778 -2.5017 0.9565
-7.6971 -7.6274 -2.5017 0.9565
-6.7280 -8.4945 -2.5017 0.9565
-4.5145 -9.8510 -2.5017 0.9565
-3.3020 -10.3208 -2.5017 0.9565
-2.0419 -10.6421 -2.5017 0.9565
3.1062 -10.3814 -2.5017 0.9565
6.5662 -8.6202 -2.5017 0.9565
7.5515 -7.7716 -2.5017 0.9565
9.8062 -4.6110 -2.5017 0.9565
10.6215 -2.1463 -2.5017 0.9565
10.8272 0.4416 -2.5017 0.9565
10.0456 1.6298 -2.3495 0.9591
9.7780 2.8214 -2.3495 0.9591
6.1076 5.8191 -1.9476 0.9660
1.9386 5.6731 -1.3841 0.9757
-0.1760 5.6861 -1.3134 0.9769
-1.5827 5.6947 -1.3646 0.9760
-3.8903 9.4329 -2.3557 0.9590
9.2172 -1.4885 -2.5017 0.9621
7.4276 4.6603 -2.3495 0.9643
6.8159 5.5165 -2.3495 0.9643
4.8534 6.3813 -2.1482 0.9673
3.3201 5.6646 -1.7593 0.9732
2.4648 5.6698 -1.6566 0.9747
0.9744 5.6790 -1.5439 0.9764
0.2836 5.6832 -1.5247 0.9767
-1.0964 5.6917 -1.5531 0.9763
-3.3921 5.5261 -1.7374 0.9735
-8.0068 3.5747 -2.3495 0.9643
-9.3200 0.5568 -2.5017 0.9621
-7.2806 -2.2566 -2.0424 0.9689
-8.0047 -4.8059 -2.5017 0.9621
-6.6319 -6.5719 -2.5017 0.9621
-5.7969 -7.3190 -2.5017 0.9621
-4.8785 -7.9607 -2.5017 0.9621
-3.8898 -8.4877 -2.5017 0.9621
-2.8451 -8.8925 -2.5017 0.9621
-1.7594 -9.1693 -2.5017 0.9621
1.5856 -9.2010 -2.5017 0.9621
2.6764 -8.9448 -2.5017 0.9621
4.7271 -8.0515 -2.5017 0.9621
5.6575 -7.4273 -2.5017 0.9621
6.5064 -6.6961 -2.5017 0.9621
7.9124 -4.9564 -2.5017 0.9621
8.8642 -2.9322 -2.5017 0.9621
9.3072 -0.7397 -2.5017 0.9621
9.3288 0.3805 -2.5017 0.9621
8.9667 1.4547 -2.4340 0.9631
7.6049 4.3650 -2.3495 0.9643
7.0273 5.2445 -2.3495 0.9643
2.7336 5.6682 -1.6862 0.9743
1.2054 5.6776 -1.5552 0.9763
0.5078 5.6819 -1.5285 0.9767
-0.1760 5.6861 -1.5243 0.9767
-1.5827 5.6947 -1.5837 0.9758
