ply
format ascii 1.0
element vertex 716
property float32 x
property float32 y
property float32 z
property float32 I
end_header
24.9099 25.9753 9.6433 0.8615
4.2393 5.6544 1.8936 0.9712
3.2601 5.6650 1.7513 0.9733
0.9096 5.6794 1.5412 0.9765
-0.4757 5.6879 1.5294 0.9766
-1.1810 5.6922 1.5577 0.9762
-2.7320 5.7018 1.6941 0.9742
-3.6419 5.7074 1.8141 0.9724
-21.3458 -28.9374 9.6351 0.8616
-11.8820 -42.5739 11.8436 0.8327
22.9050 -46.8638 13.9767 0.8057
50.0521 -36.6215 16.6179 0.7735
51.4998 -28.8431 15.8162 0.7831
25.3819 21.4119 8.8978 0.8715
25.9217 27.8862 10.2017 0.8541
4.1073 5.6597 1.8738 0.9715
3.1442 5.6657 1.7362 0.9735
2.3014 5.6708 1.6399 0.9750
1.5365 5.6755 1.5755 0.9759
0.8193 5.6799 1.5377 0.9765
-1.2738 5.6928 1.5631 0.9761
-2.0235 5.6974 1.6200 0.9753
-2.8423 5.7024 1.7072 0.9740
-20.3800 23.9688 8.4302 0.8778
-26.7410 19.2480 8.8284 0.8725
-67.5601 -24.2909 19.2372 0.7428
50.2742 -48.5890 16.1416 0.7505
52.1301 10.6044 12.2817 0.8038
25.4481 20.7988 7.5878 0.8738
5.4199 5.6517 1.8078 0.9684
4.2427 5.6589 1.6329 0.9714
2.4045 5.6702 1.4219 0.9750
0.9096 5.6794 1.3279 0.9767
-0.4757 5.6879 1.3177 0.9768
-1.1810 5.6922 1.3421 0.9764
-4.7072 5.7139 1.7091 0.9701
-27.2307 20.2510 7.8346 0.8700
-68.3003 -14.4480 16.1173 0.7508
-26.8823 -36.4428 10.4549 0.8304
50.3338 -47.1542 15.9232 0.7534
50.0521 -36.6215 14.3182 0.7752
51.4998 -28.8431 13.6274 0.7848
50.4443 11.0815 11.9237 0.8089
34.8782 17.2153 8.9797 0.8524
25.6205 16.7723 7.0697 0.8819
2.3013 5.6708 1.4129 0.9752
0.1258 5.6842 1.3126 0.9769
-2.0235 5.6974 1.3958 0.9755
-2.8423 5.7024 1.4710 0.9742
-4.8592 5.7148 1.7318 0.9697
-6.2051 5.7231 1.9488 0.9659
-28.1423 20.2566 8.0052 0.8673
-65.3509 -14.8899 15.4741 0.7595
-58.6732 -29.5301 15.1647 0.7636
28.4825 -45.4119 10.4198 0.8038
40.3524 -49.7666 12.4541 0.7702
50.3247 -48.6379 13.6041 0.7519
50.1971 -29.1486 11.2831 0.7894
49.8588 16.6231 10.2160 0.8072
35.2505 16.7221 7.5839 0.8530
25.3777 20.7413 6.3709 0.8750
4.2427 5.6589 1.3748 0.9716
2.4045 5.6702 1.1972 0.9752
1.6315 5.6750 1.1478 0.9762
-1.9240 5.6968 1.1688 0.9758
-2.7320 5.7018 1.2290 0.9746
-4.7072 5.7139 1.4390 0.9703
-65.2222 -22.3106 13.3991 0.7551
-25.4937 -34.5603 8.3478 0.8395
15.0551 -43.4591 8.9401 0.8291
22.0116 -45.0361 9.7438 0.8152
29.5384 -45.5067 10.5457 0.8017
40.3619 -48.2248 12.2239 0.7739
50.3032 -28.1729 11.2070 0.7906
47.4310 16.6380 9.7704 0.8148
34.8783 17.2154 7.5605 0.8534
25.3819 21.4119 6.4548 0.8734
3.1442 5.6657 1.2595 0.9739
1.5365 5.6755 1.1429 0.9763
0.8193 5.6799 1.1155 0.9769
0.1258 5.6842 1.1052 0.9771
-0.5650 5.6885 1.1112 0.9770
-1.2738 5.6928 1.1339 0.9765
-2.0235 5.6974 1.1752 0.9757
-2.8423 5.7024 1.2385 0.9744
-3.7686 5.7081 1.3296 0.9725
-4.8592 5.7148 1.4581 0.9699
-6.2051 5.7231 1.6408 0.9662
-67.4302 -15.3637 13.4430 0.7544
-9.9859 -10.9118 2.8751 0.9415
19.9027 -42.3801 7.4157 0.8273
28.3024 -45.1246 8.4365 0.8060
50.2454 -37.9771 9.9755 0.7749
55.1189 -16.0788 9.0938 0.7925
54.6189 -8.9661 8.7666 0.7992
51.8916 10.5559 8.3871 0.8070
49.8588 16.6231 8.3242 0.8083
35.2505 16.7221 6.1795 0.8538
25.3777 20.7413 5.1911 0.8757
5.4199 5.6517 1.2402 0.9688
2.4045 5.6702 0.9755 0.9754
1.6315 5.6750 0.9352 0.9764
0.9096 5.6794 0.9110 0.9770
0.2143 5.6837 0.9008 0.9772
-0.4757 5.6879 0.9040 0.9771
-1.1810 5.6922 0.9208 0.9767
-1.9240 5.6968 0.9524 0.9759
-4.7072 5.7139 1.1725 0.9705
-6.0133 5.7219 1.3147 0.9669
-88.7855 25.1520 14.6156 0.6882
-75.4174 -36.4980 13.2702 0.7123
-34.5101 -36.5511 7.9618 0.8158
-26.8823 -36.4428 7.1725 0.8324
-14.3656 -34.6233 5.9371 0.8592
-12.1208 -43.4294 7.1414 0.8331
50.6322 -47.4338 10.9887 0.7550
50.3032 -28.1729 9.1317 0.7918
54.6242 -8.0963 8.7461 0.7996
54.6653 -1.4225 8.6611 0.8013
54.7061 5.2190 8.7039 0.8005
50.4443 11.0815 8.1801 0.8113
25.6205 16.7723 4.8501 0.8834
4.1073 5.6597 1.1076 0.9721
3.1442 5.6657 1.0263 0.9741
0.8193 5.6799 0.9089 0.9770
-0.5650 5.6885 0.9054 0.9771
-1.2738 5.6928 0.9239 0.9767
-2.0235 5.6974 0.9576 0.9758
-3.7686 5.7081 1.0833 0.9727
-7.9661 5.7339 1.5546 0.9610
-67.6558 -15.4151 10.9903 0.7550
-90.0674 -32.3832 15.1593 0.6787
-72.9634 -36.7223 12.9374 0.7183
-66.3671 -44.1881 12.6283 0.7240
20.3623 -43.3588 5.8816 0.8244
36.5589 -45.0880 7.1273 0.7914
46.9038 -45.3316 8.0092 0.7688
50.2454 -37.9771 7.7333 0.7758
51.6702 -22.1488 6.9026 0.7973
54.5761 -15.9205 6.9804 0.7952
54.7009 4.3608 6.7377 0.8016
49.8588 16.6231 6.4532 0.8091
25.4783 20.8234 4.0403 0.8758
5.4199 5.6517 0.9615 0.9689
4.2427 5.6589 0.8684 0.9719
3.2601 5.6650 0.8025 0.9740
2.4045 5.6702 0.7562 0.9755
1.6315 5.6750 0.7250 0.9765
0.9096 5.6794 0.7062 0.9771
0.2143 5.6837 0.6984 0.9773
-0.4757 5.6879 0.7008 0.9773
-1.9240 5.6968 0.7383 0.9761
-2.7320 5.7018 0.7763 0.9748
-3.6419 5.7074 0.8313 0.9731
-4.7072 5.7139 0.9090 0.9706
-10.0765 5.7469 1.4243 0.9543
-90.4484 -19.1332 11.3514 0.6890
-74.9613 -36.2772 10.2253 0.7149
-32.5896 -34.5170 5.8287 0.8259
-15.2049 -36.6461 4.8715 0.8522
-13.4513 -88.3819 10.9769 0.6975
17.6532 -81.8779 10.2844 0.7135
14.7563 -42.5965 5.5351 0.8339
29.2944 -45.1308 6.6064 0.8051
48.3981 -45.3408 8.1429 0.7655
54.6242 -8.0963 6.7803 0.8005
54.6653 -1.4225 6.7143 0.8022
51.1520 4.8800 6.3092 0.8130
50.5445 11.1035 6.3541 0.8118
47.4311 16.6381 6.1717 0.8166
34.8783 17.2154 4.7758 0.8549
25.3819 21.4120 4.0773 0.8747
5.2545 5.6527 0.9476 0.9694
4.1073 5.6597 0.8586 0.9722
2.3013 5.6708 0.7514 0.9756
0.1258 5.6842 0.6981 0.9773
-2.8423 5.7024 0.7823 0.9746
-4.8592 5.7148 0.9211 0.9702
-7.9661 5.7339 1.2051 0.9612
-73.0184 -36.7500 10.0370 0.7193
-31.5941 -34.5231 5.7460 0.8281
21.2762 -45.3047 4.3790 0.8179
28.3024 -45.1246 4.6602 0.8074
50.2454 -37.9772 5.5103 0.7765
50.1972 -29.1487 5.0784 0.7921
54.6300 -23.4176 5.2001 0.7877
54.7600 -2.2780 4.7950 0.8025
52.1300 10.6044 4.6542 0.8077
49.8590 16.6232 4.5982 0.8097
26.5031 16.7669 2.7438 0.8817
5.4199 5.6517 0.6851 0.9690
4.2427 5.6589 0.6188 0.9720
3.2601 5.6650 0.5718 0.9741
1.6315 5.6750 0.5166 0.9766
0.9096 5.6794 0.5032 0.9772
0.2143 5.6837 0.4976 0.9774
-0.4757 5.6879 0.4994 0.9773
-1.1810 5.6922 0.5086 0.9769
-1.9240 5.6968 0.5261 0.9761
-2.7320 5.7018 0.5531 0.9749
-3.6419 5.7074 0.5923 0.9732
-4.7072 5.7139 0.6477 0.9707
-10.0765 5.7469 1.0149 0.9545
-34.5102 -36.5511 4.3979 0.8172
-20.1771 -35.7002 3.5877 0.8482
-15.2049 -36.6461 3.4711 0.8527
-12.1208 -43.4295 3.9448 0.8344
15.4136 -44.4940 4.1197 0.8277
37.6056 -44.9314 5.1261 0.7904
52.2579 -21.4445 4.9421 0.7971
54.6816 -15.0321 4.9615 0.7964
48.3160 4.6094 4.2463 0.8229
50.4444 11.0815 4.5185 0.8127
47.4313 16.6381 4.3976 0.8172
34.8783 17.2154 3.4029 0.8554
25.6205 16.7723 2.6791 0.8843
25.3819 21.4120 2.9052 0.8752
5.2545 5.6527 0.6752 0.9695
0.8193 5.6799 0.5021 0.9772
0.1258 5.6842 0.4974 0.9774
-4.8592 5.7148 0.6563 0.9703
-6.2051 5.7231 0.7385 0.9667
-7.9661 5.7339 0.8587 0.9614
-14.3868 5.7734 1.3562 0.9397
-33.4559 -36.5576 4.3356 0.8196
21.1656 -45.0694 2.6095 0.8192
28.3023 -45.1245 2.7915 0.8079
24.7574 -30.5333 2.0601 0.8543
50.2454 -37.9772 3.3008 0.7770
49.9086 -21.3937 2.8458 0.8045
59.5506 -2.4773 3.1236 0.7876
54.2642 11.0385 2.9021 0.8011
49.8591 16.6232 2.7544 0.8102
35.2505 16.7222 2.0447 0.8553
3.2601 5.6650 0.3425 0.9742
2.4045 5.6702 0.3228 0.9756
1.6315 5.6750 0.3095 0.9766
0.9096 5.6794 0.3014 0.9772
0.2143 5.6837 0.2981 0.9775
-2.7276 5.6926 0.3308 0.9750
-7.7081 5.7323 0.5034 0.9623
-10.0765 5.7469 0.6079 0.9546
-20.5128 5.8111 1.1173 0.9181
-32.5897 -34.5171 2.4879 0.8268
-25.4937 -34.5604 2.2507 0.8420
-19.5309 -34.5568 2.0803 0.8530
-14.3468 -34.5780 1.9619 0.8608
-11.3371 -40.6215 2.2102 0.8446
-9.9961 -65.6792 3.4817 0.7664
12.6415 -58.6331 3.1434 0.7864
29.2943 -45.1306 2.8198 0.8061
24.7632 -29.5873 2.0220 0.8568
29.1070 -27.2684 2.0903 0.8524
50.3032 -28.1729 3.0216 0.7938
59.6432 -16.3961 3.2417 0.7805
59.5445 -1.5495 3.1216 0.7877
49.7554 4.7467 2.6194 0.8186
50.5445 11.1035 2.7121 0.8128
34.8783 17.2154 2.0384 0.8557
6.1985 6.6682 0.4771 0.9642
4.1073 5.6597 0.3665 0.9724
3.1442 5.6657 0.3396 0.9744
2.3013 5.6708 0.3207 0.9758
0.8193 5.6799 0.3008 0.9773
-2.0203 5.6885 0.3164 0.9761
-3.7623 5.6986 0.3579 0.9730
-6.2051 5.7231 0.4424 0.9668
-7.9661 5.7339 0.5144 0.9614
-73.1116 -36.7969 4.2895 0.7205
21.4525 -45.6801 0.8809 0.8172
26.4332 -42.1445 0.8684 0.8195
36.1210 -27.3014 0.7903 0.8343
80.9424 -23.6118 1.4717 0.7137
25.4481 20.7988 0.5737 0.8768
5.7373 5.9827 0.1447 0.9674
2.4045 5.6702 0.1075 0.9757
0.9096 5.6794 0.1004 0.9773
0.2143 5.6837 0.0993 0.9775
-1.1810 5.6922 0.1015 0.9770
-1.9227 5.6930 0.1049 0.9762
-2.7206 5.6778 0.1099 0.9751
-4.6693 5.6680 0.1282 0.9710
-7.7081 5.7323 0.1677 0.9623
-20.5128 5.8111 0.3721 0.9182
-72.2037 -34.9428 1.4001 0.7255
-19.2977 -34.1441 0.6846 0.8548
-10.9333 -39.1747 0.7099 0.8498
-10.4457 -68.6334 1.2118 0.7575
20.5533 -59.3306 1.0960 0.7779
22.1887 -45.3983 0.8820 0.8170
24.7632 -29.5873 0.6735 0.8570
29.1070 -27.2684 0.6962 0.8525
67.2002 -27.5763 1.2679 0.7478
80.9507 -22.2536 1.4654 0.7147
50.4444 11.0815 0.9015 0.8133
25.0200 8.7766 0.4628 0.8994
34.8783 17.2154 0.6789 0.8559
25.3819 21.4120 0.5796 0.8756
3.1442 5.6657 0.1131 0.9744
2.3013 5.6708 0.1068 0.9758
0.8193 5.6799 0.1002 0.9773
0.1258 5.6842 0.0992 0.9775
-1.2738 5.6928 0.1018 0.9769
-2.8304 5.6786 0.1107 0.9749
-3.7521 5.6832 0.1189 0.9731
-6.2051 5.7231 0.1473 0.9668
-7.9661 5.7339 0.1713 0.9615
-14.3868 5.7734 0.2706 0.9399
-21.8122 5.8141 0.3940 0.9136
-78.0929 -17.7932 1.3981 0.7258
20.0543 -42.7028 -0.8235 0.8280
24.7574 -30.5333 -0.6861 0.8545
28.2084 -27.2628 -0.6848 0.8548
36.1343 -27.3116 -0.7906 0.8343
40.9275 -23.7659 -0.8261 0.8275
54.2642 11.0385 -0.9666 0.8013
25.3778 20.7413 -0.5721 0.8771
5.7373 5.9827 -0.1447 0.9674
2.4045 5.6702 -0.1075 0.9757
1.6315 5.6750 -0.1031 0.9767
0.9096 5.6794 -0.1004 0.9773
0.2143 5.6837 -0.0993 0.9775
-1.1810 5.6922 -0.1015 0.9770
-1.9227 5.6930 -0.1049 0.9762
-3.6169 5.6682 -0.1174 0.9735
-6.0133 5.7219 -0.1449 0.9673
-7.7081 5.7323 -0.1677 0.9623
-10.0473 5.7302 -0.2019 0.9548
-13.6854 5.7408 -0.2590 0.9424
-33.2501 5.1929 -0.5874 0.8740
-64.3780 2.1766 -1.1244 0.7728
-82.6043 -7.2325 -1.4474 0.7177
-70.5554 -45.4084 -1.4645 0.7149
-68.0377 -56.4958 -1.5436 0.7020
-16.3579 -22.1755 -0.4810 0.8956
19.5730 -56.5006 -1.0437 0.7872
20.7844 -42.5251 -0.8262 0.8275
24.7111 -38.0698 -0.7922 0.8340
50.5445 11.1035 -0.9033 0.8130
34.8783 17.2154 -0.6789 0.8559
25.3819 21.4120 -0.5796 0.8756
2.3013 5.6708 -0.1068 0.9758
1.5365 5.6755 -0.1026 0.9768
0.1258 5.6842 -0.0992 0.9775
-1.2738 5.6928 -0.1018 0.9769
-2.8230 5.6638 -0.1105 0.9750
-7.9661 5.7339 -0.1713 0.9615
-10.3914 5.7141 -0.2070 0.9537
-36.5753 5.1307 -0.6447 0.8626
-64.3841 1.1743 -1.1240 0.7729
-71.4510 -7.3779 -1.2538 0.7502
-82.5932 -29.6959 -1.5320 0.7039
-70.6366 -47.0308 -1.4812 0.7121
15.2117 -32.3912 -1.8754 0.8665
23.8215 -37.9805 -2.3496 0.8356
24.6533 -30.4049 -2.0514 0.8549
38.7468 -22.4996 -2.3482 0.8357
35.1921 -15.0854 -2.0066 0.8578
47.1065 -7.7329 -2.5018 0.8260
47.6957 -1.9841 -2.5018 0.8260
44.6911 3.5629 -2.3496 0.8356
44.0149 8.9536 -2.3540 0.8353
19.5290 6.5110 -1.0789 0.9209
20.1812 9.5736 -1.1706 0.9144
4.2427 5.6589 -0.3707 0.9721
2.4045 5.6702 -0.3228 0.9756
0.2143 5.6837 -0.2981 0.9775
-0.4757 5.6879 -0.2991 0.9774
-1.1810 5.6922 -0.3047 0.9770
-1.9227 5.6930 -0.3149 0.9762
-6.0133 5.7219 -0.4350 0.9673
-7.7081 5.7323 -0.5034 0.9623
-10.0473 5.7302 -0.6062 0.9547
-43.8622 -9.2784 -2.3496 0.8356
-40.1421 -25.8348 -2.5018 0.8260
-34.4919 -28.6407 -2.3496 0.8356
-21.5605 -22.8357 -1.6459 0.8818
-16.1212 -21.8546 -1.4233 0.8969
28.9944 -27.1628 -2.0822 0.8529
36.1822 -26.4733 -2.3496 0.8356
46.0294 -12.6536 -2.5018 0.8260
47.2211 -6.9990 -2.5018 0.8260
44.6302 4.2578 -2.3496 0.8356
19.5345 6.8524 -1.0849 0.9204
25.0803 21.1575 -1.7196 0.8768
5.6609 6.0899 -0.4357 0.9672
3.1442 5.6657 -0.3396 0.9744
2.3013 5.6708 -0.3207 0.9758
1.5365 5.6755 -0.3081 0.9767
-0.5650 5.6885 -0.2996 0.9774
-4.7628 5.6015 -0.3853 0.9710
-6.2051 5.7231 -0.4424 0.9668
-10.3914 5.7141 -0.6215 0.9536
-14.3868 5.7734 -0.8124 0.9398
-21.7025 5.7849 -1.1771 0.9140
-31.7981 4.4605 -1.6828 0.8793
-45.0690 0.8220 -2.3624 0.8348
-43.7126 -9.9598 -2.3496 0.8356
-44.9217 -16.1513 -2.5018 0.8260
-42.6409 -21.4611 -2.5018 0.8260
-39.7352 -26.4562 -2.5018 0.8260
14.8550 -23.6845 -2.4460 0.8938
26.7710 2.1342 -2.3496 0.8978
20.1812 9.5736 -1.9542 0.9142
5.7373 5.9827 -0.7252 0.9673
4.2427 5.6589 -0.6188 0.9720
3.2601 5.6650 -0.5718 0.9741
0.9096 5.6794 -0.5032 0.9772
-0.4757 5.6879 -0.4994 0.9773
-1.9227 5.6930 -0.5257 0.9762
-2.7101 5.6561 -0.5487 0.9751
-3.5969 5.6368 -0.5850 0.9735
-6.0133 5.7219 -0.7262 0.9672
-7.7081 5.7323 -0.8404 0.9622
-10.0473 5.7302 -1.0119 0.9546
-13.1368 5.5106 -1.2463 0.9444
-26.5343 4.1441 -2.3496 0.8978
-28.4866 -2.4942 -2.5018 0.8915
-27.0564 -9.2552 -2.5018 0.8915
-25.7398 -12.4567 -2.5018 0.8915
-24.0460 -15.4756 -2.5018 0.8915
-21.9999 -18.2678 -2.5018 0.8915
-15.9423 -21.6121 -2.3496 0.8978
-12.9388 -22.8930 -2.3006 0.8998
-10.1191 -24.3884 -2.3101 0.8994
-7.2194 -25.8673 -2.3496 0.8978
-4.2160 -27.7011 -2.4514 0.8936
-0.8551 -28.5828 -2.5018 0.8915
2.6050 -28.4767 -2.5018 0.8915
6.0268 -27.9532 -2.5018 0.8915
9.3604 -27.0202 -2.5018 0.8915
12.5567 -25.6912 -2.5018 0.8915
14.9894 -23.0926 -2.4086 0.8953
17.2367 -20.5946 -2.3496 0.8978
19.5989 -18.3608 -2.3496 0.8978
23.0743 -16.8827 -2.5014 0.8915
24.9491 -13.9731 -2.5018 0.8915
27.5727 -7.5798 -2.5018 0.8915
28.2865 -4.1926 -2.5018 0.8915
26.7345 2.5505 -2.3496 0.8978
19.9712 7.0056 -1.8516 0.9185
20.0348 9.8889 -1.9547 0.9142
20.1215 13.1724 -2.1041 0.9079
4.1073 5.6597 -0.6118 0.9723
3.1442 5.6657 -0.5669 0.9743
2.3013 5.6708 -0.5354 0.9757
1.5365 5.6755 -0.5144 0.9767
0.1258 5.6842 -0.4974 0.9774
-0.5650 5.6885 -0.5001 0.9773
-1.2738 5.6928 -0.5104 0.9768
-2.0203 5.6885 -0.5281 0.9761
-7.9661 5.7339 -0.8587 0.9614
-10.3874 5.7119 -1.0371 0.9535
-13.4719 5.4063 -1.2700 0.9434
-21.7025 5.7849 -1.9650 0.9138
-26.5955 3.7307 -2.3496 0.8978
-28.4443 -2.9371 -2.5018 0.8915
-27.8810 -6.3526 -2.5018 0.8915
-26.9091 -9.6750 -2.5018 0.8915
-23.8023 -15.8479 -2.5018 0.8915
-18.1309 -19.8118 -2.3496 0.8978
14.6511 -14.1600 -2.5018 0.9212
16.2547 -12.2859 -2.5018 0.9212
19.5602 -5.7059 -2.5018 0.9212
20.1063 -3.3006 -2.5018 0.9212
18.7518 3.8145 -2.3496 0.9258
18.1535 6.0524 -2.3496 0.9258
8.9347 5.6524 -1.2981 0.9583
5.7373 5.9827 -1.0178 0.9671
4.2427 5.6589 -0.8684 0.9719
3.2601 5.6650 -0.8025 0.9740
0.9096 5.6794 -0.7062 0.9771
0.2143 5.6837 -0.6984 0.9773
-0.4757 5.6879 -0.7008 0.9773
-1.9227 5.6930 -0.7378 0.9761
-7.7081 5.7323 -1.1795 0.9620
-9.9903 5.6978 -1.4121 0.9547
-12.7331 5.3413 -1.6954 0.9459
-20.0989 0.6795 -2.4692 0.9222
-20.2978 -1.7772 -2.5018 0.9212
-18.3406 -8.8759 -2.5018 0.9212
-17.1337 -11.0270 -2.5018 0.9212
-10.0254 -17.7384 -2.5018 0.9212
-0.6093 -20.3663 -2.5018 0.9212
4.2944 -19.9178 -2.5018 0.9212
6.6696 -19.2529 -2.5018 0.9212
8.9471 -18.3059 -2.5018 0.9212
13.0774 -15.6250 -2.5018 0.9212
17.7773 -9.9565 -2.5018 0.9212
20.1552 -2.9874 -2.5018 0.9212
19.0494 1.8173 -2.3496 0.9258
18.6902 4.1058 -2.3496 0.9258
8.6343 5.6524 -1.2671 0.9593
6.8423 5.7721 -1.0991 0.9646
4.1073 5.6597 -0.8586 0.9722
3.1442 5.6657 -0.7956 0.9742
0.1258 5.6842 -0.6981 0.9773
-1.2738 5.6928 -0.7163 0.9768
-2.0203 5.6885 -0.7412 0.9760
-2.8167 5.6511 -0.7753 0.9749
-10.2680 5.6463 -1.4388 0.9539
-18.4903 4.9287 -2.3496 0.9258
-18.9503 2.6583 -2.3496 0.9258
-9.7242 -2.2156 -1.2246 0.9606
-9.0946 -3.2699 -1.1867 0.9618
-18.2003 -9.1602 -2.5018 0.9212
-16.9601 -11.2922 -2.5018 0.9212
-15.4713 -13.2589 -2.5018 0.9212
6.7144 -14.2975 -2.5018 0.9380
8.3929 -13.3814 -2.5018 0.9380
11.3579 -10.9772 -2.5018 0.9380
12.6011 -9.5244 -2.5018 0.9380
14.5180 -6.2233 -2.5018 0.9380
15.1636 -4.4234 -2.5018 0.9380
15.5870 -2.5587 -2.5018 0.9380
14.0731 4.6920 -2.3496 0.9417
7.0749 5.7823 -1.4472 0.9637
5.7373 5.9827 -1.3129 0.9670
2.4045 5.6702 -0.9755 0.9754
0.9096 5.6794 -0.9110 0.9770
-0.4757 5.6879 -0.9040 0.9771
-1.1810 5.6922 -0.9208 0.9767
-1.9227 5.6930 -0.9517 0.9760
-6.0133 5.7219 -1.3147 0.9669
-14.2730 4.0434 -2.3496 0.9417
-15.7355 -1.3777 -2.5018 0.9380
-8.4615 -2.8944 -1.4164 0.9644
-14.2182 -6.8808 -2.5018 0.9380
-12.1523 -10.0908 -2.5018 0.9380
-2.3767 -15.6158 -2.5018 0.9380
-0.4723 -15.7886 -2.5018 0.9380
3.3291 -15.4408 -2.5018 0.9380
5.1705 -14.9254 -2.5018 0.9380
6.9361 -14.1913 -2.5018 0.9380
10.1380 -12.1130 -2.5018 0.9380
11.5274 -10.7992 -2.5018 0.9380
13.7815 -7.7185 -2.5018 0.9380
15.6250 -2.3159 -2.5018 0.9380
13.3025 6.5659 -2.3496 0.9417
5.6609 6.0899 -1.3169 0.9669
2.3014 5.6708 -0.9693 0.9755
0.8193 5.6799 -0.9089 0.9770
-0.5650 5.6885 -0.9054 0.9771
-1.2738 5.6928 -0.9239 0.9767
-2.0203 5.6885 -0.9561 0.9758
-2.8167 5.6511 -1.0001 0.9748
-3.6967 5.5992 -1.0627 0.9732
-4.7014 5.5293 -1.1495 0.9710
-10.2680 5.6463 -1.8560 0.9537
-13.7675 5.5249 -2.3496 0.9417
-14.6909 2.0608 -2.3496 0.9417
-15.7930 0.2881 -2.5018 0.9380
-15.7121 -1.6224 -2.5018 0.9380
-8.4600 -3.0417 -1.4239 0.9642
-13.1480 -8.7541 -2.5018 0.9380
-10.6639 -11.6526 -2.5018 0.9380
5.4710 -11.6499 -2.5018 0.9489
6.8387 -10.9034 -2.5018 0.9489
10.2676 -7.7606 -2.5018 0.9489
11.1301 -6.4631 -2.5018 0.9489
12.8595 -0.5349 -2.5018 0.9489
11.8450 2.4095 -2.3496 0.9519
11.4670 3.8232 -2.3496 0.9519
10.9211 5.1807 -2.3496 0.9519
7.0749 5.7823 -1.7761 0.9635
3.2601 5.6650 -1.2705 0.9737
0.9096 5.6794 -1.1180 0.9768
-1.9196 5.6838 -1.1661 0.9759
-5.5148 5.2476 -1.4797 0.9695
-10.0473 5.7302 -2.2483 0.9540
-11.1466 4.6758 -2.3496 0.9519
-11.9428 1.8652 -2.3496 0.9519
-12.8215 -1.1226 -2.5018 0.9489
-7.8067 -2.6704 -1.6038 0.9669
-9.9019 -8.2222 -2.5018 0.9489
-7.6403 -10.3575 -2.5018 0.9489
-6.3328 -11.2048 -2.5018 0.9489
-4.9325 -11.8879 -2.5018 0.9489
1.1725 -12.8171 -2.5018 0.9489
9.3927 -8.7994 -2.5018 0.9489
10.3871 -7.6000 -2.5018 0.9489
11.2294 -6.2891 -2.5018 0.9489
11.9070 -4.8862 -2.5018 0.9489
11.4062 4.0011 -2.3496 0.9519
10.8391 5.3500 -2.3496 0.9519
10.1132 6.6206 -2.3496 0.9519
4.1073 5.6597 -1.3593 0.9719
3.1442 5.6657 -1.2595 0.9739
2.3013 5.6708 -1.1896 0.9754
0.8193 5.6799 -1.1155 0.9769
-6.2051 5.7231 -1.6408 0.9662
-7.9661 5.7339 -1.9079 0.9608
-11.6798 3.1133 -2.3496 0.9519
-12.8684 0.2347 -2.5018 0.9489
-8.8711 -2.0213 -1.7686 0.9636
-7.7735 -2.7949 -1.6057 0.9669
-11.4966 -5.7862 -2.5018 0.9489
-10.7132 -7.1330 -2.5018 0.9489
-9.7728 -8.3752 -2.5018 0.9489
4.6064 -9.8086 -2.5018 0.9565
5.7578 -9.1802 -2.5018 0.9565
6.8249 -8.4172 -2.5018 0.9565
7.7920 -7.5308 -2.5018 0.9565
8.6449 -6.5341 -2.5018 0.9565
9.9599 -4.2694 -2.5018 0.9565
10.4028 -3.0346 -2.5018 0.9565
10.6933 -1.7554 -2.5018 0.9565
10.8271 -0.4504 -2.5018 0.9565
10.7536 0.8573 -2.4905 0.9567
9.6547 3.2189 -2.3496 0.9591
8.6006 5.4411 -2.3496 0.9591
7.0749 5.7823 -2.1095 0.9632
4.2427 5.6589 -1.6329 0.9714
3.2601 5.6650 -1.5090 0.9735
2.4045 5.6702 -1.4219 0.9750
0.9096 5.6794 -1.3279 0.9767
0.2143 5.6837 -1.3131 0.9769
-1.9196 5.6838 -1.3850 0.9757
-2.6651 5.5622 -1.4239 0.9750
-5.3937 5.1323 -1.7189 0.9699
-7.7081 5.7323 -2.2177 0.9613
-8.8405 5.0420 -2.3496 0.9591
-9.7919 2.7739 -2.3496 0.9591
-10.2898 1.6070 -2.4044 0.9581
-9.5689 -2.0242 -2.2580 0.9606
-7.3302 -2.5074 -1.7886 0.9687
-7.2919 -3.5289 -1.8703 0.9673
-9.1124 -5.8646 -2.5018 0.9565
-8.3370 -6.9227 -2.5018 0.9565
-7.4394 -7.8793 -2.5018 0.9565
-6.4328 -8.7205 -2.5018 0.9565
-4.1529 -10.0091 -2.5018 0.9565
-2.9130 -10.4375 -2.5018 0.9565
-1.6305 -10.7131 -2.5018 0.9565
-0.3240 -10.8316 -2.5018 0.9565
3.5472 -10.2394 -2.5018 0.9565
4.7584 -9.7358 -2.5018 0.9565
5.9000 -9.0895 -2.5018 0.9565
7.9082 -7.4087 -2.5018 0.9565
8.7455 -6.3988 -2.5018 0.9565
9.4546 -5.2952 -2.5018 0.9565
10.0252 -4.1139 -2.5018 0.9565
10.7193 -1.5888 -2.5018 0.9565
10.8328 -0.2819 -2.5018 0.9565
9.1260 4.5045 -2.3496 0.9591
8.5149 5.5742 -2.3496 0.9591
1.5365 5.6755 -1.3575 0.9762
0.8193 5.6799 -1.3249 0.9767
-3.6261 5.4924 -1.5194 0.9733
-4.5903 5.3987 -1.6360 0.9713
-5.5186 5.0900 -1.7332 0.9697
-7.9586 5.7285 -2.2639 0.9605
-10.8346 0.1976 -2.5018 0.9565
-10.7791 -1.1130 -2.5018 0.9565
-8.8868 -2.0248 -2.1043 0.9633
-7.3870 -3.7179 -1.9092 0.9666
-9.0200 -6.0056 -2.5018 0.9565
-8.2282 -7.0516 -2.5018 0.9565
4.9610 -7.9097 -2.5018 0.9621
5.8804 -7.2523 -2.5018 0.9621
6.7137 -6.4886 -2.5018 0.9621
8.0742 -4.6886 -2.5018 0.9621
8.9632 -2.6147 -2.5018 0.9621
9.2135 -1.5125 -2.5018 0.9621
9.3287 -0.3881 -2.5018 0.9621
8.5928 1.7480 -2.3496 0.9643
8.3186 2.7735 -2.3496 0.9643
7.9225 3.7583 -2.3496 0.9643
6.7896 5.5492 -2.3496 0.9643
4.2427 5.6589 -1.8951 0.9711
2.4045 5.6702 -1.6503 0.9748
0.9096 5.6794 -1.5412 0.9765
0.2143 5.6837 -1.5240 0.9767
-1.9196 5.6838 -1.6075 0.9755
-3.4766 5.4484 -1.7318 0.9736
-5.2759 5.0202 -1.9514 0.9703
-7.6171 4.3442 -2.3496 0.9643
-6.3960 2.6830 -1.8585 0.9717
-9.1347 -1.9323 -2.5018 0.9621
-7.2182 -2.4691 -2.0441 0.9689
-7.2706 -3.5186 -2.1643 0.9671
-7.1832 -5.9646 -2.5018 0.9621
-6.4099 -6.7889 -2.5018 0.9621
-5.5426 -7.5137 -2.5018 0.9621
-3.5782 -8.6239 -2.5018 0.9621
-2.5099 -8.9931 -2.5018 0.9621
-0.2792 -9.3326 -2.5018 0.9621
0.8505 -9.2980 -2.5018 0.9621
3.0563 -8.8224 -2.5018 0.9621
5.0835 -7.8316 -2.5018 0.9621
6.8138 -6.3834 -2.5018 0.9621
9.0028 -2.4749 -2.5018 0.9621
9.2359 -1.3689 -2.5018 0.9621
9.3336 -0.2429 -2.5018 0.9621
8.5646 1.8814 -2.3496 0.9643
8.2745 2.9025 -2.3496 0.9643
7.8631 3.8811 -2.3496 0.9643
7.3365 4.8028 -2.3496 0.9643
6.7024 5.6541 -2.3496 0.9643
4.1073 5.6597 -1.8738 0.9715
3.1442 5.6657 -1.7362 0.9735
2.3014 5.6708 -1.6399 0.9750
0.8193 5.6799 -1.5377 0.9765
0.1258 5.6842 -1.5234 0.9767
-1.2738 5.6928 -1.5631 0.9761
-2.7557 5.5288 -1.6552 0.9747
-4.4948 5.2863 -1.8593 0.9717
-7.1169 5.1227 -2.3496 0.9643
-7.6837 4.2252 -2.3496 0.9643
-6.6513 2.6692 -1.9204 0.9708
-8.4729 2.2585 -2.3496 0.9643
-9.2366 1.2957 -2.4992 0.9621
-9.2874 -0.9590 -2.5018 0.9621
-7.3741 -3.7113 -2.2120 0.9664
-7.7718 -5.1745 -2.5018 0.9621
-7.0895 -6.0757 -2.5018 0.9621
