ply
format ascii 1.0
element vertex 931
property float32 x
property float32 y
property float32 z
property float32 I
end_header
-23.3750 -29.2668 10.0363 0.8563
-13.7543 -42.5624 11.9853 0.8309
-15.2677 -78.4953 21.4269 0.7181
48.7360 -30.4409 15.3968 0.7882
84.1647 13.9656 22.8602 0.7024
23.7640 17.9259 7.9760 0.8840
1.8942 5.6733 1.6027 0.9755
1.1615 5.6778 1.5529 0.9763
0.4597 5.6410 1.5165 0.9768
-1.6380 5.6950 1.5878 0.9758
-2.4133 5.6998 1.6585 0.9747
-3.2610 5.6826 1.7555 0.9732
-4.2535 5.6958 1.9048 0.9710
-22.1513 23.2180 8.5984 0.8756
-30.1961 19.2692 9.5981 0.8621
-47.3767 -13.3786 13.1910 0.8156
-23.8719 -28.7312 10.0091 0.8567
-21.3211 -43.8727 13.0703 0.8171
-15.7605 -73.4208 20.1212 0.7327
19.2146 -46.6329 13.5144 0.8115
48.6774 -31.7295 15.5693 0.7861
31.0761 17.2387 9.5222 0.8632
1.2762 5.6771 1.5591 0.9762
-0.1126 5.6857 1.5238 0.9767
-0.8033 5.6899 1.5397 0.9765
-2.2840 5.6990 1.6451 0.9749
-3.1283 5.7042 1.7432 0.9734
-28.9340 19.2615 9.3136 0.8659
-32.9826 -0.4934 8.8386 0.8723
-46.1443 -12.0718 12.7804 0.8208
-19.1615 -28.4842 9.1986 0.8675
-17.1777 -73.1022 20.1212 0.7327
19.0214 -48.8246 14.0403 0.8049
48.6176 -33.0479 15.7517 0.7839
-28.8650 -36.1406 10.6783 0.8271
-14.0308 -43.4177 10.5342 0.8292
49.9657 -31.2090 13.6008 0.7852
83.7527 13.8973 19.6002 0.7057
48.8678 14.3113 11.7559 0.8114
23.8645 18.0017 6.9013 0.8845
24.3376 29.8748 8.8961 0.8537
2.6873 5.6685 1.4483 0.9746
-0.2227 5.6863 1.3138 0.9769
-1.6380 5.6950 1.3681 0.9760
-2.4133 5.6998 1.4290 0.9749
-4.2649 5.7112 1.6456 0.9712
-5.4558 5.7185 1.8247 0.9681
-28.8564 -34.7302 10.4246 0.8308
-19.9314 -30.9032 8.4898 0.8599
-17.4941 -35.9977 9.2401 0.8485
-15.5317 -72.3548 17.0849 0.7380
19.0375 -46.2031 11.5368 0.8145
26.2439 -46.7749 12.3824 0.8024
48.7073 -52.0518 16.4578 0.7463
19.3865 2.8327 4.5233 0.9227
48.8615 13.2889 11.6903 0.8123
24.2923 22.5121 7.6463 0.8729
2.8224 5.6676 1.4617 0.9743
2.0167 5.6726 1.3899 0.9756
1.2762 5.6771 1.3434 0.9764
-1.5191 5.6943 1.3606 0.9761
-2.2840 5.6990 1.4175 0.9751
-3.1283 5.7042 1.5020 0.9736
-30.3353 20.1943 8.4133 0.8610
-69.5493 -18.1947 16.5971 0.7444
-20.6224 -30.6559 8.5298 0.8593
-16.4087 -32.1664 8.3366 0.8622
17.3911 -44.6400 11.0604 0.8215
25.0016 -46.6532 12.2199 0.8047
-27.5926 -34.5474 8.5943 0.8351
-20.6541 -33.4260 7.6377 0.8520
-16.9360 -36.6354 7.8453 0.8483
-14.0307 -43.4177 8.8693 0.8303
26.5480 -45.2431 10.1966 0.8075
38.7494 -50.8558 12.4279 0.7706
63.5018 10.5370 12.5123 0.7693
29.7209 17.2471 6.6794 0.8693
23.7640 17.9259 5.7861 0.8858
24.2978 23.4069 6.5580 0.8716
24.3376 29.8748 7.4901 0.8547
1.8942 5.6733 1.1626 0.9759
1.1615 5.6778 1.1265 0.9767
0.4597 5.6410 1.1001 0.9772
-0.2227 5.6863 1.1062 0.9771
-0.9160 5.6906 1.1204 0.9768
-1.6380 5.6950 1.1519 0.9761
-2.4133 5.6998 1.2031 0.9751
-3.2610 5.6826 1.2735 0.9737
-5.4558 5.7185 1.5363 0.9683
-6.9619 5.7278 1.7524 0.9639
-30.9872 19.7741 7.1452 0.8609
-69.7420 -19.6942 14.0866 0.7443
-21.2647 -32.9704 7.6261 0.8523
-14.9630 -43.4138 8.9260 0.8293
25.3269 -45.1406 10.0612 0.8098
38.7366 -52.9325 12.7499 0.7655
49.3123 13.4115 9.9335 0.8120
31.0762 17.2387 6.9078 0.8652
24.2923 22.5121 6.4378 0.8738
24.3304 28.7134 7.3156 0.8578
3.7298 5.6620 1.3179 0.9727
2.8224 5.6676 1.2307 0.9745
1.2762 5.6771 1.1311 0.9766
-1.5191 5.6943 1.1456 0.9763
-3.1283 5.7042 1.2646 0.9738
-5.2471 5.7172 1.5084 0.9689
-6.6917 5.7261 1.7120 0.9647
-30.3353 20.1943 7.0836 0.8620
-23.1134 -34.3590 8.0492 0.8447
-16.5409 -70.3920 14.0555 0.7448
11.7542 -45.8346 9.1976 0.8246
-28.8650 -36.1406 7.3257 0.8292
-21.7707 -35.2330 6.5597 0.8456
-14.0308 -43.4177 7.2268 0.8313
13.4590 -45.1468 7.4615 0.8263
35.3591 -46.4063 9.2405 0.7896
48.9895 -39.5168 9.9689 0.7750
49.0416 -30.6318 9.1581 0.7912
58.9006 -27.5753 10.3007 0.7684
53.0126 -10.5775 8.5619 0.8034
53.1456 2.3386 8.4256 0.8062
37.7468 16.1977 6.5057 0.8468
29.7209 17.2471 5.4425 0.8701
24.2978 23.4069 5.3436 0.8723
5.4984 6.7494 1.3788 0.9654
2.6873 5.6685 0.9936 0.9749
1.1615 5.6778 0.9179 0.9768
-1.6380 5.6950 0.9386 0.9763
-5.4558 5.7185 1.2518 0.9685
-6.9619 5.7278 1.4279 0.9641
-8.9954 5.7403 1.6901 0.9577
-90.4381 -37.7767 15.5234 0.6724
-22.2770 -34.5400 6.5097 0.8467
-14.9223 -43.2957 7.2532 0.8307
17.6976 -42.9513 7.3577 0.8285
25.4165 -45.3002 8.2270 0.8103
52.9636 -18.5414 8.8878 0.7967
53.2474 1.3117 8.4361 0.8060
31.0762 17.2387 5.6286 0.8660
23.5081 21.7854 5.0763 0.8783
3.7298 5.6620 1.0739 0.9729
2.0167 5.6726 0.9535 0.9759
6.2616 61.9919 9.8685 0.7770
-0.1126 5.6857 0.9007 0.9772
-0.8033 5.6899 0.9101 0.9770
-4.0945 5.7101 1.1129 0.9719
-5.2471 5.7172 1.2291 0.9691
-6.6917 5.7261 1.3949 0.9650
-8.6194 5.7379 1.6400 0.9589
-8.0620 2.9102 1.3575 0.9659
-70.3363 -18.4006 11.5151 0.7449
-65.7713 -46.6823 12.7744 0.7213
-72.6326 -66.0155 15.5455 0.6720
-24.6221 -36.6016 6.9868 0.8364
-18.6830 -36.6247 6.5119 0.8466
-12.9003 -35.2036 5.9383 0.8591
-15.9247 -67.7699 11.0261 0.7543
11.3671 -44.3250 7.2476 0.8308
16.5208 -42.4061 7.2082 0.8317
24.1689 -45.0994 8.1041 0.8128
48.6790 -33.0897 9.3227 0.7879
-27.5926 -34.5475 5.4288 0.8368
-21.3314 -34.5220 4.9827 0.8491
-16.9298 -36.6221 4.9539 0.8499
-12.8940 -39.9000 5.1486 0.8445
15.5968 -91.2597 11.3677 0.6886
34.5730 -45.3746 7.0043 0.7946
44.5866 -45.8378 7.8516 0.7728
50.0923 -23.4516 6.7912 0.8002
52.9706 -17.4012 6.8459 0.7988
53.0526 -4.0656 6.5331 0.8070
53.0920 2.3362 6.5252 0.8072
37.7468 16.1977 5.0434 0.8474
23.8645 18.0017 3.6704 0.8865
23.3300 28.6380 4.5354 0.8617
3.5753 5.6630 0.8223 0.9734
2.6873 5.6685 0.7703 0.9750
1.8942 5.6733 0.7344 0.9762
0.4597 5.6410 0.6949 0.9774
-0.2227 5.6863 0.6987 0.9773
-0.9160 5.6906 0.7077 0.9770
-1.6380 5.6950 0.7276 0.9764
-3.2610 5.6826 0.8045 0.9739
-4.2649 5.7112 0.8752 0.9717
-5.4558 5.7185 0.9704 0.9687
-11.9970 5.7587 1.6340 0.9478
-68.6692 -19.3912 8.7612 0.7501
-80.1358 -33.4733 10.6633 0.7047
-28.6700 -34.5059 5.5084 0.8346
-22.2770 -34.5400 5.0465 0.8474
-17.6858 -36.3923 4.9681 0.8495
-13.1845 -38.2538 4.9681 0.8495
12.4021 -44.7452 5.7011 0.8293
32.9798 -45.0659 6.8568 0.7985
42.5159 -45.4353 7.6403 0.7782
48.5321 -40.7223 7.7788 0.7747
48.5853 -31.6695 7.1209 0.7916
53.0987 -18.5887 6.9077 0.7971
53.0463 -5.0989 6.5433 0.8067
53.0857 1.3078 6.5201 0.8073
23.7596 17.2118 3.6023 0.8885
23.5081 21.7854 3.9353 0.8788
3.7298 5.6620 0.8325 0.9730
2.0167 5.6726 0.7392 0.9760
-0.8033 5.6899 0.7056 0.9771
-1.5191 5.6943 0.7236 0.9765
-3.1283 5.7042 0.7988 0.9741
-8.6194 5.7379 1.2714 0.9591
-11.4180 5.7551 1.5700 0.9498
-33.9830 -24.1200 5.1168 0.8454
-29.8108 -34.4989 5.5983 0.8321
-23.2346 -34.5392 5.1111 0.8456
-18.3865 -36.0434 4.9681 0.8495
-13.9220 -37.9916 4.9681 0.8495
-15.6277 -66.5059 8.3883 0.7593
-4.6184 -41.6874 5.1499 0.8445
16.7124 -42.8977 5.6528 0.8307
24.1203 -45.0088 6.2699 0.8140
26.5084 -18.0192 3.9356 0.8788
-16.9360 -36.6355 3.5311 0.8504
-14.0308 -43.4178 3.9920 0.8326
13.1966 -44.2665 4.0412 0.8307
19.6967 -45.2950 4.3213 0.8201
26.4718 -45.1133 4.5762 0.8106
43.9865 -45.2210 5.5192 0.7762
48.7408 -39.3161 5.4786 0.7777
48.5934 -30.3518 5.0125 0.7945
46.7877 -21.9045 4.5198 0.8127
53.1125 -10.5975 4.7383 0.8046
53.1526 -4.0732 4.6639 0.8073
49.4017 2.1739 4.3263 0.8199
53.2320 8.8329 4.7209 0.8052
19.0130 5.5681 1.7333 0.9235
5.4361 6.6729 0.7530 0.9660
3.5753 5.6630 0.5859 0.9735
2.6873 5.6685 0.5488 0.9751
1.1615 5.6778 0.5070 0.9770
0.4597 5.6410 0.4952 0.9775
-1.6380 5.6950 0.5185 0.9765
-2.4133 5.6998 0.5415 0.9755
-3.2610 5.6826 0.5732 0.9740
-4.2649 5.7112 0.6236 0.9718
-5.4558 5.7185 0.6915 0.9688
-6.9619 5.7278 0.7887 0.9644
-17.0662 5.7899 1.5767 0.9302
-28.8564 -34.7302 3.9505 0.8342
-14.9223 -43.2958 4.0066 0.8320
25.4165 -45.3002 4.5444 0.8117
48.9301 -41.0562 5.5882 0.7738
48.5853 -31.6695 5.0740 0.7923
52.9709 -18.5440 4.9101 0.7982
53.0929 1.3079 4.6464 0.8080
19.3798 2.8317 1.7135 0.9244
39.8257 16.1849 3.7610 0.8415
31.0761 17.2387 3.1091 0.8670
23.7596 17.2118 2.5668 0.8889
5.6012 6.6102 0.7580 0.9658
2.8224 5.6676 0.5539 0.9749
2.0167 5.6726 0.5267 0.9761
1.2762 5.6771 0.5091 0.9769
6.2615 61.9920 5.4512 0.7787
-0.1126 5.6857 0.4975 0.9774
-0.8033 5.6899 0.5027 0.9772
-1.5191 5.6943 0.5156 0.9766
-2.2840 5.6990 0.5371 0.9756
-4.0945 5.7101 0.6147 0.9722
-6.6917 5.7261 0.7705 0.9653
-8.6194 5.7379 0.9059 0.9593
-11.4180 5.7551 1.1187 0.9500
-8.0609 2.9098 0.7498 0.9662
-91.7834 -36.2697 8.6342 0.6728
-24.6221 -36.6017 3.8594 0.8377
11.9327 -46.5307 4.2026 0.8246
16.6817 -42.8189 4.0204 0.8315
31.2914 -44.5418 4.7624 0.8037
-21.3460 -34.5457 2.1282 0.8499
13.4629 -45.1598 2.4697 0.8280
19.5994 -45.0714 2.5758 0.8213
23.1618 -30.3983 2.0029 0.8581
26.5085 -27.2524 1.9925 0.8587
48.9895 -39.5168 3.2986 0.7772
48.3035 -22.6141 2.7952 0.8076
58.0641 -19.0744 3.2030 0.7829
57.9664 -4.4421 3.0468 0.7923
57.9204 2.5487 3.0384 0.7928
41.5211 6.8897 2.2058 0.8449
19.0130 5.5681 1.0383 0.9237
23.7640 17.9260 1.5600 0.8876
23.2918 22.4378 1.6949 0.8785
5.4361 6.6729 0.4511 0.9661
3.9435 6.2461 0.3871 0.9708
2.6873 5.6685 0.3288 0.9752
-0.9160 5.6906 0.3021 0.9772
-2.4133 5.6998 0.3244 0.9755
-3.2610 5.6826 0.3434 0.9741
-4.2602 5.7048 0.3731 0.9719
-5.4488 5.7112 0.4137 0.9689
-8.9954 5.7403 0.5592 0.9582
-11.9969 5.7587 0.6974 0.9481
-17.0662 5.7899 0.9445 0.9304
-70.0783 -19.7891 3.8162 0.7470
-36.5060 -34.4930 2.6321 0.8178
-28.6700 -34.5059 2.3511 0.8355
-22.2770 -34.5400 2.1540 0.8482
-16.7968 -34.5630 2.0139 0.8573
-16.7434 -77.9997 4.1809 0.7265
12.7215 -45.8975 2.4961 0.8263
19.0120 -46.1412 2.6154 0.8188
23.1542 -31.6396 2.0547 0.8547
25.4955 -27.2462 1.9556 0.8612
32.5183 -27.2855 2.2247 0.8436
48.5853 -31.6695 3.0394 0.7927
58.0725 -20.3300 3.2246 0.7816
57.9739 -5.5726 3.0523 0.7919
19.3779 2.8314 1.0263 0.9246
20.4410 5.5594 1.1102 0.9186
23.4020 9.5104 1.3239 0.9038
31.0762 17.2387 1.8624 0.8673
23.5081 21.7854 1.6797 0.8795
5.6532 6.6715 0.4583 0.9656
2.8224 5.6676 0.3318 0.9750
6.2615 61.9920 3.2654 0.7791
-1.5191 5.6943 0.3089 0.9767
-2.2840 5.6990 0.3218 0.9757
-25.4090 5.8411 1.3664 0.9008
-32.8624 -0.4916 1.7224 0.8767
-29.8108 -34.4989 2.3895 0.8331
-17.6287 -34.5579 2.0331 0.8561
12.0491 -91.7491 4.8497 0.6903
24.1419 -45.0491 2.6786 0.8149
23.1462 -32.9475 2.1102 0.8511
31.2650 -27.2816 2.1746 0.8469
-28.8650 -36.1406 0.8073 0.8311
-21.7707 -35.2331 0.7229 0.8473
-15.7942 -34.1656 0.6570 0.8602
-12.5272 -38.7651 0.7111 0.8496
-12.9215 -66.4327 1.1813 0.7628
25.8249 -86.6266 1.5778 0.6965
23.1619 -30.3983 0.6671 0.8582
33.8410 -27.2975 0.7589 0.8403
43.8013 -27.3587 0.9014 0.8133
58.9007 -27.5754 1.1352 0.7709
18.9856 5.5601 0.3453 0.9239
40.0443 17.1836 0.7606 0.8400
24.2978 23.4070 0.5889 0.8737
3.9513 6.2585 0.1292 0.9708
2.6873 5.6685 0.1095 0.9752
1.1615 5.6778 0.1012 0.9771
0.4597 5.6410 0.0988 0.9776
-0.2227 5.6863 0.0993 0.9775
-0.9160 5.6906 0.1006 0.9772
-2.4133 5.6998 0.1080 0.9755
-3.2610 5.6826 0.1144 0.9741
-5.4289 5.6904 0.1373 0.9690
-6.9105 5.6855 0.1562 0.9648
-11.9637 5.7427 0.2316 0.9483
-17.0662 5.7899 0.3146 0.9304
-27.9415 5.8567 0.4983 0.8921
-68.2473 -19.2721 1.2378 0.7530
-22.2770 -34.5400 0.7174 0.8484
-16.6013 -34.1606 0.6630 0.8590
19.0377 -46.2037 0.8723 0.8188
23.6341 -42.1234 0.8431 0.8243
23.1542 -31.6396 0.6844 0.8548
25.4955 -27.2462 0.6513 0.8613
32.5229 -27.2894 0.7411 0.8438
41.9545 -27.3473 0.8742 0.8184
79.1169 -27.6971 1.4632 0.7151
19.3745 2.8309 0.3418 0.9247
20.4410 5.5594 0.3698 0.9187
24.2923 22.5121 0.5781 0.8759
23.3231 27.5246 0.6297 0.8656
4.0404 6.1335 0.1282 0.9710
2.8224 5.6676 0.1105 0.9750
2.0167 5.6726 0.1051 0.9762
1.2762 5.6771 0.1016 0.9770
-0.1126 5.6857 0.0993 0.9775
-1.5191 5.6943 0.1029 0.9767
-2.2840 5.6990 0.1072 0.9757
-4.0779 5.6870 0.1221 0.9724
-5.2266 5.6949 0.1349 0.9695
-8.6194 5.7379 0.1807 0.9594
-11.4098 5.7510 0.2230 0.9502
-32.7515 -0.4899 0.5717 0.8772
-29.8108 -34.4989 0.7959 0.8333
-17.4235 -34.1556 0.6693 0.8578
19.0217 -48.8253 0.9146 0.8109
23.1462 -32.9475 0.7028 0.8512
40.2156 -27.3366 0.8488 0.8232
-17.6298 -22.0736 -0.4931 0.8931
-16.8694 -36.4914 -0.7017 0.8514
-9.0353 -46.4526 -0.8260 0.8275
18.4529 -42.4349 -0.8077 0.8310
24.5971 -41.9184 -0.8483 0.8233
41.0568 6.8126 -0.7264 0.8466
29.7209 17.2471 -0.5998 0.8716
23.3300 28.6380 -0.6448 0.8626
2.6873 5.6685 -0.1095 0.9752
1.1615 5.6778 -0.1012 0.9771
-0.2227 5.6863 -0.0993 0.9775
-1.6380 5.6950 -0.1034 0.9766
-17.0662 5.7899 -0.3146 0.9304
-27.7828 5.8234 -0.4955 0.8926
-64.5058 5.5713 -1.1301 0.7718
-98.3838 -3.3761 -1.7183 0.6745
-84.1088 -13.1218 -1.4859 0.7114
-68.2341 -19.2683 -1.2376 0.7530
-71.1045 -40.3478 -1.4270 0.7210
-12.0164 -24.7262 -0.4799 0.8958
-9.0745 -42.2739 -0.7547 0.8412
22.8387 -82.3994 -1.4925 0.7103
23.5134 -41.9083 -0.8388 0.8251
32.5229 -27.2894 -0.7411 0.8438
41.9545 -27.3473 -0.8742 0.8184
56.9409 -28.0133 -1.1077 0.7758
23.4020 9.5104 -0.4409 0.9039
23.3231 27.5247 -0.6297 0.8656
4.0404 6.1335 -0.1282 0.9710
2.8224 5.6676 -0.1105 0.9750
2.0167 5.6726 -0.1051 0.9762
1.2762 5.6771 -0.1016 0.9770
-3.1283 5.7042 -0.1136 0.9743
-4.0707 5.6770 -0.1219 0.9724
-5.2100 5.6768 -0.1345 0.9696
-11.4098 5.7510 -0.2230 0.9502
-25.1078 5.7719 -0.4497 0.9021
-91.5331 9.6928 -1.6066 0.6920
-66.7871 -17.4721 -1.2050 0.7587
-70.2175 -38.0680 -1.3942 0.7265
-73.0689 -51.8618 -1.5640 0.6987
-15.5366 -23.0957 -0.4859 0.8946
-10.1949 -27.8207 -0.5172 0.8882
23.1462 -32.9475 -0.7028 0.8512
31.2650 -27.2816 -0.7243 0.8470
40.2156 -27.3366 -0.8488 0.8232
-14.3518 -23.2265 -1.4309 0.8964
-8.5582 -44.0000 -2.3492 0.8357
8.0405 -47.0466 -2.5014 0.8260
17.8752 -41.1063 -2.3492 0.8357
22.6853 -38.6604 -2.3492 0.8357
24.5148 -25.2028 -1.8426 0.8686
33.7100 -27.1918 -2.2698 0.8407
37.4131 -23.3685 -2.3118 0.8380
45.3447 -14.8960 -2.5014 0.8260
47.5892 -3.6469 -2.5014 0.8260
44.7813 1.9705 -2.3492 0.8357
17.9623 10.4236 -1.0884 0.9202
23.7948 22.9224 -1.7315 0.8760
23.8338 29.2565 -1.9776 0.8597
0.4597 5.6410 -0.2966 0.9776
-0.2227 5.6863 -0.2982 0.9775
-0.9160 5.6906 -0.3021 0.9772
-2.4133 5.6998 -0.3244 0.9755
-4.2337 5.6693 -0.3708 0.9721
-6.8085 5.6016 -0.4621 0.9653
-8.9954 5.7403 -0.5592 0.9582
-11.9301 5.7266 -0.6935 0.9484
-44.8467 -1.5390 -2.3517 0.8355
-44.2889 -6.9095 -2.3492 0.8357
-45.9325 -12.9707 -2.5014 0.8260
-44.0410 -18.3963 -2.5014 0.8260
-24.5570 -23.2030 -1.7706 0.8734
-18.2464 -21.9606 -1.4963 0.8919
-14.9064 -23.1121 -1.4413 0.8957
-9.8381 -28.5444 -1.5823 0.8861
-8.8790 -41.3631 -2.2171 0.8441
-4.3370 -47.5313 -2.5014 0.8260
1.4062 -47.7080 -2.5014 0.8260
7.1290 -47.1933 -2.5014 0.8260
12.7273 -45.9184 -2.4972 0.8262
20.1828 -35.9721 -2.1617 0.8477
21.0320 -28.7397 -1.8664 0.8671
24.3784 -26.0524 -1.8699 0.8668
37.5514 -24.4772 -2.3492 0.8357
45.0481 -15.7704 -2.5014 0.8260
46.6167 -10.2428 -2.5014 0.8260
19.3677 2.8299 -1.0258 0.9246
20.4410 5.5594 -1.1102 0.9186
17.9157 7.2808 -1.0135 0.9255
18.1100 13.1191 -1.1720 0.9143
2.8224 5.6676 -0.3318 0.9750
1.2762 5.6771 -0.3050 0.9770
4.7876 47.3989 -2.4967 0.8263
-0.1126 5.6857 -0.2980 0.9775
-0.8033 5.6899 -0.3012 0.9772
-2.2840 5.6990 -0.3218 0.9757
-3.1283 5.7042 -0.3409 0.9743
-5.1935 5.6588 -0.4025 0.9697
-6.5460 5.6014 -0.4515 0.9661
-11.4098 5.7510 -0.6696 0.9501
-44.9623 4.7613 -2.3695 0.8343
-32.6605 -0.4886 -1.7119 0.8774
-38.9215 -27.6252 -2.5014 0.8260
-26.8712 -24.4232 -1.9030 0.8646
-19.1323 -22.1412 -1.5336 0.8894
-15.3352 -22.7963 -1.4399 0.8958
-12.4039 -24.3157 -1.4306 0.8964
-10.1166 -27.6070 -1.5409 0.8889
-5.2556 -47.4385 -2.5014 0.8260
0.4831 -47.7263 -2.5014 0.8260
6.2147 -47.3224 -2.5014 0.8260
11.8563 -46.2327 -2.5014 0.8260
14.5855 -37.4385 -2.1057 0.8513
21.1729 -39.5089 -2.3492 0.8357
20.2667 -28.8486 -1.8477 0.8683
24.5027 -27.2221 -1.9195 0.8636
-11.7208 -18.9686 -1.9508 0.9144
-8.2567 -25.5500 -2.3492 0.8978
-2.0467 -28.5173 -2.5014 0.8915
4.8164 -28.1820 -2.5014 0.8915
11.4014 -26.2189 -2.5014 0.8915
18.7220 -19.2474 -2.3492 0.8978
24.2491 -15.1462 -2.5014 0.8915
27.1625 -8.9231 -2.5014 0.8915
28.5070 -2.1846 -2.5014 0.8915
28.5426 1.2560 -2.4996 0.8916
26.4888 4.3954 -2.3492 0.8978
13.1056 5.6238 -1.2477 0.9443
18.4019 10.6787 -1.8614 0.9181
3.9513 6.2585 -0.6475 0.9707
1.8942 5.6733 -0.5233 0.9763
0.4597 5.6410 -0.4952 0.9775
-0.9160 5.6906 -0.5043 0.9771
-1.6380 5.6950 -0.5185 0.9765
-3.2610 5.6826 -0.5732 0.9740
-8.9954 5.7403 -0.9336 0.9581
-26.7514 2.3105 -2.3492 0.8978
-28.1140 -0.9648 -2.4611 0.8932
-28.2489 -4.4071 -2.5014 0.8915
-27.5146 -7.7698 -2.5014 0.8915
-26.3816 -11.0198 -2.5014 0.8915
-24.8662 -14.1102 -2.5014 0.8915
-22.9904 -16.9960 -2.5014 0.8915
-17.1596 -20.6525 -2.3492 0.8978
-14.5535 -22.5648 -2.3492 0.8978
-8.7493 -25.3855 -2.3492 0.8978
-5.8121 -27.0757 -2.4228 0.8948
-2.5979 -28.4723 -2.5014 0.8915
0.8423 -28.5782 -2.5014 0.8915
10.8921 -26.4346 -2.5014 0.8915
13.2746 -23.6596 -2.3735 0.8968
15.8572 -21.6685 -2.3492 0.8978
18.3462 -19.6059 -2.3492 0.8978
23.9515 -15.6124 -2.5014 0.8915
27.9245 -6.1357 -2.5014 0.8915
28.5819 0.7041 -2.5014 0.8915
19.3064 2.8210 -1.7070 0.9246
18.3238 7.4466 -1.7304 0.9237
18.3894 10.2011 -1.8398 0.9190
18.4786 13.3861 -1.9963 0.9125
4.0404 6.1335 -0.6426 0.9709
2.8224 5.6676 -0.5539 0.9749
2.0167 5.6726 -0.5267 0.9761
1.2762 5.6771 -0.5091 0.9769
2.7830 27.5528 -2.4228 0.8948
-0.8033 5.6899 -0.5027 0.9772
-1.5191 5.6943 -0.5156 0.9766
-3.1283 5.7042 -0.5692 0.9742
-8.6194 5.7379 -0.9059 0.9593
-8.0605 2.9097 -0.7497 0.9662
-26.1679 6.0156 -2.3491 0.8978
-26.7017 2.8275 -2.3492 0.8978
-26.8480 -0.4016 -2.3492 0.8978
-27.6598 -7.2361 -2.5014 0.8915
-25.1345 -13.6265 -2.5014 0.8915
-23.3149 -16.5481 -2.5014 0.8915
-14.9872 -22.2791 -2.3492 0.8978
-6.1422 -26.1390 -2.3492 0.8978
-3.1482 -28.4168 -2.5014 0.8915
0.2894 -28.5892 -2.5014 0.8915
3.7228 -28.3472 -2.5014 0.8915
7.1022 -27.6945 -2.5014 0.8915
10.3787 -26.6403 -2.5014 0.8915
15.4351 -21.9711 -2.3492 0.8978
17.9635 -19.9571 -2.3492 0.8978
23.6451 -16.0728 -2.5014 0.8915
-12.7135 -15.9180 -2.5014 0.9212
-3.8895 -19.9971 -2.5014 0.9212
-1.4583 -20.3196 -2.5014 0.9212
0.9940 -20.3476 -2.5014 0.9212
10.3100 -17.5704 -2.5014 0.9212
12.3467 -16.2041 -2.5014 0.9212
15.8563 -12.7903 -2.5014 0.9212
17.2784 -10.7922 -2.5014 0.9212
20.3124 -1.5566 -2.5014 0.9212
20.3522 0.8956 -2.5014 0.9212
18.8743 3.1318 -2.3492 0.9258
18.3612 5.3772 -2.3492 0.9258
17.5819 7.5446 -2.3492 0.9258
16.5962 9.6308 -2.3560 0.9256
13.9012 13.3915 -2.3700 0.9252
2.6873 5.6685 -0.7703 0.9750
-0.9160 5.6906 -0.7077 0.9770
-1.6380 5.6950 -0.7276 0.9764
-2.4133 5.6998 -0.7600 0.9754
-5.3624 5.6206 -0.9538 0.9692
-6.7302 5.5372 -1.0701 0.9655
-8.9953 5.7403 -1.3102 0.9579
-14.8956 5.0534 -1.9313 0.9386
-18.7254 3.9249 -2.3492 0.9258
-19.0614 1.6463 -2.3492 0.9258
-20.3599 -0.6987 -2.5014 0.9212
-20.1284 -3.1402 -2.5014 0.9212
-18.7979 -7.8520 -2.5014 0.9212
-17.7181 -10.0540 -2.5014 0.9212
-16.3816 -12.1103 -2.5014 0.9212
-13.0190 -15.6691 -2.5014 0.9212
-11.0418 -17.1200 -2.5014 0.9212
-8.9045 -18.3228 -2.5014 0.9212
-6.6381 -19.2600 -2.5014 0.9212
0.6002 -20.3631 -2.5014 0.9212
3.0428 -20.1434 -2.5014 0.9212
5.4414 -19.6318 -2.5014 0.9212
7.7610 -18.8357 -2.5014 0.9212
9.9682 -17.7665 -2.5014 0.9212
12.0309 -16.4399 -2.5014 0.9212
13.9193 -14.8751 -2.5014 0.9212
19.2277 -6.7312 -2.5014 0.9212
20.2784 -1.9492 -2.5014 0.9212
20.3657 0.5017 -2.5014 0.9212
18.9313 2.7662 -2.3492 0.9258
18.4617 5.0210 -2.3492 0.9258
17.7246 7.2031 -2.3492 0.9258
7.8107 5.6582 -1.1842 0.9619
5.1015 6.0206 -0.9689 0.9687
4.0404 6.1335 -0.9018 0.9708
2.8224 5.6676 -0.7774 0.9748
2.0167 5.6726 -0.7392 0.9760
1.2762 5.6771 -0.7145 0.9768
1.5034 14.8839 -1.8368 0.9415
-0.1126 5.6857 -0.6982 0.9773
-0.8033 5.6899 -0.7056 0.9771
-1.5191 5.6943 -0.7236 0.9765
-2.2840 5.6990 -0.7539 0.9756
-3.1283 5.7042 -0.7988 0.9741
-4.0707 5.6770 -0.8577 0.9722
-5.1631 5.6257 -0.9376 0.9697
-8.6194 5.7379 -1.2714 0.9591
-11.3944 5.7432 -1.5667 0.9499
-8.0604 2.9096 -1.0522 0.9661
-19.0260 2.0147 -2.3492 0.9258
-20.1854 -2.7503 -2.5014 0.9212
-9.6594 -2.5270 -1.2259 0.9606
-18.9463 -7.4869 -2.5014 0.9212
-17.9093 -9.7094 -2.5014 0.9212
-16.6128 -11.7912 -2.5014 0.9212
-15.0755 -13.7020 -2.5014 0.9212
-11.3709 -16.9032 -2.5014 0.9212
-4.6601 -19.8317 -2.5014 0.9212
-2.2432 -20.2480 -2.5014 0.9212
2.6526 -20.1985 -2.5014 0.9212
5.0606 -19.7334 -2.5014 0.9212
7.3952 -18.9822 -2.5014 0.9212
13.6290 -15.1415 -2.5014 0.9212
-9.8559 -12.3401 -2.5014 0.9380
-8.3016 -13.4350 -2.5014 0.9380
-6.6270 -14.3353 -2.5014 0.9380
-1.1306 -15.7524 -2.5014 0.9380
9.5715 -12.5619 -2.5014 0.9380
11.0117 -11.3207 -2.5014 0.9380
12.2923 -9.9154 -2.5014 0.9380
13.3947 -8.3665 -2.5014 0.9380
14.3030 -6.6962 -2.5014 0.9380
15.0041 -4.9289 -2.5014 0.9380
15.7468 -1.2067 -2.5014 0.9380
14.6319 2.4279 -2.3492 0.9417
14.2341 4.1686 -2.3492 0.9417
13.6301 5.8488 -2.3492 0.9417
12.8284 7.4444 -2.3492 0.9417
5.8868 5.6709 -1.2946 0.9674
5.6338 6.9156 -1.4128 0.9645
3.9513 6.2585 -1.1723 0.9705
2.6873 5.6685 -0.9936 0.9749
1.8942 5.6733 -0.9473 0.9761
-0.2227 5.6863 -0.9013 0.9772
-1.6380 5.6950 -0.9386 0.9763
-5.3141 5.5700 -1.2193 0.9693
-6.6345 5.4584 -1.3607 0.9658
-15.6985 1.3559 -2.4956 0.9382
-15.7837 -0.5416 -2.5014 0.9380
-9.0314 -2.5504 -1.4864 0.9627
-14.5727 -6.0871 -2.5014 0.9380
-13.7356 -7.7942 -2.5014 0.9380
-12.6995 -9.3883 -2.5014 0.9380
-11.4793 -10.8463 -2.5014 0.9380
-8.5599 -13.2720 -2.5014 0.9380
-5.1461 -14.9310 -2.5014 0.9380
-1.4351 -15.7276 -2.5014 0.9380
0.4653 -15.7861 -2.5014 0.9380
4.2183 -15.2191 -2.5014 0.9380
7.7277 -13.7732 -2.5014 0.9380
9.3267 -12.7447 -2.5014 0.9380
10.7907 -11.5316 -2.5014 0.9380
12.0982 -10.1514 -2.5014 0.9380
14.9059 -5.2183 -2.5014 0.9380
15.4250 -3.3892 -2.5014 0.9380
15.7205 -1.5111 -2.5014 0.9380
15.7881 0.3890 -2.5014 0.9380
14.3121 3.8925 -2.3492 0.9417
13.7406 5.5841 -2.3492 0.9417
6.1196 5.6711 -1.3214 0.9668
4.0404 6.1335 -1.1633 0.9707
2.8224 5.6676 -1.0028 0.9747
2.0167 5.6726 -0.9535 0.9759
1.2762 5.6771 -0.9216 0.9767
-0.1126 5.6857 -0.9007 0.9772
-0.8033 5.6899 -0.9101 0.9770
-3.1283 5.7042 -1.0304 0.9740
-4.0580 5.6592 -1.1030 0.9722
-6.4137 5.4882 -1.3370 0.9664
-8.6194 5.7379 -1.6400 0.9589
-11.3944 5.7432 -2.0210 0.9496
-14.4550 3.3230 -2.3492 0.9417
-14.7495 1.5619 -2.3492 0.9417
-15.7912 -0.2362 -2.5014 0.9380
-15.6484 -2.1321 -2.5014 0.9380
-9.0806 -2.3756 -1.4866 0.9627
-13.8838 -7.5271 -2.5014 0.9380
-12.8787 -9.1409 -2.5014 0.9380
-8.8150 -13.1039 -2.5014 0.9380
-5.4340 -14.8287 -2.5014 0.9380
-3.6127 -15.3742 -2.5014 0.9380
0.1599 -15.7921 -2.5014 0.9380
2.0564 -15.6585 -2.5014 0.9380
3.9231 -15.2979 -2.5014 0.9380
5.7330 -14.7156 -2.5014 0.9380
10.5656 -11.7382 -2.5014 0.9380
-8.0307 -10.0549 -2.5014 0.9489
-5.3998 -11.6806 -2.5014 0.9489
-2.4569 -12.6316 -2.5014 0.9489
0.6279 -12.8530 -2.5014 0.9489
2.1678 -12.6844 -2.5014 0.9489
5.1316 -11.8009 -2.5014 0.9489
6.5125 -11.0987 -2.5014 0.9489
7.7990 -10.2357 -2.5014 0.9489
8.9725 -9.2243 -2.5014 0.9489
11.6544 -5.4562 -2.5014 0.9489
12.6196 -2.5180 -2.5014 0.9489
12.8307 -0.9833 -2.5014 0.9489
12.8559 0.5657 -2.5014 0.9489
11.9223 1.9783 -2.3492 0.9519
10.4528 6.0658 -2.3492 0.9519
9.6482 7.2779 -2.3492 0.9519
5.5989 6.8727 -1.7231 0.9645
3.9513 6.2585 -1.4387 0.9703
0.4597 5.6410 -1.1001 0.9772
-6.4811 5.3322 -1.6314 0.9664
-8.0838 2.7425 -1.6593 0.9658
-11.8283 2.4793 -2.3492 0.9519
-12.7146 -1.9836 -2.5014 0.9489
-8.2714 -2.3357 -1.6707 0.9656
-8.1314 -3.3965 -1.7129 0.9647
-10.3478 -7.6497 -2.5014 0.9489
-5.6247 -11.5740 -2.5014 0.9489
-4.1931 -12.1660 -2.5014 0.9489
-2.7008 -12.5817 -2.5014 0.9489
0.3791 -12.8628 -2.5014 0.9489
1.9221 -12.7240 -2.5014 0.9489
3.4372 -12.4008 -2.5014 0.9489
4.9024 -11.8979 -2.5014 0.9489
7.5996 -10.3846 -2.5014 0.9489
8.7924 -9.3962 -2.5014 0.9489
9.8578 -8.2715 -2.5014 0.9489
10.7804 -7.0270 -2.5014 0.9489
11.5466 -5.6806 -2.5014 0.9489
12.1456 -4.2519 -2.5014 0.9489
12.8093 -1.2313 -2.5014 0.9489
11.9584 1.7473 -2.3492 0.9519
10.5682 5.8625 -2.3492 0.9519
9.7872 7.0899 -2.3492 0.9519
8.8704 8.2203 -2.3508 0.9519
4.0404 6.1335 -1.4277 0.9705
2.8224 5.6676 -1.2307 0.9745
1.2762 5.6771 -1.1311 0.9766
-0.1126 5.6857 -1.1054 0.9771
-0.8033 5.6899 -1.1170 0.9769
-4.0183 5.6038 -1.3404 0.9723
-5.0701 5.5244 -1.4575 0.9699
-6.3015 5.3922 -1.6121 0.9668
-8.6194 5.7379 -2.0127 0.9587
-10.7920 5.4396 -2.3492 0.9519
-12.8669 -0.1925 -2.5014 0.9489
-12.7506 -1.7373 -2.5014 0.9489
-8.3227 -2.1773 -1.6722 0.9656
-10.4938 -7.4482 -2.5014 0.9489
-9.5227 -8.6552 -2.5014 0.9489
-7.1827 -10.6773 -2.5014 0.9489
-2.9437 -12.5271 -2.5014 0.9489
-1.4170 -12.7901 -2.5014 0.9489
0.1303 -12.8677 -2.5014 0.9489
1.6756 -12.7588 -2.5014 0.9489
4.6713 -11.9905 -2.5014 0.9489
7.3973 -10.5297 -2.5014 0.9489
8.6090 -9.5645 -2.5014 0.9489
-4.5464 -9.8345 -2.5014 0.9565
-3.3316 -10.3096 -2.5014 0.9565
-2.0686 -10.6353 -2.5014 0.9565
-0.7756 -10.8068 -2.5014 0.9565
0.5286 -10.8217 -2.5014 0.9565
1.8252 -10.6797 -2.5014 0.9565
3.0953 -10.3830 -2.5014 0.9565
5.4833 -9.3446 -2.5014 0.9565
8.4330 -6.8024 -2.5014 0.9565
10.2934 -3.3814 -2.5014 0.9565
10.6251 -2.1200 -2.5014 0.9565
10.8029 -0.8279 -2.5014 0.9565
10.0381 1.6656 -2.3492 0.9591
9.7652 2.8598 -2.3492 0.9591
9.3507 4.0125 -2.3492 0.9591
8.1233 6.1277 -2.3492 0.9591
5.5989 6.8727 -2.0466 0.9643
3.9513 6.2585 -1.7088 0.9701
1.1615 5.6778 -1.3380 0.9765
0.4597 5.6410 -1.3066 0.9770
-2.4133 5.6998 -1.4290 0.9749
-3.2610 5.6826 -1.5126 0.9735
-6.3327 5.2101 -1.8932 0.9669
-8.5776 5.4737 -2.3492 0.9591
-9.1732 4.4033 -2.3492 0.9591
-7.9629 2.7015 -1.9413 0.9661
-9.9589 2.0875 -2.3492 0.9591
-10.7051 -1.6701 -2.5014 0.9565
-7.9675 -2.2499 -1.9114 0.9666
-7.8552 -3.2812 -1.9654 0.9657
-9.4232 -5.3471 -2.5014 0.9565
-8.7123 -6.4407 -2.5014 0.9565
-7.8752 -7.4410 -2.5014 0.9565
-5.8724 -9.1051 -2.5014 0.9565
-3.5304 -10.2432 -2.5014 0.9565
-2.2739 -10.5932 -2.5014 0.9565
-0.9845 -10.7897 -2.5014 0.9565
0.3192 -10.8299 -2.5014 0.9565
2.8939 -10.4409 -2.5014 0.9565
4.1276 -10.0175 -2.5014 0.9565
5.3015 -9.4489 -2.5014 0.9565
7.4028 -7.9111 -2.5014 0.9565
8.2998 -6.9642 -2.5014 0.9565
10.2260 -3.5799 -2.5014 0.9565
10.5821 -2.3251 -2.5014 0.9565
10.7849 -1.0367 -2.5014 0.9565
10.8313 0.2668 -2.5014 0.9565
10.3394 1.5108 -2.4124 0.9580
9.8187 2.6704 -2.3492 0.9591
9.4266 3.8309 -2.3492 0.9591
8.2403 5.9694 -2.3492 0.9591
7.4633 6.9164 -2.3492 0.9591
5.1005 6.0194 -1.8215 0.9681
4.0404 6.1335 -1.6957 0.9703
2.8224 5.6676 -1.4617 0.9743
1.2762 5.6771 -1.3434 0.9764
-1.5191 5.6943 -1.3606 0.9761
-2.2840 5.6990 -1.4175 0.9751
-3.1283 5.7042 -1.5020 0.9736
-4.0162 5.6009 -1.5911 0.9721
-8.4701 5.6386 -2.3492 0.9591
-9.9167 2.2797 -2.3492 0.9591
-10.7354 -1.4627 -2.5014 0.9565
-6.0475 -8.9898 -2.5014 0.9565
-4.9234 -9.6513 -2.5014 0.9565
-3.7279 -10.1730 -2.5014 0.9565
-2.4784 -10.5473 -2.5014 0.9565
0.1097 -10.8340 -2.5014 0.9565
1.4108 -10.7423 -2.5014 0.9565
2.6914 -10.4950 -2.5014 0.9565
6.2282 -8.8655 -2.5014 0.9565
7.2484 -8.0529 -2.5014 0.9565
8.1636 -7.1235 -2.5014 0.9565
8.9604 -6.0909 -2.5014 0.9565
-5.8258 -7.2942 -2.5014 0.9621
-3.9172 -8.4736 -2.5014 0.9621
-2.8706 -8.8829 -2.5014 0.9621
0.4555 -9.3241 -2.5014 0.9621
1.5726 -9.2018 -2.5014 0.9621
2.6670 -8.9461 -2.5014 0.9621
3.7227 -8.5608 -2.5014 0.9621
4.7244 -8.0514 -2.5014 0.9621
5.6577 -7.4254 -2.5014 0.9621
6.5090 -6.6917 -2.5014 0.9621
7.2660 -5.8610 -2.5014 0.9621
7.9176 -4.9454 -2.5014 0.9621
8.4545 -3.9581 -2.5014 0.9621
8.8689 -2.9135 -2.5014 0.9621
9.3079 -0.7133 -2.5014 0.9621
8.0567 3.4573 -2.3492 0.9643
7.5829 4.4004 -2.3492 0.9643
2.6873 5.6685 -1.6809 0.9744
1.1615 5.6778 -1.5529 0.9763
0.4597 5.6410 -1.5165 0.9768
-0.9160 5.6906 -1.5444 0.9764
-1.6380 5.6950 -1.5878 0.9758
-2.4133 5.6998 -1.6585 0.9747
-3.2610 5.6826 -1.7555 0.9732
-6.7703 5.5701 -2.3492 0.9643
-7.3906 4.7162 -2.3492 0.9643
-7.9038 3.7939 -2.3492 0.9643
-7.8715 2.6704 -2.2272 0.9662
-8.5807 1.7986 -2.3492 0.9643
-9.2236 -1.4390 -2.5014 0.9621
-8.1191 -4.6071 -2.5014 0.9621
-6.7854 -6.4112 -2.5014 0.9621
-5.9658 -7.1802 -2.5014 0.9621
-5.0597 -7.8450 -2.5014 0.9621
-4.0804 -8.3962 -2.5014 0.9621
-1.9593 -9.1273 -2.5014 0.9621
-0.8483 -9.2966 -2.5014 0.9621
2.4934 -8.9960 -2.5014 0.9621
5.5130 -7.5334 -2.5014 0.9621
7.1512 -6.0005 -2.5014 0.9621
7.8205 -5.0976 -2.5014 0.9621
8.3764 -4.1209 -2.5014 0.9621
8.8109 -3.0845 -2.5014 0.9621
9.1177 -2.0034 -2.5014 0.9621
9.2924 -0.8932 -2.5014 0.9621
9.3324 0.2299 -2.5014 0.9621
7.1000 5.1433 -2.3492 0.9643
6.4305 5.9592 -2.3492 0.9643
2.8224 5.6676 -1.6965 0.9741
1.2762 5.6771 -1.5591 0.9762
-0.1126 5.6857 -1.5238 0.9767
-4.0162 5.6009 -1.8467 0.9719
-6.6613 5.7000 -2.3492 0.9643
-7.2980 4.8583 -2.3492 0.9643
-9.2833 0.9831 -2.5014 0.9621
-8.0678 -2.1106 -2.2345 0.9661
-8.2067 -4.4492 -2.5014 0.9621
-2.1354 -9.0877 -2.5014 0.9621
0.0945 -9.3347 -2.5014 0.9621
2.3189 -9.0426 -2.5014 0.9621
3.3888 -8.6984 -2.5014 0.9621
4.4095 -8.2281 -2.5014 0.9621
7.7204 -5.2480 -2.5014 0.9621
