ply
format ascii 1.0
element vertex 684
property float32 x
property float32 y
property float32 z
property float32 I
end_header
-21.7849 -34.9386 11.0325 0.8432
-14.7684 -31.6406 9.3561 0.8654
-14.3555 -43.9262 12.3826 0.8258
86.0309 14.5475 23.3792 0.6968
25.4112 24.7234 9.4998 0.8635
3.5305 5.6633 1.7882 0.9727
26.4031 56.5798 16.7300 0.7722
1.8536 5.6736 1.5993 0.9756
-0.2659 5.6866 1.5254 0.9767
-1.6896 5.6954 1.5918 0.9757
-2.4722 5.7002 1.6648 0.9746
-21.2211 21.8096 8.1537 0.8816
-24.9514 20.1047 8.5860 0.8757
-27.4615 -34.0848 11.7284 0.8342
-14.3472 -43.9263 12.3819 0.8258
-14.5402 -73.6707 20.1208 0.7327
86.0270 14.5619 23.3788 0.6968
28.5826 16.7541 8.8774 0.8718
25.4113 24.7319 9.5014 0.8634
25.5942 31.7727 10.9321 0.8445
3.5292 5.6633 1.7880 0.9727
26.3927 56.5830 16.7296 0.7722
1.1202 5.6781 1.5508 0.9763
0.4209 5.6824 1.5268 0.9767
-65.4779 -19.4154 15.7673 0.7555
-59.1972 -25.6651 14.8959 0.7673
-27.8148 -34.5111 10.2332 0.8336
-22.8287 -36.6126 9.9612 0.8377
-14.6368 -44.7869 10.8780 0.8241
-14.3414 -72.5983 17.0845 0.7380
27.4774 -46.8997 12.5491 0.8000
50.8117 -52.2298 16.8229 0.7415
85.6967 14.4909 20.0655 0.6999
50.9782 15.1207 12.2761 0.8039
28.5937 16.7540 7.6511 0.8728
25.9809 19.7855 7.5394 0.8745
5.8064 5.6493 1.8703 0.9673
1.1212 5.6781 1.3362 0.9765
0.4219 5.6824 1.3155 0.9769
-0.2659 5.6866 1.3143 0.9769
-0.9626 5.6909 1.3325 0.9766
-1.6896 5.6954 1.3715 0.9759
-2.4722 5.7002 1.4344 0.9748
-3.3434 5.7055 1.5267 0.9732
-4.3501 5.7117 1.6575 0.9710
-5.9828 2.7916 1.5242 0.9733
-59.1930 -25.6753 14.8960 0.7673
-27.8050 -34.5112 10.2318 0.8337
-14.6283 -44.7870 10.8774 0.8241
-14.3290 -72.6008 17.0845 0.7380
50.7869 -31.6516 13.8157 0.7822
85.6928 14.5053 20.0652 0.6999
4.5569 5.6570 1.6770 0.9706
0.4209 5.6824 1.3155 0.9769
-66.1121 -19.6035 13.4039 0.7550
-17.0322 -36.4905 7.8277 0.8487
-14.0131 -70.9364 14.0551 0.7448
16.2002 -54.6262 11.0754 0.7928
18.5815 -42.8536 9.0792 0.8267
40.8377 -53.6300 13.1029 0.7598
50.6911 -31.6039 11.6115 0.7839
51.0784 15.1504 10.3562 0.8048
37.3571 16.2001 7.9149 0.8471
28.5937 16.7540 6.4419 0.8737
25.8804 19.7090 6.3233 0.8759
5.8064 5.6493 1.5747 0.9675
4.5585 5.6570 1.4122 0.9708
3.5305 5.6633 1.2972 0.9732
25.5968 54.8520 11.7659 0.7814
1.8536 5.6736 1.1602 0.9760
1.1212 5.6781 1.1250 0.9767
0.4219 5.6824 1.1076 0.9770
-0.9626 5.6909 1.1219 0.9768
-1.6896 5.6954 1.1548 0.9761
-3.3434 5.7055 1.2854 0.9734
-5.9819 2.7912 1.2831 0.9735
-66.1176 -19.6175 13.4057 0.7550
-74.7546 -32.4253 15.8389 0.7175
-12.7508 -39.0389 7.9829 0.8459
16.2092 -54.6222 11.0751 0.7928
26.5159 -45.2407 10.1930 0.8076
40.8379 -53.6111 13.1000 0.7599
50.6371 -40.7938 12.6396 0.7672
50.6912 -31.5919 11.6103 0.7840
62.2933 10.5445 12.2808 0.7730
37.3399 16.2002 7.9118 0.8472
28.5826 16.7541 6.4400 0.8737
3.5292 5.6633 1.2971 0.9732
25.5969 54.8770 11.7703 0.7813
1.1202 5.6781 1.1250 0.9767
-90.2867 -15.2592 14.5028 0.6902
-65.4204 -19.3984 10.8075 0.7586
-69.6297 -67.7334 15.3854 0.6748
-27.8148 -34.5112 7.0203 0.8357
-9.5006 -15.2371 2.8440 0.9299
-16.1555 -34.6123 6.0498 0.8567
-11.3213 -34.6419 5.7723 0.8628
-13.4910 -68.2935 11.0257 0.7543
50.6911 -31.6039 9.4613 0.7851
59.5622 -27.7979 10.4106 0.7663
56.5654 -18.4834 9.4253 0.7858
55.1161 -10.8854 8.8982 0.7965
55.1579 -4.0978 8.7602 0.7993
55.1989 2.5784 8.7522 0.7995
55.2405 9.3409 8.8734 0.7970
28.5937 16.7540 5.2489 0.8744
25.8804 19.7090 5.1523 0.8766
5.8064 5.6493 1.2831 0.9677
3.5305 5.6633 1.0570 0.9733
1.8536 5.6736 0.9454 0.9761
1.1212 5.6781 0.9167 0.9768
-0.9626 5.6909 0.9142 0.9769
-2.4722 5.7002 0.9841 0.9752
-4.3501 5.7117 1.1371 0.9713
-7.1097 5.7287 1.4461 0.9637
-90.2752 -15.2731 14.5014 0.6902
-69.6120 -67.7392 15.3840 0.6748
-9.5005 -15.2427 2.8447 0.9298
18.6705 -43.0387 7.4304 0.8270
34.2716 -44.9910 8.9578 0.7953
51.0849 -41.1546 10.3900 0.7667
50.6912 -31.5919 9.4603 0.7851
55.1579 -4.0883 8.7601 0.7993
55.2406 9.3506 8.8737 0.7970
37.3399 16.2002 6.4467 0.8480
25.8805 19.7160 5.1530 0.8765
5.8045 5.6493 1.2829 0.9677
3.5292 5.6633 1.0569 0.9733
0.4209 5.6824 0.9025 0.9772
-35.4294 -34.4645 6.0689 0.8194
-27.8148 -34.5112 5.4424 0.8364
18.8964 -43.5799 5.8323 0.8258
26.4307 -45.1131 6.4198 0.8100
34.4608 -45.2555 6.9843 0.7951
50.6370 -40.8081 7.9852 0.7694
55.0252 -25.6805 7.4558 0.7829
71.1927 -23.2630 9.1962 0.7395
51.0784 15.1504 6.5417 0.8068
25.9809 19.7855 4.0098 0.8767
3.5305 5.6633 0.8194 0.9735
25.5968 54.8521 7.4322 0.7835
1.1212 5.6781 0.7106 0.9769
0.4219 5.6824 0.6996 0.9773
-0.2659 5.6866 0.6990 0.9773
-0.9626 5.6909 0.7087 0.9770
-3.3434 5.7055 0.8120 0.9737
-5.5648 5.7192 0.9798 0.9684
-7.1097 5.7287 1.1211 0.9639
-5.9811 2.7908 0.8104 0.9738
-67.9675 -20.1663 8.7049 0.7515
-75.1709 -32.6058 10.0607 0.7188
-27.8051 -34.5112 5.4416 0.8364
-21.4219 -34.3694 4.9726 0.8494
-12.5616 -38.4595 4.9677 0.8495
15.8510 -53.4152 6.8412 0.7989
26.4411 -45.1131 6.4205 0.8100
43.9909 -45.2032 7.7447 0.7755
50.6371 -40.7938 7.9841 0.7695
55.1579 -4.0883 6.7911 0.8002
55.1990 2.5879 6.7850 0.8004
51.0785 15.1600 6.5420 0.8068
25.9810 19.7926 4.0103 0.8767
5.8045 5.6493 0.9945 0.9679
1.8526 5.6736 0.7328 0.9762
0.4209 5.6824 0.6996 0.9773
-27.8148 -34.5112 3.8779 0.8370
-17.0322 -36.4905 3.5231 0.8507
-12.8663 -39.3694 3.6236 0.8468
-11.0042 -55.7050 4.9677 0.7961
15.4090 -91.1500 8.0877 0.6899
26.4308 -45.1132 4.5744 0.8106
33.5008 -43.9949 4.8379 0.8009
50.6911 -31.6039 5.2262 0.7867
55.2160 -10.9051 4.9241 0.7977
55.2578 -4.1052 4.8478 0.8005
55.3406 9.3579 4.9104 0.7982
28.5937 16.7540 2.8994 0.8754
5.8064 5.6493 0.7088 0.9680
4.5585 5.6570 0.6356 0.9713
3.5305 5.6633 0.5839 0.9736
25.5968 54.8520 5.2957 0.7842
1.8536 5.6736 0.5222 0.9763
1.1212 5.6781 0.5064 0.9770
0.4219 5.6824 0.4985 0.9774
-0.2659 5.6866 0.4981 0.9774
-0.9626 5.6909 0.5050 0.9771
-1.6896 5.6954 0.5197 0.9764
-4.3501 5.7117 0.6281 0.9716
-5.5648 5.7192 0.6981 0.9685
-7.1097 5.7287 0.7988 0.9640
-17.7367 5.7940 1.6325 0.9278
-67.7978 -20.1160 6.1871 0.7528
-27.8051 -34.5112 3.8774 0.8370
-12.8664 -39.3928 3.6256 0.8467
-10.9947 -55.7069 4.9677 0.7961
15.3918 -90.9533 8.0705 0.6905
13.8267 -46.5938 4.2521 0.8227
18.5674 -42.8012 4.0818 0.8292
33.5060 -43.9860 4.8376 0.8009
44.0063 -45.2190 5.5203 0.7762
48.8052 -22.7673 4.7117 0.8055
55.0798 -17.9875 5.0693 0.7924
55.2161 -10.8954 4.9239 0.7977
55.2579 -4.0957 4.8477 0.8005
55.2062 2.5882 4.8352 0.8010
55.3407 9.3676 4.9106 0.7982
18.7658 5.5696 1.7126 0.9244
25.8805 19.7160 2.8464 0.8775
5.8045 5.6493 0.7086 0.9680
25.5970 54.8771 5.2977 0.7842
1.8526 5.6736 0.5222 0.9763
1.1202 5.6781 0.5063 0.9770
0.4209 5.6824 0.4985 0.9774
-67.6612 -20.0628 3.6986 0.7538
-35.4653 -34.4995 2.5930 0.8202
-21.5641 -34.5845 2.1360 0.8494
-16.1344 -34.5671 1.9992 0.8583
-10.9123 -55.2397 2.9509 0.7981
25.2503 -33.1599 2.1843 0.8462
51.0848 -41.1690 3.4384 0.7689
60.1744 -19.6627 3.3177 0.7760
60.1222 -11.8741 3.2117 0.7823
60.0730 -4.4630 3.1570 0.7856
60.0252 2.8039 3.1492 0.7861
37.3571 16.2001 2.1340 0.8495
6.8496 6.6642 0.5008 0.9624
4.5585 5.6570 0.3807 0.9713
1.8536 5.6736 0.3128 0.9764
0.4219 5.6824 0.2986 0.9774
-0.2659 5.6866 0.2983 0.9775
-0.9626 5.6909 0.3025 0.9771
-2.4681 5.6906 0.3251 0.9755
-5.5648 5.7192 0.4182 0.9685
-9.1956 5.7320 0.5679 0.9575
-42.9342 -2.0092 2.2526 0.8418
-67.6618 -20.0756 3.6988 0.7537
-35.4533 -34.4995 2.5925 0.8202
-21.5559 -34.5845 2.1357 0.8494
-16.1272 -34.5671 1.9990 0.8583
-11.4830 -35.1572 1.9383 0.8623
18.9529 -43.6897 2.4958 0.8263
25.2504 -33.1482 2.1838 0.8463
50.6912 -31.5920 3.1303 0.7872
50.7150 -23.6582 2.9328 0.7992
60.1743 -19.6512 3.3175 0.7760
60.1221 -11.8635 3.2116 0.7823
60.0729 -4.4526 3.1569 0.7856
60.0251 2.8141 3.1492 0.7861
59.9774 10.1524 3.1880 0.7838
18.7658 5.5696 1.0259 0.9246
37.3399 16.2002 2.1331 0.8496
25.8805 19.7160 1.7051 0.8778
6.8473 6.6642 0.5008 0.9625
4.5569 5.6570 0.3807 0.9713
3.5292 5.6633 0.3497 0.9736
1.1202 5.6781 0.3033 0.9771
-74.5608 -32.3261 1.4185 0.7224
-23.7841 -38.1449 0.7846 0.8354
-11.2109 -56.7514 1.0097 0.7934
21.1277 -48.7258 0.9270 0.8086
24.6809 -42.1265 0.8522 0.8226
26.5125 -27.2524 0.6637 0.8589
43.8828 -27.3592 0.9026 0.8131
41.6093 7.0359 0.7366 0.8447
18.7210 5.5529 0.3408 0.9249
25.5569 11.0829 0.4862 0.8945
28.7120 16.8233 0.5809 0.8754
25.9508 19.7626 0.5694 0.8777
4.5585 5.6570 0.1268 0.9714
3.5305 5.6633 0.1165 0.9737
25.5968 54.8520 1.0566 0.7849
1.1212 5.6781 0.1010 0.9771
-0.9626 5.6909 0.1007 0.9772
-4.3147 5.6653 0.1243 0.9719
-7.1097 5.7287 0.1594 0.9641
-5.9809 2.7907 0.1152 0.9739
-66.1435 -19.6251 1.2043 0.7588
-74.5257 -32.3260 1.4180 0.7225
-23.7751 -38.1450 0.7846 0.8354
-15.9395 -34.1647 0.6581 0.8600
-12.7180 -38.9385 0.7150 0.8488
24.6144 -82.9461 1.5102 0.7074
25.2504 -33.1482 0.7273 0.8464
33.8845 -27.2977 0.7595 0.8402
43.8996 -27.3593 0.9029 0.8131
84.9210 -27.7328 1.5593 0.6995
41.6139 7.0440 0.7367 0.8446
25.5570 11.0881 0.4863 0.8945
28.7008 16.8234 0.5807 0.8754
25.9508 19.7696 0.5694 0.8776
6.2043 6.0385 0.1511 0.9660
4.5569 5.6570 0.1268 0.9714
3.5292 5.6633 0.1165 0.9737
25.5970 54.8770 1.0570 0.7849
1.8526 5.6736 0.1042 0.9764
1.1202 5.6781 0.1010 0.9771
-82.0154 -35.5580 -1.5603 0.6993
-18.0590 -22.4067 -0.5023 0.8912
-14.1009 -22.6151 -0.4652 0.8989
-11.2991 -24.2077 -0.4663 0.8986
-6.9652 -35.2589 -0.6273 0.8661
16.9332 -57.0977 -1.0395 0.7880
25.2503 -33.1599 -0.7275 0.8464
33.8725 -27.2977 -0.7593 0.8403
84.8708 -27.7325 -1.5585 0.6996
40.7118 6.8842 -0.7207 0.8477
18.4202 5.4636 -0.3354 0.9260
25.8805 19.7090 -0.5678 0.8780
6.2052 6.0372 -0.1511 0.9660
4.5585 5.6570 -0.1268 0.9714
3.5305 5.6633 -0.1165 0.9737
20.2352 43.3626 -0.8352 0.8258
1.8536 5.6736 -0.1042 0.9764
1.1212 5.6781 -0.1010 0.9771
-2.4555 5.6617 -0.1077 0.9756
-3.3172 5.6609 -0.1145 0.9741
-17.7367 5.7940 -0.3257 0.9281
-29.7229 5.8676 -0.5288 0.8859
-62.4098 4.6312 -1.0924 0.7785
-82.0547 -13.8823 -1.4526 0.7168
-82.0247 -35.5787 -1.5606 0.6993
-68.9595 -40.4137 -1.3952 0.7263
-25.7142 -25.0224 -0.6263 0.8663
-11.2543 -24.1225 -0.4646 0.8990
-8.5726 -26.2465 -0.4819 0.8954
-6.9578 -35.2532 -0.6272 0.8661
-7.3160 -98.6486 -1.7266 0.6732
16.6829 -38.4569 -0.7317 0.8456
25.2504 -33.1482 -0.7273 0.8464
33.8845 -27.2977 -0.7595 0.8402
43.8996 -27.3593 -0.9029 0.8131
28.5826 16.7541 -0.5783 0.8759
25.8805 19.7160 -0.5679 0.8780
6.2043 6.0385 -0.1511 0.9660
4.5569 5.6570 -0.1268 0.9714
3.5292 5.6633 -0.1165 0.9737
0.4209 5.6824 -0.0995 0.9775
-45.7666 -13.5706 -2.5017 0.8260
-43.7971 -18.9884 -2.5017 0.8260
-37.9800 -28.9182 -2.5017 0.8260
-25.5141 -24.8193 -1.8654 0.8671
-17.9496 -22.2710 -1.4991 0.8917
-13.9884 -22.4346 -1.3856 0.8995
-11.1110 -23.8048 -1.3768 0.9001
-3.5361 -47.5698 -2.4999 0.8261
2.2253 -47.6843 -2.5017 0.8260
7.9570 -47.0684 -2.5017 0.8260
13.5726 -45.7661 -2.5017 0.8260
16.6827 -38.4746 -2.1978 0.8454
22.6629 -38.6821 -2.3495 0.8356
25.1463 -33.0233 -2.1753 0.8468
26.6151 -27.3579 -2.0003 0.8582
33.7414 -27.1920 -2.2711 0.8407
32.4492 -15.1442 -1.8767 0.8664
47.6050 -3.5367 -2.5017 0.8260
44.7832 2.0919 -2.3495 0.8356
40.6918 6.8808 -2.1628 0.8476
20.1799 8.7511 -1.1527 0.9157
20.3034 15.4618 -1.3375 0.9028
4.5585 5.6570 -0.3807 0.9713
3.5305 5.6633 -0.3497 0.9736
20.0115 42.8832 -2.4801 0.8273
1.1212 5.6781 -0.3033 0.9771
-0.9626 5.6909 -0.3025 0.9771
-1.6842 5.6772 -0.3103 0.9766
-2.4493 5.6473 -0.3226 0.9756
-3.3085 5.6461 -0.3430 0.9741
-5.5648 5.7192 -0.4182 0.9685
-17.7367 5.7940 -0.9779 0.9280
-45.1064 3.3473 -2.3704 0.8343
-44.2039 -7.4786 -2.3495 0.8356
-45.7643 -13.5785 -2.5017 0.8260
-25.4958 -24.8099 -1.8644 0.8672
-17.9478 -22.2766 -1.4992 0.8917
-13.9756 -22.4226 -1.3847 0.8996
-6.7084 -33.9897 -1.8157 0.8704
2.2335 -47.6839 -2.5017 0.8260
13.5804 -45.7637 -2.5017 0.8260
16.6829 -38.4569 -2.1969 0.8454
26.6242 -27.3580 -2.0006 0.8582
32.4548 -15.1400 -1.8769 0.8664
46.8332 -9.2413 -2.5017 0.8260
20.2330 11.8599 -1.2291 0.9103
20.3035 15.4674 -1.3377 0.9028
3.5292 5.6633 -0.3497 0.9736
1.8526 5.6736 -0.3128 0.9764
1.1202 5.6781 -0.3033 0.9771
-26.7815 1.9920 -2.3495 0.8978
-26.8952 -1.2540 -2.3556 0.8975
-28.1953 -4.7652 -2.5017 0.8915
-26.2355 -11.3745 -2.5017 0.8915
-22.7509 -17.3227 -2.5017 0.8915
-13.8174 -22.1603 -2.2848 0.9005
-11.0327 -23.6371 -2.2822 0.9006
-8.3424 -25.5268 -2.3495 0.8978
-2.1198 -28.5164 -2.5017 0.8915
4.7664 -28.1950 -2.5017 0.8915
11.3756 -26.2350 -2.5017 0.8915
18.7265 -19.2492 -2.3495 0.8978
24.2654 -15.1285 -2.5017 0.8915
25.9120 -12.0933 -2.5017 0.8915
28.0532 -5.5405 -2.5017 0.8915
28.5165 -2.1186 -2.5017 0.8915
28.5262 1.3325 -2.4984 0.8917
26.4795 4.4775 -2.3495 0.8978
12.9688 5.6240 -1.2367 0.9448
20.6178 12.0807 -2.0907 0.9085
4.5585 5.6570 -0.6356 0.9713
3.5305 5.6633 -0.5839 0.9736
1.8536 5.6736 -0.5222 0.9763
0.4219 5.6824 -0.4985 0.9774
-0.2659 5.6866 -0.4981 0.9774
-0.9626 5.6909 -0.5050 0.9771
-2.4467 5.6414 -0.5380 0.9756
-5.5648 5.7192 -0.6981 0.9685
-7.1097 5.7287 -0.7988 0.9640
-5.9808 2.7907 -0.5774 0.9738
-17.7367 5.7940 -1.6325 0.9278
-26.7818 1.9874 -2.3495 0.8978
-28.1944 -4.7700 -2.5017 0.8915
-27.4139 -8.1338 -2.5017 0.8915
-24.6706 -14.4582 -2.5017 0.8915
-22.7480 -17.3266 -2.5017 0.8915
-16.8488 -20.9125 -2.3495 0.8978
-13.8134 -22.1623 -2.2847 0.9005
-8.3380 -25.5283 -2.3495 0.8978
-2.1149 -28.5168 -2.5017 0.8915
8.1350 -27.4135 -2.5017 0.8915
16.2734 -21.3633 -2.3495 0.8978
21.5817 -17.3865 -2.4247 0.8947
24.2679 -15.1244 -2.5017 0.8915
25.9141 -12.0888 -2.5017 0.8915
27.1823 -8.8770 -2.5017 0.8915
26.4788 4.4821 -2.3495 0.8978
12.9628 5.6240 -1.2362 0.9448
4.5569 5.6570 -0.6355 0.9713
3.5292 5.6633 -0.5838 0.9736
1.1202 5.6781 -0.5063 0.9770
0.4209 5.6824 -0.4985 0.9774
-19.0828 1.4194 -2.3495 0.9258
-20.3530 -0.9490 -2.5017 0.9212
-8.2433 -2.4443 -1.0557 0.9659
-7.9951 -3.4663 -1.0700 0.9655
-16.2109 -12.3430 -2.5017 0.9212
-12.7858 -15.8640 -2.5017 0.9212
-10.7804 -17.2896 -2.5017 0.9212
-8.6063 -18.4385 -2.4984 0.9213
-6.3293 -19.3671 -2.5017 0.9212
-1.5104 -20.3190 -2.5017 0.9212
0.9498 -20.3529 -2.5017 0.9212
3.3962 -20.0900 -2.5017 0.9212
8.1055 -18.6934 -2.5017 0.9212
12.3437 -16.2104 -2.5017 0.9212
14.2077 -14.6043 -2.5017 0.9212
17.2900 -10.7796 -2.5017 0.9212
20.3529 0.9507 -2.5017 0.9212
17.5558 7.6132 -2.3495 0.9258
9.6741 5.6684 -1.3767 0.9558
7.5641 5.7604 -1.1674 0.9624
0.4219 5.6824 -0.6996 0.9773
-0.2659 5.6866 -0.6990 0.9773
-1.6842 5.6772 -0.7271 0.9764
-3.2912 5.6164 -0.7993 0.9741
-5.5648 5.7192 -0.9798 0.9684
-18.1896 5.9419 -2.3495 0.9258
-18.7732 3.7061 -2.3495 0.9258
-20.3528 -0.9525 -2.5017 0.9212
-8.2419 -2.4454 -1.0556 0.9659
-17.5788 -10.3020 -2.5017 0.9212
-10.7774 -17.2914 -2.5017 0.9212
-8.6031 -18.4400 -2.4984 0.9213
-1.5069 -20.3193 -2.5017 0.9212
0.9533 -20.3528 -2.5017 0.9212
3.3997 -20.0895 -2.5017 0.9212
8.1087 -18.6920 -2.5017 0.9212
12.3465 -16.2083 -2.5017 0.9212
14.2102 -14.6018 -2.5017 0.9212
17.2918 -10.7767 -2.5017 0.9212
18.4648 -8.6137 -2.5017 0.9212
19.3685 -6.3252 -2.5017 0.9212
20.3527 0.9542 -2.5017 0.9212
18.8671 3.1937 -2.3495 0.9258
17.5546 7.6162 -2.3495 0.9258
9.6703 5.6684 -1.3763 0.9558
7.5614 5.7604 -1.1671 0.9624
6.2043 6.0385 -1.0630 0.9657
4.5569 5.6570 -0.8919 0.9711
3.5292 5.6633 -0.8193 0.9735
0.4209 5.6824 -0.6996 0.9773
-15.7783 -0.7357 -2.5017 0.9380
-7.1751 -3.1108 -1.2386 0.9688
-13.6290 -7.9841 -2.5017 0.9380
-12.5672 -9.5687 -2.5017 0.9380
-11.3221 -11.0138 -2.5017 0.9380
-4.9067 -15.0139 -2.5017 0.9380
-3.0611 -15.4959 -2.5017 0.9380
-1.1709 -15.7519 -2.5017 0.9380
9.5692 -12.5668 -2.5017 0.9380
13.4037 -8.3567 -2.5017 0.9380
14.3133 -6.6801 -2.5017 0.9380
15.0142 -4.9061 -2.5017 0.9380
15.4961 -3.0605 -2.5017 0.9380
1.8536 5.6736 -0.9454 0.9761
1.1212 5.6781 -0.9167 0.9768
-0.9626 5.6909 -0.9142 0.9769
-1.6842 5.6772 -0.9379 0.9763
-3.2815 5.5998 -1.0280 0.9741
-5.5648 5.7192 -1.2639 0.9682
-5.9807 2.7906 -1.0453 0.9736
-14.1011 4.6064 -2.3495 0.9417
-15.7141 1.1661 -2.4957 0.9382
-15.7781 -0.7384 -2.5017 0.9380
-15.5741 -2.6349 -2.5017 0.9380
-13.6276 -7.9864 -2.5017 0.9380
-6.6782 -14.3142 -2.5017 0.9380
-4.9041 -15.0148 -2.5017 0.9380
-1.1682 -15.7521 -2.5017 0.9380
0.7390 -15.7781 -2.5017 0.9380
2.6355 -15.5740 -2.5017 0.9380
4.4936 -15.1427 -2.5017 0.9380
6.2861 -14.4907 -2.5017 0.9380
9.5714 -12.5651 -2.5017 0.9380
11.0162 -11.3198 -2.5017 0.9380
12.3004 -9.9093 -2.5017 0.9380
13.4052 -8.3544 -2.5017 0.9380
15.7522 -1.1676 -2.5017 0.9380
3.5292 5.6633 -1.0569 0.9733
1.1202 5.6781 -0.9167 0.9768
-12.8564 -0.5994 -2.5017 0.9489
-12.6904 -2.1448 -2.5017 0.9489
-7.1979 -2.1343 -1.4593 0.9699
-10.2400 -7.7968 -2.5017 0.9489
-8.0765 -10.0208 -2.5017 0.9489
-5.4436 -11.6625 -2.5017 0.9489
-3.9981 -12.2336 -2.5017 0.9489
-2.4943 -12.6263 -2.5017 0.9489
0.6000 -12.8564 -2.5017 0.9489
2.1453 -12.6903 -2.5017 0.9489
3.6594 -12.3392 -2.5017 0.9489
5.1200 -11.8081 -2.5017 0.9489
7.7972 -10.2396 -2.5017 0.9489
10.0212 -8.0760 -2.5017 0.9489
11.6627 -5.4431 -2.5017 0.9489
12.2338 -3.9975 -2.5017 0.9489
12.6265 -2.4937 -2.5017 0.9489
12.8350 -0.9535 -2.5017 0.9489
11.9182 2.0153 -2.3495 0.9519
11.5883 3.4372 -2.3495 0.9519
11.0895 4.8090 -2.3495 0.9519
10.4290 6.1107 -2.3495 0.9519
7.5887 5.7791 -1.8541 0.9619
6.2052 6.0372 -1.6829 0.9653
4.5585 5.6570 -1.4122 0.9708
3.5305 5.6633 -1.2972 0.9732
5.1377 11.0097 -2.3616 0.9517
1.8536 5.6736 -1.1602 0.9760
1.1212 5.6781 -1.1250 0.9767
0.4219 5.6824 -1.1076 0.9770
-0.2659 5.6866 -1.1066 0.9771
-0.9626 5.6909 -1.1219 0.9768
-1.6760 5.6496 -1.1455 0.9763
-3.2509 5.5478 -1.2499 0.9741
-4.1746 5.4813 -1.3393 0.9723
-7.1097 5.7287 -1.7748 0.9635
-5.9806 2.7906 -1.2828 0.9735
-11.4899 3.7533 -2.3495 0.9519
-11.8585 2.3410 -2.3495 0.9519
-12.6900 -2.1470 -2.5017 0.9489
-7.1946 -2.1347 -1.4587 0.9699
-6.6967 -2.9048 -1.4189 0.9707
-11.1040 -6.5075 -2.5017 0.9489
-9.2240 -8.9758 -2.5017 0.9489
-8.0747 -10.0222 -2.5017 0.9489
-6.8078 -10.9225 -2.5017 0.9489
-5.4415 -11.6634 -2.5017 0.9489
2.1475 -12.6900 -2.5017 0.9489
3.6615 -12.3385 -2.5017 0.9489
5.1221 -11.8072 -2.5017 0.9489
6.5080 -11.1037 -2.5017 0.9489
7.7990 -10.2383 -2.5017 0.9489
10.0226 -8.0743 -2.5017 0.9489
10.9228 -6.8073 -2.5017 0.9489
11.6637 -5.4410 -2.5017 0.9489
12.6269 -2.4916 -2.5017 0.9489
12.8562 0.6027 -2.5017 0.9489
10.4279 6.1125 -2.3495 0.9519
7.5861 5.7792 -1.8537 0.9619
3.5292 5.6633 -1.2971 0.9732
5.1358 11.0106 -2.3616 0.9517
0.4209 5.6824 -1.1076 0.9770
-10.8064 0.8038 -2.5017 0.9565
-10.6847 -1.8058 -2.5017 0.9565
-6.2308 -2.7014 -1.5679 0.9725
-6.0520 -3.5454 -1.6193 0.9716
-8.6216 -6.5645 -2.5017 0.9565
-5.7334 -9.1952 -2.5017 0.9565
-4.5832 -9.8193 -2.5017 0.9565
-3.3662 -10.3002 -2.5017 0.9565
-0.8033 -10.8064 -2.5017 0.9565
5.4778 -9.3498 -2.5017 0.9565
6.5649 -8.6213 -2.5017 0.9565
7.5563 -7.7671 -2.5017 0.9565
9.8195 -4.5828 -2.5017 0.9565
10.3003 -3.3657 -2.5017 0.9565
10.8245 0.5056 -2.5017 0.9565
10.0346 1.6968 -2.3495 0.9591
7.5887 5.7791 -2.2022 0.9616
4.3136 9.2438 -2.3550 0.9590
1.1212 5.6781 -1.3362 0.9765
0.4219 5.6824 -1.3155 0.9769
-0.2659 5.6866 -1.3143 0.9769
-1.6709 5.6324 -1.3564 0.9762
-4.1290 5.4215 -1.5733 0.9724
-8.6365 5.3835 -2.3495 0.9591
-9.6739 3.1601 -2.3495 0.9591
-9.9843 1.9710 -2.3495 0.9591
-10.6844 -1.8076 -2.5017 0.9565
-6.9218 -2.0537 -1.6669 0.9708
-6.0518 -3.5466 -1.6194 0.9716
-8.6205 -6.5660 -2.5017 0.9565
-4.5815 -9.8201 -2.5017 0.9565
-2.0982 -10.6312 -2.5017 0.9565
-0.8015 -10.8066 -2.5017 0.9565
0.5070 -10.8244 -2.5017 0.9565
6.5664 -8.6202 -2.5017 0.9565
8.4385 -6.7982 -2.5017 0.9565
9.1965 -5.7315 -2.5017 0.9565
10.6313 -2.0978 -2.5017 0.9565
10.8066 -0.8010 -2.5017 0.9565
10.8244 0.5075 -2.5017 0.9565
10.0343 1.6985 -2.3495 0.9591
9.7564 2.8957 -2.3495 0.9591
8.7798 5.1464 -2.3495 0.9591
7.5861 5.7792 -2.2017 0.9616
4.5569 5.6570 -1.6770 0.9706
3.5292 5.6633 -1.5406 0.9730
1.8526 5.6736 -1.3779 0.9758
1.1202 5.6781 -1.3362 0.9765
0.4209 5.6824 -1.3155 0.9769
-6.8361 -2.0270 -1.9106 0.9709
-7.4285 -5.6561 -2.5017 0.9621
-6.6925 -6.5102 -2.5017 0.9621
-3.9490 -8.4604 -2.5017 0.9621
-1.8094 -9.1596 -2.5017 0.9621
0.4352 -9.3265 -2.5017 0.9621
1.5563 -9.2060 -2.5017 0.9621
2.6546 -8.9513 -2.5017 0.9621
6.5105 -6.6922 -2.5017 0.9621
8.8749 -2.9000 -2.5017 0.9621
9.3265 0.4357 -2.5017 0.9621
8.4066 2.4935 -2.3495 0.9643
8.0448 3.4887 -2.3495 0.9643
6.9761 5.3126 -2.3495 0.9643
1.1212 5.6781 -1.5508 0.9763
0.4219 5.6824 -1.5268 0.9767
-0.9626 5.6909 -1.5465 0.9764
-1.6709 5.6324 -1.5742 0.9760
-2.3869 5.5035 -1.6074 0.9755
-4.0448 5.3109 -1.7888 0.9727
-4.8921 5.0278 -1.8797 0.9714
-7.4413 4.6385 -2.3495 0.9643
-8.6026 1.6983 -2.3495 0.9643
-5.7821 -2.5080 -1.6888 0.9742
-6.6914 -6.5114 -2.5017 0.9621
-3.9475 -8.4611 -2.5017 0.9621
-1.8079 -9.1599 -2.5017 0.9621
0.4368 -9.3264 -2.5017 0.9621
1.5579 -9.2058 -2.5017 0.9621
2.6562 -8.9508 -2.5017 0.9621
3.7157 -8.5654 -2.5017 0.9621
4.7211 -8.0550 -2.5017 0.9621
5.6576 -7.4272 -2.5017 0.9621
7.9238 -4.9383 -2.5017 0.9621
8.4613 -3.9471 -2.5017 0.9621
9.1600 -1.8075 -2.5017 0.9621
9.3111 -0.6901 -2.5017 0.9621
9.3264 0.4372 -2.5017 0.9621
8.4062 2.4949 -2.3495 0.9643
7.5648 4.4342 -2.3495 0.9643
6.2036 6.0377 -2.3196 0.9648
4.5569 5.6570 -1.9464 0.9704
3.5292 5.6633 -1.7880 0.9727
1.1202 5.6781 -1.5508 0.9763
0.4209 5.6824 -1.5268 0.9767
