ply
format ascii 1.0
element vertex 1551
property float32 x
property float32 y
property float32 z
property float32 I
end_header
-8.1938 5.7353 0.1746 0.9608
-10.7488 5.7340 0.2126 0.9524
-14.9196 5.7767 0.2793 0.9380
-22.9039 5.8183 0.4125 0.9098
-72.3129 -37.1972 1.4194 0.7223
-30.7954 -34.1514 0.8027 0.8320
-13.3298 -34.1807 0.6404 0.8635
-10.1549 -39.5726 0.7131 0.8492
21.2905 -57.9612 1.0778 0.7811
25.4788 -37.7821 0.7954 0.8333
38.6401 -27.3270 0.8261 0.8275
41.2197 -22.2468 0.8176 0.8291
82.6966 -21.4353 1.4912 0.7105
23.7681 5.5389 0.4260 0.9070
45.9979 16.7695 0.8546 0.8221
5.1478 5.6533 0.1335 0.9699
3.0758 5.6661 0.1125 0.9745
1.4859 5.6758 0.1024 0.9768
0.7739 5.6802 0.1001 0.9773
-0.6046 5.6887 0.0999 0.9774
-1.3092 5.6804 0.1018 0.9769
-3.7778 5.6612 0.1188 0.9731
-19.8068 23.0858 0.5310 0.8854
-6.2549 5.7234 0.1480 0.9667
-10.4986 5.7322 0.2088 0.9533
-14.4933 5.7740 0.2723 0.9395
-70.8573 -35.5828 1.3840 0.7282
-26.4924 -36.8873 0.7927 0.8339
-19.3940 -35.3163 0.7033 0.8511
-13.7127 -34.1784 0.6428 0.8630
21.3308 -59.8604 1.1092 0.7755
16.1066 -32.2689 0.6295 0.8656
25.5411 -30.0635 0.6886 0.8540
29.5146 -27.2709 0.7014 0.8515
40.7000 -22.4793 0.8116 0.8303
68.2698 -27.5829 1.2852 0.7449
81.7329 -22.0345 1.4776 0.7127
24.8282 5.5324 0.4440 0.9032
25.8080 9.1260 0.4778 0.8963
34.7029 17.2164 0.6762 0.8564
26.6697 22.5467 0.6096 0.8696
5.2485 5.6527 0.1346 0.9696
4.1066 5.6597 0.1221 0.9724
3.1472 5.6656 0.1131 0.9744
0.8301 5.6799 0.1002 0.9773
0.1391 5.6841 0.0992 0.9775
-0.5488 5.6883 0.0998 0.9774
-1.2519 5.6831 0.1016 0.9770
-1.9906 5.6730 0.1049 0.9762
-2.7999 5.6783 0.1105 0.9750
-3.6985 5.6606 0.1180 0.9733
-4.7688 5.6687 0.1293 0.9708
-6.1335 5.7227 0.1464 0.9670
-7.8614 5.7333 0.1698 0.9618
-10.2574 5.7305 0.2051 0.9541
-71.3942 -34.9885 1.3878 0.7275
-32.0225 -34.1547 0.8172 0.8292
-14.0984 -34.1760 0.6453 0.8625
-10.0410 -66.4504 1.1731 0.7643
22.2517 -45.6850 0.8870 0.8160
28.9419 -27.2674 0.6941 0.8529
37.0579 -27.3027 0.8034 0.8318
39.7628 -22.4682 0.7972 0.8330
81.7277 -22.8865 1.4814 0.7121
35.5552 17.2112 0.6895 0.8538
5.3510 5.6521 0.1359 0.9693
4.1907 5.6592 0.1229 0.9722
3.2193 5.6652 0.1137 0.9743
2.3715 5.6704 0.1073 0.9757
0.1943 5.6838 0.0993 0.9775
-1.1947 5.6858 0.1014 0.9770
-6.0146 5.7219 0.1449 0.9673
-7.7019 5.7323 0.1676 0.9623
-10.0246 5.7288 0.2015 0.9549
-20.3666 5.8101 0.3697 0.9188
-58.9820 -28.1987 1.1411 0.7699
-32.6518 -34.1553 0.8248 0.8278
-19.8588 -34.5548 0.6957 0.8526
-14.4874 -34.1736 0.6479 0.8620
-10.7012 -66.4463 1.1748 0.7640
30.2600 -90.4345 1.6646 0.6828
26.6685 -42.1442 0.8705 0.8191
25.4955 -31.2187 0.7036 0.8511
28.3811 -27.2639 0.6869 0.8543
52.3534 10.6030 0.9324 0.8076
25.8013 8.5637 0.4745 0.8969
4.2760 5.6587 0.1238 0.9720
3.2922 5.6647 0.1144 0.9741
1.6637 5.6747 0.1032 0.9766
0.9430 5.6792 0.1005 0.9772
-1.1377 5.6884 0.1013 0.9771
-2.6637 5.6774 0.1095 0.9752
-7.5465 5.7314 0.1654 0.9628
-9.7997 5.7272 0.1981 0.9556
-35.0093 5.9001 0.6197 0.8676
-33.2977 -34.1607 0.8327 0.8263
-26.3494 -34.5202 0.7580 0.8405
-20.3060 -34.5521 0.6995 0.8519
-12.4635 -41.7609 0.7607 0.8400
-11.3635 -66.4423 1.1766 0.7636
28.0705 -86.6785 1.5903 0.6945
21.4148 -46.2258 0.8892 0.8156
26.0957 -42.1388 0.8652 0.8201
27.8315 -27.2605 0.6800 0.8557
35.5934 -27.3058 0.7830 0.8357
62.8516 -27.5496 1.1978 0.7599
55.0128 10.5867 0.9779 0.7992
25.7980 8.2854 0.4730 0.8973
5.5251 5.6135 0.1375 0.9690
4.3625 5.6582 0.1247 0.9718
3.3659 5.6643 0.1150 0.9740
2.5015 5.6696 0.1082 0.9755
0.9996 5.6788 0.1006 0.9772
0.3049 5.6831 0.0993 0.9775
-1.0734 5.6520 0.1004 0.9772
-2.5966 5.6770 0.1090 0.9753
-3.4665 5.6589 0.1158 0.9738
-9.5822 5.7257 0.1948 0.9563
-12.9079 5.7327 0.2465 0.9451
-18.9340 5.8013 0.3457 0.9238
-89.1111 4.9981 1.5579 0.6997
-71.8818 -32.6667 1.3782 0.7292
-33.9847 -34.1948 0.8415 0.8246
-26.8814 -34.5169 0.7636 0.8394
-20.7614 -34.5544 0.7036 0.8511
27.2930 -27.2572 0.6733 0.8570
34.8845 -27.3039 0.7732 0.8376
61.3185 -27.5902 1.1737 0.7641
81.8985 4.9002 1.4321 0.7202
57.9591 10.5710 1.0284 0.7900
27.9253 16.8282 0.5691 0.8777
26.2270 20.4805 0.5808 0.8754
4.4504 5.6576 0.1256 0.9716
2.5674 5.6692 0.1086 0.9754
1.7838 5.6740 0.1038 0.9765
1.0565 5.6785 0.1008 0.9772
0.3602 5.6828 0.0994 0.9775
-0.3264 5.6870 0.0994 0.9775
-10.9906 61.0981 1.0836 0.7801
-2.5300 5.6766 0.1085 0.9754
-4.4024 5.6659 0.1252 0.9717
-5.6720 5.7198 0.1406 0.9683
-7.2475 5.7295 0.1613 0.9637
-12.5752 5.7318 0.2412 0.9462
-89.2129 -15.8244 1.5815 0.6960
-65.8525 -20.0963 1.2018 0.7592
-73.0114 -32.3283 1.3937 0.7266
-68.6698 -67.7658 1.6840 0.6798
-10.9555 -57.3333 1.0189 0.7917
25.0160 -82.6912 1.5080 0.7078
21.4000 -48.6487 0.9277 0.8085
24.9707 -42.1284 0.8548 0.8221
25.5220 -33.1783 0.7306 0.8458
34.1898 -27.2996 0.7637 0.8394
44.2526 -27.3247 0.9078 0.8122
59.7397 -27.5805 1.1485 0.7686
51.7594 2.5930 0.9046 0.8128
39.3324 17.1880 0.7492 0.8422
28.5423 16.8244 0.5783 0.8759
3.5160 5.6634 0.1164 0.9737
2.6338 5.6688 0.1091 0.9753
1.8444 5.6736 0.1041 0.9764
1.1136 5.6781 0.1010 0.9771
0.4157 5.6824 0.0995 0.9775
-1.6856 5.6710 0.1033 0.9766
-2.4640 5.6761 0.1080 0.9755
-5.5622 5.7192 0.1393 0.9686
-9.1791 5.7295 0.1889 0.9576
-12.2526 5.7291 0.2361 0.9473
-65.8840 -19.4089 1.1989 0.7597
-29.5302 -36.4360 0.8186 0.8289
-24.0414 -38.3084 0.7894 0.8345
-12.4383 -37.6394 0.6919 0.8533
26.3968 -90.4139 1.6441 0.6860
33.5119 -27.2954 0.7544 0.8412
45.1695 -21.3881 0.8723 0.8188
83.2124 -27.7223 1.5310 0.7041
19.1864 5.5510 0.3486 0.9232
40.3819 17.1815 0.7660 0.8390
29.1798 16.8205 0.5879 0.8739
26.2220 19.6691 0.5722 0.8771
6.4039 6.1381 0.1548 0.9651
3.5923 5.6629 0.1171 0.9735
2.7009 5.6684 0.1096 0.9752
1.1709 5.6778 0.1012 0.9771
-0.2157 5.6863 0.0993 0.9775
-0.9033 5.6493 0.0999 0.9774
-1.6257 5.6706 0.1030 0.9767
-2.3986 5.6757 0.1076 0.9757
-4.2275 5.6646 0.1234 0.9721
-5.4545 5.7185 0.1379 0.9689
-6.9630 5.7278 0.1574 0.9646
-17.1022 5.7901 0.3152 0.9303
-65.7428 -18.6754 1.1929 0.7608
-30.1182 -36.4324 0.8251 0.8277
-24.5608 -38.3052 0.7943 0.8336
-9.2244 -19.1199 0.3706 0.9186
-64.2375 -16.6235 -1.1582 0.7669
-81.8857 -32.1256 -1.5354 0.7033
-70.2371 -49.6312 -1.5012 0.7089
-14.9868 -22.2048 -0.4676 0.8984
-12.0556 -23.5540 -0.4619 0.8996
-13.4284 -36.5126 -0.6791 0.8559
-7.2342 -30.6510 -0.5497 0.8816
20.8330 -53.4834 -1.0019 0.7948
31.3087 -27.2819 -0.7249 0.8469
40.2918 -27.3371 -0.8499 0.8230
89.5972 -21.3763 -1.6078 0.6918
44.3642 17.1570 -0.8303 0.8267
32.3314 17.2310 -0.6395 0.8637
26.1435 18.2840 -0.5569 0.8802
6.5762 5.8964 -0.1542 0.9653
4.9515 5.6545 -0.1312 0.9704
3.8611 5.6612 -0.1196 0.9730
2.1173 5.6720 -0.1057 0.9761
1.3689 5.6766 -0.1019 0.9769
0.6619 5.6809 -0.0998 0.9774
-0.0265 5.6851 -0.0992 0.9775
-0.7166 5.6894 -0.1001 0.9773
-2.1731 5.6600 -0.1058 0.9760
-8.3671 5.7364 -0.1771 0.9602
-10.9403 5.7005 -0.2153 0.9518
-89.1580 10.6073 -1.5672 0.6982
-30.2904 -0.0675 -0.5287 0.8859
-81.7785 -31.1708 -1.5276 0.7046
-66.0328 -45.7056 -1.4018 0.7252
-15.2513 -22.1302 -0.4691 0.8981
-9.4153 -24.8532 -0.4639 0.8991
-7.3373 -29.7910 -0.5355 0.8845
17.6381 -46.6145 -0.8700 0.8192
21.8880 -41.8001 -0.8236 0.8280
42.8955 -22.6161 -0.8464 0.8237
73.8254 -28.1728 -1.3793 0.7290
88.5353 -22.0337 -1.5925 0.6942
68.1395 -0.1789 -1.1894 0.7614
43.4238 5.1487 -0.7633 0.8395
22.7905 5.5449 -0.4094 0.9104
26.1411 17.9069 -0.5531 0.8809
5.0488 5.6539 -0.1323 0.9701
2.1801 5.6716 -0.1061 0.9760
0.0287 5.6848 -0.0992 0.9775
-2.9311 5.6643 -0.1113 0.9748
-3.8362 5.6296 -0.1189 0.9731
-4.9966 5.7106 -0.1324 0.9701
-6.3791 5.7242 -0.1496 0.9663
-8.1938 5.7353 -0.1746 0.9608
-10.6951 5.7054 -0.2116 0.9527
-14.9196 5.7767 -0.2793 0.9380
-22.6835 5.7623 -0.4085 0.9106
-63.3547 8.1620 -1.1150 0.7745
-95.9676 0.7179 -1.6752 0.6812
-66.2906 -34.0994 -1.3012 0.7421
-70.0907 -47.5145 -1.4780 0.7127
-20.7155 -22.9731 -0.5399 0.8836
-7.3996 -28.8355 -0.5196 0.8877
21.4850 -42.0182 -0.8238 0.8280
30.0996 -27.2745 -0.7090 0.8500
38.6401 -27.3270 -0.8261 0.8275
88.5297 -22.9473 -1.5964 0.6936
40.9687 4.4547 -0.7193 0.8480
23.7681 5.5389 -0.4260 0.9070
26.1388 17.5349 -0.5494 0.8817
6.6762 5.7562 -0.1539 0.9653
5.1478 5.6533 -0.1335 0.9699
3.0758 5.6661 -0.1125 0.9745
2.2434 5.6712 -0.1065 0.9759
1.4859 5.6758 -0.1024 0.9768
0.7739 5.6802 -0.1001 0.9773
-0.6046 5.6887 -0.0999 0.9774
-1.3092 5.6804 -0.1018 0.9769
-2.0477 5.6593 -0.1051 0.9762
-3.7565 5.6292 -0.1181 0.9733
-8.0253 5.7343 -0.1722 0.9613
-14.4933 5.7740 -0.2723 0.9395
-21.7977 5.7632 -0.3936 0.9137
-63.6038 1.0934 -1.1104 0.7753
-70.6433 -7.3346 -1.2397 0.7527
-56.2257 -12.8153 -1.0066 0.7940
-81.8815 -29.4023 -1.5186 0.7061
-21.2169 -23.0746 -0.5471 0.8821
-15.9292 -22.1796 -0.4766 0.8965
-9.8938 -24.6600 -0.4638 0.8992
-6.7195 -47.5924 -0.8390 0.8251
25.4887 -38.5999 -0.8074 0.8311
37.8483 -27.3221 -0.8148 0.8297
68.8168 -27.8039 -1.2955 0.7431
88.5241 -23.8654 -1.6004 0.6930
34.7029 17.2164 -0.6762 0.8564
26.1366 17.1678 -0.5458 0.8824
26.6697 22.5467 -0.6096 0.8696
2.3072 5.6708 -0.1069 0.9758
1.5448 5.6755 -0.1027 0.9767
-0.5488 5.6883 -0.0998 0.9774
-1.9856 5.6590 -0.1047 0.9763
-6.1335 5.7227 -0.1464 0.9670
-14.0877 5.7716 -0.2657 0.9409
-63.3470 9.4149 -1.1179 0.7740
-77.8311 -7.3177 -1.3645 0.7314
-55.8224 -12.1545 -0.9972 0.7957
-81.8679 -28.5029 -1.5131 0.7069
-16.4092 -22.3858 -0.4845 0.8949
-12.9924 -23.1242 -0.4630 0.8993
-10.1199 -24.5317 -0.4632 0.8993
-7.7729 -28.0186 -0.5075 0.8902
-6.6579 -44.0615 -0.7778 0.8367
31.2428 -90.4437 -1.6702 0.6819
20.8306 -42.7674 -0.8303 0.8267
37.0778 -27.3174 -0.8039 0.8317
51.4286 -29.0600 -1.0311 0.7895
66.5001 -27.6221 -1.2569 0.7497
51.2240 10.8930 -0.9141 0.8110
48.5269 16.6314 -0.8954 0.8145
35.5552 17.2112 -0.6895 0.8538
26.1343 16.8054 -0.5424 0.8831
26.1644 21.6874 -0.5932 0.8729
5.3510 5.6521 -0.1359 0.9693
4.1907 5.6592 -0.1229 0.9722
3.2193 5.6652 -0.1137 0.9743
0.8864 5.6795 -0.1003 0.9773
-0.4930 5.6880 -0.0997 0.9774
-1.9240 5.6586 -0.1043 0.9764
-4.6464 5.6334 -0.1275 0.9712
-6.0146 5.7219 -0.1449 0.9673
-7.7019 5.7323 -0.1676 0.9623
-9.9771 5.7017 -0.2006 0.9551
-20.3666 5.8101 -0.3697 0.9188
-32.4555 5.1462 -0.5736 0.8768
-56.7529 -11.7812 -1.0117 0.7930
-69.5969 -44.2773 -1.4398 0.7189
-13.2375 -23.0337 -0.4637 0.8992
-10.3906 -24.5099 -0.4647 0.8990
-7.9229 -27.5192 -0.4999 0.8918
-6.6908 -41.5446 -0.7345 0.8451
30.2611 -90.4377 -1.6646 0.6828
20.7635 -43.7024 -0.8445 0.8240
26.5323 -41.9289 -0.8661 0.8200
25.4955 -31.2187 -0.7036 0.8511
36.3276 -27.3127 -0.7933 0.8337
47.3767 -27.3807 -0.9551 0.8034
50.0794 16.6218 -0.9210 0.8097
26.1618 21.2601 -0.5884 0.8738
5.4554 5.6514 -0.1371 0.9691
2.4362 5.6700 -0.1077 0.9756
1.6637 5.6747 -0.1032 0.9766
0.9430 5.6792 -0.1005 0.9772
-1.1377 5.6884 -0.1013 0.9771
-2.6568 5.6628 -0.1092 0.9753
-3.5284 5.6362 -0.1161 0.9737
-4.5549 5.6329 -0.1264 0.9714
-63.5924 2.9476 -1.1112 0.7752
-81.8215 -16.1580 -1.4558 0.7163
-56.2336 -26.2172 -1.0825 0.7802
-69.2051 -43.0901 -1.4230 0.7217
-13.4468 -22.8807 -0.4632 0.8993
-10.6221 -24.3942 -0.4644 0.8990
-8.0220 -26.8789 -0.4896 0.8938
-6.7907 -39.7049 -0.7031 0.8512
17.7740 -91.1675 -1.6213 0.6896
16.8108 -36.2875 -0.6981 0.8521
25.5299 -31.8878 -0.7130 0.8492
27.8315 -27.2605 -0.6800 0.8557
35.5967 -27.3083 -0.7831 0.8357
88.7087 6.1727 -1.5522 0.7006
55.2225 10.6270 -0.9816 0.7985
34.2941 15.7862 -0.6590 0.8598
27.2153 16.7626 -0.5579 0.8800
26.1592 20.8395 -0.5838 0.8748
5.5251 5.6135 -0.1375 0.9690
4.3625 5.6582 -0.1247 0.9718
3.3659 5.6643 -0.1150 0.9740
2.5015 5.6696 -0.1082 0.9755
1.7235 5.6744 -0.1035 0.9766
-1.0734 5.6520 -0.1004 0.9772
-1.8020 5.6579 -0.1036 0.9765
-3.4548 5.6398 -0.1154 0.9739
-4.4648 5.6325 -0.1255 0.9717
-5.7839 5.7205 -0.1420 0.9680
-7.3951 5.7304 -0.1633 0.9633
-12.9079 5.7327 -0.2465 0.9451
-32.9778 5.8876 -0.5847 0.8746
-63.5886 3.5666 -1.1117 0.7751
-66.3772 -20.9631 -1.2150 0.7569
-17.6137 -22.6168 -0.5004 0.8916
-20.7614 -34.5544 -0.7036 0.8511
28.3168 -90.4257 -1.6540 0.6845
25.3993 -41.9184 -0.8555 0.8219
27.2930 -27.2572 -0.6733 0.8570
34.8845 -27.3039 -0.7732 0.8376
45.3009 -27.3679 -0.9238 0.8092
61.3186 -27.5902 -1.1737 0.7641
59.8243 10.9112 -1.0615 0.7841
35.0961 15.7444 -0.6714 0.8574
26.1567 20.4256 -0.5793 0.8757
4.4504 5.6576 -0.1256 0.9716
2.5674 5.6692 -0.1086 0.9754
1.0565 5.6785 -0.1008 0.9772
-0.3264 5.6870 -0.0994 0.9775
-11.1166 61.7989 -1.0960 0.7779
-1.7423 5.6601 -0.1034 0.9766
-2.5235 5.6621 -0.1082 0.9755
-4.3761 5.6321 -0.1245 0.9719
-9.3662 5.7208 -0.1916 0.9570
-12.4315 5.6663 -0.2385 0.9468
-18.2854 5.7973 -0.3348 0.9261
-31.1639 5.8765 -0.5536 0.8808
-66.2201 -20.2085 -1.2085 0.7581
-17.7899 -22.3913 -0.4992 0.8919
-8.2914 -25.9332 -0.4752 0.8968
-6.6735 -34.9245 -0.6206 0.8674
17.2763 -57.1073 -1.0414 0.7877
16.9618 -38.5595 -0.7353 0.8449
24.8432 -41.9132 -0.8505 0.8229
25.5220 -33.1783 -0.7306 0.8458
26.7648 -27.2540 -0.6668 0.8583
34.1898 -27.2996 -0.7637 0.8394
51.7493 2.5925 -0.9044 0.8128
18.2251 5.4653 -0.3321 0.9267
35.9195 15.6966 -0.6842 0.8549
6.3533 6.2090 -0.1551 0.9651
4.5396 5.6571 -0.1266 0.9714
1.8444 5.6736 -0.1041 0.9764
1.1136 5.6781 -0.1010 0.9771
0.4157 5.6824 -0.0995 0.9775
-0.2710 5.6866 -0.0994 0.9775
-10.4975 61.7951 -1.0941 0.7782
-2.4578 5.6617 -0.1077 0.9756
-4.2888 5.6317 -0.1236 0.9721
-5.5622 5.7192 -0.1393 0.9686
-7.1035 5.7286 -0.1593 0.9642
-9.1791 5.7295 -0.1889 0.9576
-12.1156 5.6650 -0.2335 0.9479
-17.6759 5.7936 -0.3247 0.9283
-81.7251 -13.6790 -1.4464 0.7178
-66.2492 -19.5165 -1.2055 0.7586
-26.4421 -25.5919 -0.6423 0.8631
-18.3933 -22.6947 -0.5099 0.8897
-14.0230 -22.3448 -0.4605 0.8998
-11.2316 -23.8696 -0.4605 0.8998
-6.7371 -33.4900 -0.5963 0.8723
25.1467 -33.3558 -0.7291 0.8461
33.5119 -27.2954 -0.7544 0.8412
28.8467 -18.2011 -0.5954 0.8724
36.7745 15.6467 -0.6976 0.8522
6.4039 6.1381 -0.1548 0.9651
4.6301 5.6565 -0.1276 0.9712
3.5923 5.6629 -0.1171 0.9735
0.4711 5.6821 -0.0995 0.9774
-0.2157 5.6863 -0.0993 0.9775
-1.6243 5.6656 -0.1029 0.9767
-2.3926 5.6613 -0.1073 0.9757
-3.2387 5.6501 -0.1137 0.9743
-8.9478 5.7067 -0.1852 0.9584
-66.1613 -18.7943 -1.2005 0.7595
-68.0608 -38.7943 -1.3674 0.7309
-27.7278 -26.3197 -0.6673 0.8582
-18.6980 -22.6181 -0.5122 0.8892
-14.3539 -22.3865 -0.4642 0.8991
-43.8215 -11.3402 -2.3722 0.8342
-44.4344 -17.4326 -2.5015 0.8260
-38.9816 -27.5454 -2.5015 0.8260
-33.2303 -30.0874 -2.3493 0.8356
-19.7333 -22.7572 -1.5786 0.8863
-11.9769 -23.4003 -1.3777 0.9001
-9.1417 -24.8568 -1.3880 0.8993
16.2706 -41.7705 -2.3493 0.8356
21.1795 -39.5087 -2.3493 0.8356
25.3990 -36.1299 -2.3145 0.8379
37.0953 -25.1683 -2.3493 0.8356
32.6205 -16.7961 -1.9229 0.8633
46.4286 -11.0770 -2.5015 0.8260
47.4242 -5.4088 -2.5015 0.8260
47.7305 0.3381 -2.5015 0.8260
20.4937 10.9221 -1.2170 0.9112
20.5585 14.3780 -1.3148 0.9044
3.8611 5.6612 -0.3591 0.9729
17.5308 33.8455 -1.9976 0.8584
-0.0265 5.6851 -0.2979 0.9775
-0.7166 5.6894 -0.3005 0.9773
-1.4246 5.6750 -0.3066 0.9768
-2.1677 5.6459 -0.3169 0.9761
-3.8980 5.6026 -0.3577 0.9730
-10.8900 5.6742 -0.6435 0.9520
-35.8632 4.2667 -1.8928 0.8653
-30.3187 -0.0676 -1.5889 0.8856
-43.5050 -10.8087 -2.3493 0.8356
-44.6016 -17.0004 -2.5015 0.8260
-42.2314 -22.2447 -2.5015 0.8260
-39.2472 -27.1656 -2.5015 0.8260
-33.5209 -29.7634 -2.3493 0.8356
-20.0399 -22.6625 -1.5854 0.8859
-15.1305 -21.9550 -1.3974 0.8987
-12.2470 -23.3658 -1.3826 0.8997
-9.3195 -24.6004 -1.3787 0.9000
-5.4039 -44.5006 -2.3493 0.8356
-0.0095 -47.7317 -2.5015 0.8260
15.8643 -41.9265 -2.3493 0.8356
20.7949 -39.7125 -2.3493 0.8356
25.6523 -29.0325 -2.0304 0.8563
30.5786 -27.1726 -2.1439 0.8489
36.8492 -25.5273 -2.3493 0.8356
39.6536 -20.9069 -2.3493 0.8356
39.5939 -15.1096 -2.2210 0.8439
22.7905 5.5449 -1.2292 0.9103
5.0488 5.6539 -0.3973 0.9701
2.9954 5.6481 -0.3351 0.9747
2.1801 5.6716 -0.3184 0.9760
0.7178 5.6806 -0.3001 0.9773
-1.3668 5.6777 -0.3061 0.9769
-2.9234 5.6495 -0.3334 0.9748
-4.9966 5.7106 -0.3977 0.9701
-8.1938 5.7353 -0.5242 0.9607
-14.9196 5.7767 -0.8385 0.9379
-32.9814 4.2490 -1.7428 0.8753
-45.0658 0.3371 -2.3619 0.8348
-43.6078 -10.3858 -2.3493 0.8356
-42.4454 -21.8336 -2.5015 0.8260
-15.3511 -21.8186 -1.3981 0.8987
-12.4011 -23.1113 -1.3746 0.9003
-7.4142 -28.8921 -1.5632 0.8874
-5.8357 -44.4461 -2.3493 0.8356
5.2748 -47.4393 -2.5015 0.8260
10.9459 -46.4597 -2.5015 0.8260
36.5996 -25.8839 -2.3493 0.8356
39.4487 -21.2909 -2.3493 0.8356
46.2047 -11.9765 -2.5015 0.8260
47.7281 -0.5887 -2.5015 0.8260
40.9486 4.4525 -2.1587 0.8479
20.3478 7.4182 -1.1350 0.9169
20.5468 13.7835 -1.2967 0.9056
6.6762 5.7562 -0.4620 0.9653
3.0758 5.6661 -0.3379 0.9745
0.7739 5.6802 -0.3004 0.9773
-1.3092 5.6804 -0.3055 0.9769
-4.8041 5.5994 -0.3867 0.9709
-8.0253 5.7343 -0.5169 0.9613
-14.4933 5.7740 -0.8176 0.9394
-45.0834 0.7750 -2.3631 0.8348
-44.9233 -16.1312 -2.5015 0.8260
-39.7673 -26.3984 -2.5015 0.8260
-15.8543 -22.0751 -1.4244 0.8969
-12.6258 -22.9915 -1.3747 0.9003
-4.0485 -28.6748 -1.5177 0.8905
-0.9362 -47.7225 -2.5015 0.8260
4.8140 -47.4883 -2.5015 0.8260
10.4943 -46.5638 -2.5015 0.8260
15.3528 -43.0845 -2.3970 0.8326
16.0468 -32.1491 -1.8831 0.8660
25.4370 -29.9409 -2.0590 0.8544
28.5034 -26.3366 -2.0338 0.8560
39.2402 -21.6730 -2.3493 0.8356
39.0773 -15.7883 -2.2088 0.8447
44.6098 4.4128 -2.3493 0.8356
20.5411 13.4924 -1.2880 0.9063
26.1671 22.1218 -1.7957 0.8718
5.2485 5.6527 -0.4043 0.9696
4.1066 5.6597 -0.3665 0.9724
3.1472 5.6656 -0.3397 0.9744
1.5448 5.6755 -0.3083 0.9767
-0.5488 5.6883 -0.2995 0.9774
-1.2519 5.6831 -0.3050 0.9770
-1.9821 5.6488 -0.3137 0.9763
-3.6680 5.6139 -0.3514 0.9735
-7.8614 5.7333 -0.5099 0.9618
-10.1723 5.6829 -0.6107 0.9544
-14.0877 5.7716 -0.7979 0.9408
-31.0164 4.6098 -1.6434 0.8820
-45.0965 1.2133 -2.3643 0.8347
-43.8013 -9.5371 -2.3493 0.8356
-45.0778 -15.6942 -2.5015 0.8260
-42.8613 -21.0052 -2.5015 0.8260
-40.0217 -26.0111 -2.5015 0.8260
-21.5155 -22.9481 -1.6486 0.8816
-16.2135 -22.1188 -1.4373 0.8960
-12.9116 -22.9803 -1.3814 0.8998
-1.3996 -47.7112 -2.5015 0.8260
4.3527 -47.5328 -2.5015 0.8260
10.0417 -46.6634 -2.5015 0.8260
24.3371 -37.6459 -2.3493 0.8356
25.4334 -30.5325 -2.0826 0.8529
36.3502 -15.0988 -2.0628 0.8541
47.1785 -7.2460 -2.5015 0.8260
20.3404 6.9712 -1.1269 0.9175
20.5356 13.2052 -1.2795 0.9068
25.8629 21.4374 -1.7605 0.8741
5.3510 5.6521 -0.4079 0.9693
4.1907 5.6592 -0.3691 0.9722
3.2193 5.6652 -0.3415 0.9742
2.3715 5.6704 -0.3221 0.9757
1.6041 5.6751 -0.3091 0.9767
-0.4930 5.6880 -0.2992 0.9774
-1.9216 5.6516 -0.3128 0.9764
-2.7174 5.6485 -0.3285 0.9752
-6.0146 5.7219 -0.4351 0.9673
-9.9616 5.6928 -0.6013 0.9551
-31.0145 4.9177 -1.6457 0.8818
-45.1053 1.6520 -2.3655 0.8346
-44.6851 -3.7641 -2.3501 0.8356
-45.2280 -15.2558 -2.5015 0.8260
-43.0633 -20.5881 -2.5015 0.8260
-22.4042 -23.4358 -1.6992 0.8782
-13.5376 -18.0971 -1.1844 0.9135
-13.1049 -22.8029 -1.3783 0.9000
-10.2954 -24.2854 -1.3824 0.8997
-7.8267 -27.1852 -1.4826 0.8929
15.1200 -45.1872 -2.4972 0.8262
23.9705 -37.8804 -2.3493 0.8356
28.2712 -27.1584 -2.0545 0.8547
35.8303 -26.9388 -2.3493 0.8356
47.1059 -7.7037 -2.5015 0.8260
47.6907 -1.9785 -2.5015 0.8260
44.6871 3.5458 -2.3493 0.8356
44.0149 8.9142 -2.3536 0.8354
20.3368 6.7500 -1.1230 0.9178
20.4724 9.6659 -1.1865 0.9133
20.6516 12.9982 -1.2788 0.9069
3.2922 5.6647 -0.3434 0.9741
2.4362 5.6700 -0.3234 0.9756
0.2496 5.6834 -0.2981 0.9775
-0.4374 5.6877 -0.2990 0.9774
-1.8615 5.6545 -0.3120 0.9764
-4.5274 5.5990 -0.3774 0.9716
-7.5465 5.7314 -0.4966 0.9628
-19.6263 5.8056 -1.0726 0.9213
-31.1974 5.2577 -1.6580 0.8810
-40.5192 -25.2291 -2.5015 0.8260
-16.9528 -22.2098 -1.4643 0.8941
-13.2887 -22.6118 -1.3745 0.9003
-10.4987 -24.1110 -1.3782 0.9000
-7.9659 -26.6910 -1.4598 0.8944
-6.4706 -37.8333 -2.0115 0.8575
3.4290 -47.6084 -2.5015 0.8260
14.7058 -45.4098 -2.5015 0.8260
23.6015 -38.1113 -2.3493 0.8356
27.7858 -27.2158 -2.0383 0.8557
35.4589 -27.2025 -2.3422 0.8361
38.5923 -22.8067 -2.3493 0.8356
47.0289 -8.1607 -2.5015 0.8260
47.6692 -2.4414 -2.5015 0.8260
44.7194 3.1118 -2.3493 0.8356
44.0692 8.4807 -2.3519 0.8355
20.7895 9.5698 -1.1994 0.9124
21.0990 12.9954 -1.2987 0.9055
3.3659 5.6643 -0.3453 0.9740
1.7235 5.6744 -0.3108 0.9765
0.9996 5.6788 -0.3022 0.9772
-0.3819 5.6873 -0.2987 0.9774
-1.8018 5.6573 -0.3112 0.9765
-3.4457 5.6248 -0.3457 0.9739
-4.4381 5.5988 -0.3744 0.9718
-5.7839 5.7205 -0.4263 0.9679
-12.6137 5.6021 -0.7233 0.9462
-18.9340 5.8013 -1.0378 0.9237
-45.1095 2.5301 -2.3678 0.8345
-44.7981 -2.8988 -2.3527 0.8354
-44.0605 -8.2575 -2.3493 0.8356
-45.5157 -14.3747 -2.5015 0.8260
-43.4549 -19.7481 -2.5015 0.8260
-40.7623 -24.8344 -2.5015 0.8260
-37.4772 -29.5596 -2.5015 0.8260
-23.9389 -24.0868 -1.7797 0.8728
-17.3677 -22.3010 -1.4814 0.8930
-10.7291 -24.0009 -1.3778 0.9001
-8.1055 -26.2268 -1.4386 0.8959
-6.4512 -35.6346 -1.8979 0.8650
8.6784 -46.9361 -2.5015 0.8260
14.2641 -45.5505 -2.5015 0.8260
18.4474 -40.8559 -2.3493 0.8356
22.6095 -28.8091 -1.9193 0.8636
45.5691 -14.2045 -2.5015 0.8260
46.9474 -8.6170 -2.5015 0.8260
40.3444 7.3583 -2.1492 0.8485
17.9053 5.5593 -0.9826 0.9277
21.3249 9.5665 -1.2249 0.9106
21.5603 12.9926 -1.3192 0.9041
25.8552 20.1902 -1.7192 0.8769
4.4504 5.6576 -0.3772 0.9716
2.5674 5.6692 -0.3262 0.9754
1.0565 5.6785 -0.3027 0.9771
-8.4299 46.8632 -2.4954 0.8264
-1.7423 5.6601 -0.3104 0.9766
-2.5171 5.6476 -0.3240 0.9755
-4.3501 5.5987 -0.3716 0.9720
-5.6720 5.7198 -0.4222 0.9682
-7.2475 5.7295 -0.4842 0.9637
-12.2936 5.6034 -0.7080 0.9473
-28.4545 5.3656 -1.5175 0.8905
-45.1074 2.9695 -2.3691 0.8344
-44.8482 -2.4650 -2.3539 0.8353
-44.1385 -7.8292 -2.3493 0.8356
-43.6446 -19.3252 -2.5015 0.8260
-17.6895 -22.2649 -1.4903 0.8923
-13.7866 -22.4493 -1.3807 0.8999
-8.2521 -25.8101 -1.4201 0.8971
-3.2490 -47.5908 -2.4999 0.8261
8.2222 -47.0182 -2.5015 0.8260
13.8213 -45.6868 -2.5015 0.8260
16.9618 -38.5595 -2.2077 0.8447
26.8684 -27.3595 -2.0097 0.8576
32.7526 -15.1211 -1.8906 0.8655
46.8615 -9.0725 -2.5015 0.8260
47.6128 -3.3665 -2.5015 0.8260
44.7714 2.2429 -2.3493 0.8356
44.1760 7.6149 -2.3493 0.8356
25.8527 19.7871 -1.7062 0.8777
4.5396 5.6571 -0.3801 0.9714
2.6338 5.6688 -0.3276 0.9753
1.8444 5.6736 -0.3127 0.9764
-0.2710 5.6866 -0.2984 0.9775
-1.6832 5.6628 -0.3096 0.9766
-3.3013 5.6319 -0.3421 0.9742
-4.2635 5.5985 -0.3688 0.9722
-9.1791 5.7295 -0.5671 0.9576
-12.0140 5.6175 -0.6951 0.9483
-17.6760 5.7936 -0.9748 0.9282
-27.8792 5.5380 -1.4896 0.8924
-43.2877 -1.9578 -2.2709 0.8407
-44.2125 -7.4002 -2.3493 0.8356
-41.2368 -24.0383 -2.5015 0.8260
-11.1665 -23.7312 -1.3745 0.9003
-6.6686 -33.1493 -1.7721 0.8733
-3.6051 -46.2022 -2.4287 0.8306
2.0410 -47.6880 -2.5015 0.8260
7.7655 -47.0958 -2.5015 0.8260
13.3770 -45.8189 -2.5015 0.8260
25.0351 -33.2077 -2.1795 0.8466
33.3822 -27.1898 -2.2564 0.8416
45.2847 -15.0866 -2.5015 0.8260
47.5779 -3.8287 -2.5015 0.8260
44.7911 1.8080 -2.3493 0.8356
41.2509 6.6988 -2.1902 0.8459
20.5098 11.8227 -1.2407 0.9095
20.5799 15.4370 -1.3482 0.9021
6.4039 6.1381 -0.4649 0.9651
3.5923 5.6629 -0.3515 0.9735
2.7009 5.6684 -0.3291 0.9752
0.4711 5.6821 -0.2988 0.9774
-0.9033 5.6493 -0.2998 0.9773
-1.6243 5.6656 -0.3089 0.9767
-3.2303 5.6354 -0.3404 0.9743
-4.1781 5.5984 -0.3661 0.9724
-6.9630 5.7278 -0.4725 0.9645
-17.1022 5.7901 -0.9463 0.9302
-26.9778 5.6317 -1.4443 0.8955
-45.0904 3.8490 -2.3717 0.8342
-44.9352 -1.5954 -2.3564 0.8352
-44.2822 -6.9707 -2.3493 0.8356
-45.5052 -12.9266 -2.4792 0.8274
-41.4683 -23.6367 -2.5015 0.8260
-8.5438 -25.0358 -1.3864 0.8995
-27.6805 -7.1632 -2.5015 0.8915
-26.6173 -10.4425 -2.5015 0.8915
-25.1670 -13.5701 -2.5015 0.8915
-21.1638 -19.1621 -2.4978 0.8917
-14.7622 -21.8720 -2.3086 0.8995
-9.0311 -24.5562 -2.2891 0.9003
-6.1683 -26.1347 -2.3493 0.8978
7.0960 -27.6978 -2.5015 0.8915
10.3779 -26.6425 -2.5015 0.8915
25.4206 -13.0889 -2.5015 0.8915
26.8111 -9.9343 -2.5015 0.8915
28.5917 0.2025 -2.5015 0.8915
21.6622 2.7820 -1.9108 0.9160
21.7944 5.5273 -1.9671 0.9137
6.5762 5.8964 -0.7728 0.9652
12.6773 24.4750 -2.4115 0.8952
2.1173 5.6720 -0.5297 0.9760
0.6619 5.6809 -0.5004 0.9773
-0.0265 5.6851 -0.4974 0.9774
-0.7166 5.6894 -0.5017 0.9772
-1.4246 5.6750 -0.5119 0.9768
-2.1655 5.6402 -0.5286 0.9760
-2.9843 5.6325 -0.5577 0.9747
-6.5059 5.7250 -0.7582 0.9658
-15.3683 5.7794 -1.4365 0.9362
-26.8527 -0.0599 -2.3493 0.8978
-28.3768 -3.5044 -2.5015 0.8915
-26.7174 -10.1836 -2.5015 0.8915
-25.2976 -13.3251 -2.5015 0.8915
-17.7881 -20.1160 -2.3493 0.8978
3.4355 -28.3852 -2.5015 0.8915
6.8267 -27.7654 -2.5015 0.8915
10.1187 -26.7420 -2.5015 0.8915
13.2636 -25.3298 -2.5015 0.8915
15.8029 -22.9499 -2.4378 0.8941
20.1135 -17.8731 -2.3541 0.8976
23.5036 -16.2821 -2.5015 0.8915
28.3754 -3.5157 -2.5015 0.8915
26.6659 3.1618 -2.3493 0.8978
22.7905 5.5449 -2.0521 0.9101
20.9600 14.3578 -2.2227 0.9030
2.9954 5.6481 -0.5593 0.9747
2.1801 5.6716 -0.5316 0.9759
0.0287 5.6848 -0.4974 0.9774
-0.6605 5.6890 -0.5011 0.9773
-2.9157 5.6346 -0.5551 0.9748
-4.9966 5.7106 -0.6639 0.9700
-6.3791 5.7242 -0.7498 0.9662
-10.6011 5.6552 -1.0512 0.9529
-14.9196 5.7767 -1.3997 0.9378
-26.6326 3.4311 -2.3493 0.8978
-28.4095 -3.2287 -2.5015 0.8915
-26.8150 -9.9237 -2.5015 0.8915
-25.4258 -13.0788 -2.5015 0.8915
-17.9826 -19.9423 -2.3493 0.8978
-15.4497 -21.9587 -2.3490 0.8978
-9.4830 -24.3165 -2.2835 0.9005
-6.6746 -26.0100 -2.3493 0.8978
-3.4957 -26.6242 -2.3493 0.8978
3.1597 -28.4173 -2.5015 0.8915
6.5568 -27.8304 -2.5015 0.8915
17.5839 -20.2947 -2.3493 0.8978
19.8986 -18.0309 -2.3493 0.8978
25.1616 -13.5800 -2.5015 0.8915
26.6131 -10.4531 -2.5015 0.8915
28.3400 -3.7910 -2.5015 0.8915
28.5902 -0.3527 -2.5015 0.8915
23.7680 5.5389 -2.1352 0.9067
20.7934 7.5807 -1.9363 0.9150
20.9539 14.0567 -2.2075 0.9036
5.1478 5.6533 -0.6689 0.9698
3.0758 5.6661 -0.5640 0.9744
2.2434 5.6712 -0.5336 0.9758
1.4859 5.6758 -0.5133 0.9767
0.7739 5.6802 -0.5015 0.9772
0.0839 5.6845 -0.4974 0.9774
-1.3092 5.6804 -0.5100 0.9769
-2.0428 5.6459 -0.5253 0.9762
-2.8466 5.6344 -0.5523 0.9750
-3.7336 5.5949 -0.5885 0.9734
-6.2549 5.7234 -0.7418 0.9665
-10.3841 5.6697 -1.0351 0.9536
-14.4933 5.7740 -1.3649 0.9393
-21.4741 5.6776 -1.9433 0.9147
-26.8488 0.4616 -2.3493 0.8978
-28.4395 -2.9527 -2.5015 0.8915
-27.8774 -6.3540 -2.5015 0.8915
-23.8215 -15.8132 -2.5015 0.8915
-21.7453 -18.5652 -2.5015 0.8915
-18.1754 -19.7668 -2.3493 0.8978
-15.6643 -21.8106 -2.3493 0.8978
-12.4805 -22.7268 -2.2684 0.9011
-6.9268 -25.9439 -2.3493 0.8978
-3.7540 -26.5890 -2.3493 0.8978
2.8837 -28.4466 -2.5015 0.8915
6.2863 -27.8928 -2.5015 0.8915
9.5975 -26.9335 -2.5015 0.8915
12.7692 -25.5826 -2.5015 0.8915
17.3861 -20.4645 -2.3493 0.8978
28.3018 -4.0660 -2.5015 0.8915
26.7223 2.6433 -2.3493 0.8978
24.8282 5.5324 -2.2255 0.9029
20.7888 7.3511 -1.9291 0.9153
20.9453 13.7579 -2.1924 0.9043
20.8257 17.6061 -2.3859 0.8963
5.2485 5.6527 -0.6749 0.9695
2.3072 5.6708 -0.5356 0.9757
-1.2519 5.6831 -0.5091 0.9769
-2.7781 5.6342 -0.5496 0.9751
-3.6581 5.5987 -0.5851 0.9735
-4.6816 5.5651 -0.6362 0.9712
-10.1723 5.6829 -1.0194 0.9543
-26.8430 0.7222 -2.3493 0.8978
-27.0026 -9.4012 -2.5015 0.8915
-25.6749 -12.5826 -2.5015 0.8915
-23.9739 -15.5812 -2.5015 0.8915
-21.9245 -18.3533 -2.5015 0.8915
-18.3664 -19.5894 -2.3493 0.8978
-15.8753 -21.6574 -2.3493 0.8978
-9.9327 -24.0780 -2.2788 0.9007
-7.1783 -25.8755 -2.3493 0.8978
-4.0120 -26.5513 -2.3493 0.8978
-0.8384 -28.5801 -2.5015 0.8915
2.6074 -28.4733 -2.5015 0.8915
6.0152 -27.9525 -2.5015 0.8915
17.1865 -20.6323 -2.3493 0.8978
19.5447 -18.4139 -2.3493 0.8978
23.0060 -16.9499 -2.5001 0.8916
26.4051 -10.9679 -2.5015 0.8915
28.2610 -4.3405 -2.5015 0.8915
28.5780 -0.9078 -2.5015 0.8915
20.7843 7.1233 -1.9222 0.9156
20.8490 10.0923 -2.0265 0.9112
20.9889 17.3974 -2.3851 0.8963
5.3510 5.6521 -0.6809 0.9692
1.6041 5.6751 -0.5160 0.9766
0.8864 5.6795 -0.5029 0.9772
0.1943 5.6838 -0.4976 0.9774
-3.5834 5.6025 -0.5818 0.9736
-4.5902 5.5652 -0.6311 0.9714
-6.0146 5.7219 -0.7263 0.9672
-7.7019 5.7323 -0.8400 0.9622
-9.9616 5.6928 -1.0038 0.9550
-13.7012 5.7692 -1.3006 0.9421
-26.8347 0.9828 -2.3493 0.8978
-28.4810 -2.3991 -2.5006 0.8916
-27.9956 -5.8115 -2.5015 0.8915
-27.0927 -9.1386 -2.5015 0.8915
-24.1241 -15.3477 -2.5015 0.8915
-22.1016 -18.1395 -2.5015 0.8915
-18.5558 -19.4101 -2.3493 0.8978
-13.4491 -17.9788 -1.9643 0.9138
-10.1570 -23.9590 -2.2767 0.9008
-4.2696 -26.5111 -2.3493 0.8978
9.0728 -27.1147 -2.5015 0.8915
12.2701 -25.8257 -2.5015 0.8915
22.8095 -17.1492 -2.4967 0.8917
28.5678 -1.1852 -2.5015 0.8915
26.7686 2.1240 -2.3493 0.8978
26.3184 5.3302 -2.3493 0.8978
20.8430 9.8408 -2.0166 0.9116
20.9289 13.1726 -2.1635 0.9055
4.2760 5.6587 -0.6205 0.9719
3.2922 5.6647 -0.5732 0.9740
2.4362 5.6700 -0.5399 0.9755
0.9430 5.6792 -0.5037 0.9771
-1.8615 5.6545 -0.5208 0.9764
-2.6432 5.6337 -0.5444 0.9753
-3.5096 5.6062 -0.5787 0.9738
-12.6239 5.4605 -1.2033 0.9463
-28.0507 -5.5394 -2.5015 0.8915
-27.1801 -8.8750 -2.5015 0.8915
-25.9144 -12.0818 -2.5015 0.8915
-24.2720 -15.1128 -2.5015 0.8915
-13.7311 -17.9891 -1.9799 0.9131
-10.3809 -23.8403 -2.2749 0.9009
-7.6795 -25.7312 -2.3493 0.8978
-4.5269 -26.4684 -2.3493 0.8978
2.0540 -28.5185 -2.5015 0.8915
5.4713 -28.0640 -2.5015 0.8915
8.8091 -27.2015 -2.5015 0.8915
12.0188 -25.9437 -2.5015 0.8915
15.0538 -24.3086 -2.5015 0.8915
16.7827 -20.9621 -2.3493 0.8978
19.1835 -18.7900 -2.3493 0.8978
24.6153 -14.5468 -2.5015 0.8915
26.1872 -11.4786 -2.5015 0.8915
28.1714 -4.8885 -2.5015 0.8915
26.7879 1.8640 -2.3493 0.8978
26.3689 5.0744 -2.3493 0.8978
20.7757 6.6724 -1.9091 0.9161
12.2564 5.6418 -1.1804 0.9473
21.3087 16.9754 -2.3835 0.8964
5.5251 5.6135 -0.6891 0.9689
4.3625 5.6582 -0.6251 0.9717
1.7235 5.6744 -0.5188 0.9765
0.9996 5.6788 -0.5045 0.9771
0.3049 5.6831 -0.4979 0.9774
-2.5766 5.6334 -0.5420 0.9754
-4.4116 5.5654 -0.6213 0.9719
-7.3951 5.7304 -0.8185 0.9631
-9.5588 5.7117 -0.9742 0.9563
-12.4303 5.5206 -1.1899 0.9469
-18.9340 5.8013 -1.7325 0.9236
-26.4347 4.7195 -2.3493 0.8978
-26.8106 1.5037 -2.3493 0.8978
-27.2650 -8.6108 -2.5015 0.8915
-26.0305 -11.8296 -2.5015 0.8915
-24.4176 -14.8764 -2.5015 0.8915
-16.4993 -21.1859 -2.3493 0.8978
-10.6044 -23.7218 -2.2733 0.9009
-4.7836 -26.4232 -2.3493 0.8978
1.7770 -28.5371 -2.5015 0.8915
5.1986 -28.1158 -2.5015 0.8915
8.5445 -27.2858 -2.5015 0.8915
14.8170 -24.4536 -2.5015 0.8915
16.5783 -21.1241 -2.3493 0.8978
26.0745 -11.7322 -2.5015 0.8915
28.5394 -1.7397 -2.5015 0.8915
26.9176 1.6106 -2.3592 0.8974
17.9053 5.5593 -1.6403 0.9275
21.4654 16.7622 -2.3827 0.8964
4.4504 5.6576 -0.6298 0.9715
3.4405 5.6638 -0.5798 0.9737
2.5674 5.6692 -0.5445 0.9753
1.0565 5.6785 -0.5053 0.9771
-0.3264 5.6870 -0.4984 0.9774
-4.9012 27.2467 -2.4220 0.8948
-4.3244 5.5655 -0.6166 0.9721
-5.6720 5.7198 -0.7047 0.9682
-9.3662 5.7208 -0.9602 0.9569
-12.1760 5.5498 -1.1707 0.9477
-18.2854 5.7973 -1.6782 0.9259
-27.3473 -8.3456 -2.5015 0.8915
-26.1441 -11.5762 -2.5015 0.8915
-24.5609 -14.6386 -2.5015 0.8915
-16.7042 -21.0247 -2.3493 0.8978
-5.0399 -26.3755 -2.3493 0.8978
1.4998 -28.5530 -2.5015 0.8915
4.9253 -28.1650 -2.5015 0.8915
8.2793 -27.3675 -2.5015 0.8915
11.5128 -26.1721 -2.5015 0.8915
14.5790 -24.5963 -2.5015 0.8915
16.4317 -21.3610 -2.3578 0.8974
25.9593 -11.9849 -2.5015 0.8915
26.4625 4.5615 -2.3493 0.8978
20.8967 6.2664 -1.9087 0.9161
21.6199 16.5474 -2.3819 0.8964
6.3533 6.2090 -0.7772 0.9650
3.5160 5.6634 -0.5832 0.9736
2.6338 5.6688 -0.5469 0.9752
1.8444 5.6736 -0.5219 0.9763
0.4157 5.6824 -0.4985 0.9774
-0.2710 5.6866 -0.4981 0.9774
-4.6367 27.2949 -2.4222 0.8948
-2.4453 5.6329 -0.5372 0.9756
-4.2412 5.5693 -0.6124 0.9723
-7.1035 5.7286 -0.7984 0.9640
-11.9077 5.5678 -1.1500 0.9486
-26.7763 2.0240 -2.3493 0.8978
-27.4270 -8.0798 -2.5015 0.8915
-26.2553 -11.3219 -2.5015 0.8915
-13.8177 -22.0176 -2.2742 0.9009
-11.0507 -23.4851 -2.2708 0.9010
-8.2923 -25.0932 -2.3121 0.8993
-5.2958 -26.3253 -2.3493 0.8978
-2.2243 -28.5057 -2.5015 0.8915
1.2226 -28.5662 -2.5015 0.8915
4.6517 -28.2115 -2.5015 0.8915
16.3030 -21.6250 -2.3694 0.8970
18.6281 -19.3407 -2.3493 0.8978
24.1813 -15.2574 -2.5015 0.8915
28.0171 -5.7069 -2.5015 0.8915
28.5003 -2.2935 -2.5015 0.8915
28.5658 1.1531 -2.5012 0.8916
13.2173 5.6236 -1.2567 0.9440
6.4039 6.1381 -0.7761 0.9650
4.6301 5.6565 -0.6395 0.9711
3.5923 5.6629 -0.5867 0.9734
1.9054 5.6733 -0.5236 0.9763
1.1709 5.6778 -0.5072 0.9770
0.4711 5.6821 -0.4988 0.9774
-0.2157 5.6863 -0.4978 0.9774
-0.9033 5.6493 -0.5005 0.9773
-3.2218 5.6206 -0.5668 0.9743
-4.1595 5.5734 -0.6084 0.9725
-5.4546 5.7185 -0.6914 0.9688
-6.9630 5.7278 -0.7888 0.9644
-17.1023 5.7901 -1.5797 0.9301
-26.8358 -0.9528 -2.3493 0.8978
-28.2446 -4.4461 -2.5015 0.8915
-9.1657 -18.9982 -1.8455 0.9188
-8.4798 -24.8485 -2.2971 0.8999
-9.5500 -2.4714 -1.2112 0.9610
-18.9658 -7.4407 -2.5015 0.9212
-16.6384 -11.7571 -2.5015 0.9212
-13.3470 -15.3923 -2.5015 0.9212
-11.3975 -16.8868 -2.5015 0.9212
-7.0282 -19.1100 -2.5001 0.9212
-4.6799 -19.8284 -2.5015 0.9212
2.6442 -20.2008 -2.5015 0.9212
7.3946 -18.9838 -2.5015 0.9212
9.6256 -17.9559 -2.5015 0.9212
11.7167 -16.6669 -2.5015 0.9212
15.3599 -13.3843 -2.5015 0.9212
18.1131 -9.3263 -2.5015 0.9212
19.1039 -7.0786 -2.5015 0.9212
19.8170 -4.7280 -2.5015 0.9212
20.2419 -2.3086 -2.5015 0.9212
6.5762 5.8964 -1.0845 0.9650
8.9323 17.2449 -2.3846 0.9247
2.1173 5.6720 -0.7434 0.9759
0.6619 5.6809 -0.7022 0.9772
-2.1655 5.6402 -0.7418 0.9759
-2.9766 5.6180 -0.7806 0.9747
-3.8766 5.5718 -0.8334 0.9730
-5.1004 5.7163 -0.9406 0.9696
-6.5059 5.7250 -1.0641 0.9657
-10.6525 5.5505 -1.4749 0.9527
-18.5895 4.5306 -2.3493 0.9258
-20.3731 -0.0454 -2.5015 0.9212
-20.2196 -2.4970 -2.5015 0.9212
-18.0255 -9.4946 -2.5015 0.9212
-15.2345 -13.5267 -2.5015 0.9212
-13.4958 -15.2620 -2.5015 0.9212
-11.5609 -16.7753 -2.5015 0.9212
-7.2113 -19.0353 -2.4993 0.9212
4.8643 -19.7839 -2.5015 0.9212
9.4508 -18.0485 -2.5015 0.9212
11.5543 -16.7799 -2.5015 0.9212
15.2292 -13.5329 -2.5015 0.9212
19.7701 -4.9202 -2.5015 0.9212
20.3731 -0.0535 -2.5015 0.9212
19.0005 2.2529 -2.3493 0.9258
18.5913 4.5232 -2.3493 0.9258
17.9117 6.7279 -2.3493 0.9258
5.0488 5.6539 -0.9307 0.9699
1.4273 5.6762 -0.7186 0.9767
0.0287 5.6848 -0.6980 0.9774
-2.1040 5.6431 -0.7395 0.9760
-4.9966 5.7106 -0.9317 0.9699
-8.1938 5.7353 -1.2280 0.9605
-10.4348 5.5666 -1.4521 0.9535
-9.6062 -2.2878 -1.2125 0.9610
-9.4934 -3.5133 -1.2429 0.9600
-18.1168 -9.3192 -2.5015 0.9212
-16.8636 -11.4318 -2.5015 0.9212
-15.3652 -13.3783 -2.5015 0.9212
-11.7233 -16.6623 -2.5015 0.9212
-9.6173 -17.9233 -2.4975 0.9213
-7.3937 -18.9590 -2.4986 0.9213
-5.0640 -19.7338 -2.5015 0.9212
-2.6522 -20.1998 -2.5015 0.9212
-0.2018 -20.3722 -2.5015 0.9212
2.2514 -20.2484 -2.5015 0.9212
7.0246 -19.1238 -2.5015 0.9212
9.2751 -18.1394 -2.5015 0.9212
13.3409 -15.3976 -2.5015 0.9212
15.0971 -13.6801 -2.5015 0.9212
18.9629 -7.4482 -2.5015 0.9212
19.7214 -5.1119 -2.5015 0.9212
20.1933 -2.7012 -2.5015 0.9212
20.3716 -0.2513 -2.5015 0.9212
19.0215 2.0683 -2.3493 0.9258
18.6343 4.3425 -2.3493 0.9258
17.9762 6.5536 -2.3493 0.9258
17.0814 8.6820 -2.3527 0.9257
8.4260 5.6524 -1.2458 0.9599
6.6762 5.7562 -1.0824 0.9651
5.1478 5.6533 -0.9388 0.9697
4.0237 5.6603 -0.8527 0.9724
3.0758 5.6661 -0.7916 0.9744
0.0839 5.6845 -0.6980 0.9773
-0.6046 5.6887 -0.7024 0.9772
-1.3092 5.6804 -0.7157 0.9768
-14.4933 5.7740 -1.9156 0.9391
-18.4980 4.8907 -2.3493 0.9258
-20.3243 0.3494 -2.4959 0.9213
-9.7288 -2.2174 -1.2252 0.9606
-13.7897 -14.9971 -2.5015 0.9212
-11.8845 -16.5476 -2.5015 0.9212
-9.7929 -17.8327 -2.4980 0.9213
-7.5757 -18.8822 -2.4981 0.9213
-2.8482 -20.1731 -2.5015 0.9212
-0.3996 -20.3692 -2.5015 0.9212
2.0548 -20.2693 -2.5015 0.9212
6.8386 -19.1911 -2.5015 0.9212
11.2263 -17.0011 -2.5015 0.9212
18.8897 -7.6320 -2.5015 0.9212
19.6709 -5.3031 -2.5015 0.9212
20.1661 -2.8972 -2.5015 0.9212
18.6756 4.1614 -2.3493 0.9258
18.0390 6.3788 -2.3493 0.9258
17.1603 8.5134 -2.3521 0.9257
8.6054 5.6524 -1.2642 0.9594
5.2485 5.6527 -0.9471 0.9694
3.1472 5.6656 -0.7958 0.9742
1.5448 5.6755 -0.7222 0.9766
0.8301 5.6799 -0.7048 0.9771
-1.9821 5.6488 -0.7350 0.9762
-3.6482 5.5836 -0.8189 0.9735
-4.6532 5.5313 -0.8875 0.9713
-7.8614 5.7333 -1.1947 0.9615
-10.0188 5.5972 -1.4091 0.9548
-12.6202 5.1703 -1.6746 0.9465
-18.9257 2.8128 -2.3493 0.9258
-10.0648 -2.1915 -1.2648 0.9593
-17.0824 -11.1022 -2.5015 0.9212
-13.9346 -14.8625 -2.5015 0.9212
-12.0446 -16.4315 -2.5015 0.9212
-7.7572 -18.8042 -2.4976 0.9213
-3.0439 -20.1445 -2.5015 0.9212
-0.5974 -20.3644 -2.5015 0.9212
4.2861 -19.9172 -2.5015 0.9212
11.0607 -17.1093 -2.5015 0.9212
13.0394 -15.6537 -2.5015 0.9212
17.7374 -10.0226 -2.5015 0.9212
18.8147 -7.8150 -2.5015 0.9212
20.1370 -3.0928 -2.5015 0.9212
20.3629 -0.6468 -2.5015 0.9212
18.7151 3.9799 -2.3493 0.9258
17.2376 8.3442 -2.3514 0.9257
5.3510 5.6521 -0.9557 0.9691
4.1907 5.6592 -0.8646 0.9720
3.2193 5.6652 -0.8001 0.9741
2.3715 5.6704 -0.7547 0.9755
0.8864 5.6795 -0.7058 0.9771
0.1943 5.6838 -0.6983 0.9773
-1.1947 5.6858 -0.7134 0.9769
-1.9216 5.6516 -0.7329 0.9762
-4.5660 5.5359 -0.8811 0.9715
-9.8198 5.6118 -1.3887 0.9554
-12.4285 5.2333 -1.6558 0.9471
-18.3995 5.2490 -2.3493 0.9258
-19.2572 0.7053 -2.3661 0.9253
-10.4511 -2.1695 -1.3106 0.9579
-18.3806 -8.7876 -2.5015 0.9212
-15.7483 -12.9251 -2.5015 0.9212
-10.1418 -17.6470 -2.4991 0.9212
-7.9381 -18.7247 -2.4972 0.9213
1.6608 -20.3054 -2.5015 0.9212
6.4647 -19.3203 -2.5015 0.9212
12.8868 -15.7796 -2.5015 0.9212
19.5642 -5.6841 -2.5015 0.9212
20.0421 1.5903 -2.4686 0.9222
18.7529 3.7980 -2.3493 0.9258
18.1595 6.0273 -2.3493 0.9258
17.3131 8.1742 -2.3508 0.9257
3.2922 5.6647 -0.8045 0.9739
1.6637 5.6747 -0.7261 0.9764
0.9430 5.6792 -0.7069 0.9771
-0.4374 5.6877 -0.7004 0.9773
-1.1377 5.6884 -0.7123 0.9769
-4.4800 5.5404 -0.8748 0.9717
-5.8980 5.7212 -1.0089 0.9674
-7.5465 5.7314 -1.1635 0.9625
-9.6264 5.6259 -1.3690 0.9561
-18.8675 3.1798 -2.3493 0.9258
-19.1131 0.8859 -2.3493 0.9258
-20.3169 -1.5129 -2.5015 0.9212
-9.4651 -3.0906 -1.2226 0.9607
-18.4650 -8.6087 -2.5015 0.9212
-15.8730 -12.7716 -2.5015 0.9212
-14.2206 -14.5891 -2.5015 0.9212
-12.3614 -16.1945 -2.5015 0.9212
-10.3159 -17.5533 -2.4999 0.9212
-5.8264 -19.5223 -2.5015 0.9212
10.7264 -17.3208 -2.5015 0.9212
14.5545 -14.2559 -2.5015 0.9212
16.1644 -12.4007 -2.5015 0.9212
17.5394 -10.3651 -2.5015 0.9212
19.5081 -5.8737 -2.5015 0.9212
20.0732 -3.4832 -2.5015 0.9212
18.7889 3.6157 -2.3493 0.9258
18.2171 5.8507 -2.3493 0.9258
17.3870 8.0036 -2.3502 0.9258
9.1771 5.6524 -1.3234 0.9575
7.4774 5.9568 -1.1738 0.9622
3.3659 5.6643 -0.8090 0.9738
2.5015 5.6696 -0.7609 0.9753
0.9996 5.6788 -0.7080 0.9770
0.3049 5.6831 -0.6988 0.9773
-0.3819 5.6873 -0.6999 0.9773
-1.0734 5.6520 -0.7064 0.9771
-1.8018 5.6573 -0.7290 0.9764
-2.5710 5.6212 -0.7590 0.9754
-4.3953 5.5448 -0.8688 0.9719
-5.7839 5.7205 -0.9988 0.9677
-7.3951 5.7304 -1.1487 0.9630
-12.0572 5.3549 -1.6199 0.9482
-18.8358 3.3628 -2.3493 0.9258
-19.1036 1.0715 -2.3493 0.9258
-20.3307 -1.3156 -2.5015 0.9212
-17.3984 -10.6000 -2.5015 0.9212
-14.3616 -14.4503 -2.5015 0.9212
-12.5181 -16.0737 -2.5015 0.9212
-10.4894 -17.4581 -2.5007 0.9212
-8.2983 -18.5631 -2.4966 0.9213
-6.0156 -19.4648 -2.5015 0.9212
-1.1902 -20.3384 -2.5015 0.9212
6.0883 -19.4422 -2.5015 0.9212
10.5577 -17.4242 -2.5015 0.9212
12.5780 -16.0269 -2.5015 0.9212
14.4155 -14.3965 -2.5015 0.9212
17.4379 -10.5349 -2.5015 0.9212
19.4501 -6.0629 -2.5015 0.9212
20.0384 -3.6780 -2.5015 0.9212
20.3354 -1.2396 -2.5015 0.9212
18.8231 3.4331 -2.3493 0.9258
17.9053 5.5593 -2.3020 0.9272
6.3025 6.2802 -1.0925 0.9648
4.4504 5.6576 -0.8838 0.9714
2.5674 5.6692 -0.7641 0.9752
1.0565 5.6785 -0.7092 0.9770
-0.3264 5.6870 -0.6994 0.9773
-4.3117 5.5492 -0.8629 0.9721
-7.2475 5.7295 -1.1344 0.9635
-9.2948 5.6771 -1.3373 0.9571
-18.8022 3.5455 -2.3493 0.9258
-20.3425 -1.1181 -2.5015 0.9212
-9.4703 -2.8901 -1.2157 0.9609
-18.6287 -8.2485 -2.5015 0.9212
-14.5011 -14.3103 -2.5015 0.9212
-12.6735 -15.9514 -2.5015 0.9212
1.0687 -20.3451 -2.5015 0.9212
3.5095 -20.0686 -2.5015 0.9212
5.8993 -19.5004 -2.5015 0.9212
8.2033 -18.6487 -2.5015 0.9212
12.4218 -16.1482 -2.5015 0.9212
18.4970 -8.5397 -2.5015 0.9212
20.0018 -3.8724 -2.5015 0.9212
20.3224 -1.4369 -2.5015 0.9212
20.3477 1.0193 -2.5015 0.9212
18.8555 3.2502 -2.3493 0.9258
7.5510 5.7794 -1.1675 0.9624
2.6338 5.6688 -0.7675 0.9751
1.1136 5.6781 -0.7105 0.9770
-0.2710 5.6866 -0.6990 0.9773
-3.2626 19.2061 -2.3920 0.9245
-1.6832 5.6628 -0.7254 0.9765
-3.2840 5.6023 -0.7973 0.9742
-5.5622 5.7192 -0.9796 0.9684
-7.1035 5.7286 -1.1205 0.9639
-9.1409 5.7057 -1.3231 0.9575
-18.7669 3.7279 -2.3493 0.9258
-20.3524 -0.9205 -2.5015 0.9212
-20.0937 -3.3632 -2.5015 0.9212
-9.4870 -2.7948 -1.2143 0.9609
-17.6010 -10.2602 -2.5015 0.9212
-12.8278 -15.8276 -2.5015 0.9212
-6.3925 -19.3443 -2.5015 0.9212
-4.0179 -19.9730 -2.5015 0.9212
0.8712 -20.3545 -2.5015 0.9212
3.3145 -20.1017 -2.5015 0.9212
8.0218 -18.7274 -2.5015 0.9212
10.2174 -17.6259 -2.5015 0.9212
14.1331 -14.6738 -2.5015 0.9212
15.7964 -12.8662 -2.5015 0.9212
17.2301 -10.8715 -2.5015 0.9212
18.4133 -8.7188 -2.5015 0.9212
19.3287 -6.4394 -2.5015 0.9212
19.9632 -4.0664 -2.5015 0.9212
20.3075 -1.6342 -2.5015 0.9212
18.8862 3.0670 -2.3493 0.9258
18.3798 5.3177 -2.3493 0.9258
17.6062 7.4910 -2.3493 0.9258
16.6243 9.5829 -2.3560 0.9256
6.4039 6.1381 -1.0892 0.9649
4.6301 5.6565 -0.8975 0.9710
2.7009 5.6684 -0.7710 0.9750
-0.2157 5.6863 -0.6987 0.9773
-0.9033 5.6493 -0.7025 0.9772
-1.6243 5.6656 -0.7237 0.9765
-3.2134 5.6059 -0.7934 0.9743
-5.4545 5.7185 -0.9703 0.9687
-8.9478 5.7067 -1.3031 0.9581
-17.1022 5.7901 -2.2170 0.9298
-18.7298 3.9099 -2.3493 0.9258
-20.1254 -3.1680 -2.5015 0.9212
-17.6998 -10.0888 -2.5015 0.9212
-14.7763 -14.0259 -2.5015 0.9212
-12.9809 -15.7023 -2.5015 0.9212
-10.9967 -17.1505 -2.5015 0.9212
-8.8346 -18.3119 -2.4964 0.9213
-8.9711 -2.3216 -1.4677 0.9632
-8.8605 -3.4762 -1.5075 0.9622
-13.9018 -7.4958 -2.5015 0.9380
-12.8986 -9.1145 -2.5015 0.9380
-10.3470 -11.9326 -2.5015 0.9380
-7.1959 -14.0594 -2.5015 0.9380
-3.6280 -15.3716 -2.5015 0.9380
-1.7516 -15.6965 -2.5015 0.9380
2.0499 -15.6603 -2.5015 0.9380
3.9197 -15.2998 -2.5015 0.9380
10.5721 -11.7336 -2.5015 0.9380
11.9074 -10.3760 -2.5015 0.9380
13.0696 -8.8675 -2.5015 0.9380
14.0418 -7.2301 -2.5015 0.9380
15.7935 0.1119 -2.5015 0.9380
13.8344 5.3502 -2.3493 0.9417
12.1695 8.5110 -2.3521 0.9416
4.9515 5.6545 -1.1904 0.9700
3.8611 5.6612 -1.0853 0.9726
6.8818 13.2862 -2.3699 0.9412
0.6619 5.6809 -0.9059 0.9771
-0.7166 5.6894 -0.9082 0.9770
-1.4246 5.6750 -0.9267 0.9766
-5.1004 5.7163 -1.2134 0.9695
-10.4841 5.4627 -1.8724 0.9533
-13.8837 5.2211 -2.3493 0.9417
-14.7291 1.7523 -2.3493 0.9417
-15.7939 -0.0352 -2.5015 0.9380
-8.9962 -2.2351 -1.4682 0.9632
-8.8477 -3.3724 -1.4997 0.9624
-12.9865 -8.9888 -2.5015 0.9380
-8.9624 -13.0047 -2.5015 0.9380
-5.5952 -14.7696 -2.5015 0.9380
-3.7770 -15.3356 -2.5015 0.9380
-1.9039 -15.6787 -2.5015 0.9380
3.7710 -15.3371 -2.5015 0.9380
5.5894 -14.7718 -2.5015 0.9380
7.3266 -13.9917 -2.5015 0.9380
8.9573 -13.0083 -2.5015 0.9380
11.8061 -10.4911 -2.5015 0.9380
14.7560 -5.6311 -2.5015 0.9380
15.3264 -3.8143 -2.5015 0.9380
15.6741 -1.9420 -2.5015 0.9380
15.7938 -0.0415 -2.5015 0.9380
13.8857 5.2156 -2.3493 0.9417
12.2492 8.3908 -2.3516 0.9416
6.6263 5.8262 -1.3975 0.9649
5.0488 5.6539 -1.2006 0.9698
3.9419 5.6608 -1.0925 0.9725
2.9954 5.6481 -1.0126 0.9744
1.4273 5.6762 -0.9270 0.9766
0.7178 5.6806 -0.9069 0.9771
0.0287 5.6848 -0.9004 0.9772
-1.3668 5.6777 -0.9249 0.9766
-2.1040 5.6431 -0.9539 0.9759
-2.9007 5.6057 -0.9997 0.9748
-3.7832 5.5518 -1.0641 0.9732
-8.1938 5.7353 -1.5841 0.9603
-13.8323 5.3557 -2.3493 0.9417
-15.7935 0.1181 -2.5015 0.9380
-15.6929 -1.7835 -2.5015 0.9380
-13.0732 -8.8623 -2.5015 0.9380
-11.9115 -10.3712 -2.5015 0.9380
-10.5768 -11.7294 -2.5015 0.9380
-9.0882 -12.9171 -2.5015 0.9380
-7.4676 -13.9170 -2.5015 0.9380
-3.9258 -15.2982 -2.5015 0.9380
-2.0561 -15.6595 -2.5015 0.9380
-0.1565 -15.7931 -2.5015 0.9380
1.7454 -15.6972 -2.5015 0.9380
3.6219 -15.3730 -2.5015 0.9380
5.4457 -14.8254 -2.5015 0.9380
10.3423 -11.9367 -2.5015 0.9380
11.7037 -10.6052 -2.5015 0.9380
14.7006 -5.7741 -2.5015 0.9380
15.6545 -2.0941 -2.5015 0.9380
14.4459 3.3665 -2.3493 0.9417
13.9357 5.0806 -2.3493 0.9417
5.1478 5.6533 -1.2110 0.9695
3.0758 5.6661 -1.0211 0.9742
1.4859 5.6758 -0.9293 0.9765
0.7739 5.6802 -0.9080 0.9771
-1.3092 5.6804 -0.9233 0.9767
-2.0428 5.6459 -0.9510 0.9760
-2.8337 5.6088 -0.9953 0.9749
-3.7082 5.5569 -1.0581 0.9733
-4.6884 5.4645 -1.1404 0.9713
-6.2549 5.7234 -1.3428 0.9662
-13.7797 5.4898 -2.3493 0.9417
-14.6923 2.0380 -2.3493 0.9417
-15.7916 0.2715 -2.5015 0.9380
-15.7095 -1.6310 -2.5015 0.9380
-9.2289 -2.1035 -1.4992 0.9624
-8.8325 -3.1716 -1.4864 0.9627
-14.1142 -7.0878 -2.5015 0.9380
-13.1586 -8.7350 -2.5015 0.9380
-12.0117 -10.2551 -2.5015 0.9380
-7.6023 -13.8438 -2.5015 0.9380
-5.8810 -14.6581 -2.5015 0.9380
-4.0741 -15.2594 -2.5015 0.9380
-2.2080 -15.6388 -2.5015 0.9380
1.5929 -15.7134 -2.5015 0.9380
5.3015 -14.8775 -2.5015 0.9380
7.0535 -14.1314 -2.5015 0.9380
8.7030 -13.1797 -2.5015 0.9380
10.2259 -12.0365 -2.5015 0.9380
11.6002 -10.7183 -2.5015 0.9380
12.8058 -9.2443 -2.5015 0.9380
15.2495 -4.1111 -2.5015 0.9380
13.9844 4.9450 -2.3493 0.9417
13.2876 6.5921 -2.3493 0.9417
11.3604 9.6041 -2.3561 0.9415
4.1066 5.6597 -1.1075 0.9721
-0.5488 5.6883 -0.9051 0.9771
-1.2519 5.6831 -0.9217 0.9767
-2.7672 5.6120 -0.9910 0.9750
-3.6340 5.5619 -1.0523 0.9735
-4.6158 5.4869 -1.1357 0.9714
-6.1335 5.7227 -1.3286 0.9666
-7.8614 5.7333 -1.5411 0.9614
-9.9458 5.5564 -1.8044 0.9549
-13.7257 5.6233 -2.3493 0.9417
-15.7882 0.4248 -2.5015 0.9380
-9.2450 -2.0129 -1.4986 0.9624
-14.1824 -6.9504 -2.5015 0.9380
-10.8025 -11.5218 -2.5015 0.9380
-7.7364 -13.7694 -2.5015 0.9380
-6.0230 -14.6004 -2.5015 0.9380
-2.3597 -15.6166 -2.5015 0.9380
-0.4631 -15.7871 -2.5015 0.9380
1.4403 -15.7281 -2.5015 0.9380
3.3227 -15.4404 -2.5015 0.9380
8.5746 -13.2636 -2.5015 0.9380
11.4956 -10.8305 -2.5015 0.9380
14.5857 -6.0585 -2.5015 0.9380
15.2088 -4.2590 -2.5015 0.9380
15.6108 -2.3977 -2.5015 0.9380
15.7859 -0.5014 -2.5015 0.9380
15.3430 1.3675 -2.4397 0.9395
14.5085 3.0853 -2.3493 0.9417
14.0317 4.8090 -2.3493 0.9417
12.4812 8.0259 -2.3503 0.9417
5.3510 5.6521 -1.2328 0.9690
4.1907 5.6592 -1.1153 0.9719
2.3715 5.6704 -0.9735 0.9754
0.8864 5.6795 -0.9104 0.9770
-0.4930 5.6880 -0.9043 0.9771
-1.9216 5.6516 -0.9455 0.9761
-7.7019 5.7323 -1.5206 0.9619
-9.7775 5.5876 -1.7836 0.9554
-10.9139 -11.4164 -2.5015 0.9380
-7.8697 -13.6936 -2.5015 0.9380
-4.3696 -15.1774 -2.5015 0.9380
1.2875 -15.7413 -2.5015 0.9380
3.1726 -15.4720 -2.5015 0.9380
9.9902 -12.2328 -2.5015 0.9380
11.3899 -10.9415 -2.5015 0.9380
12.6239 -9.4912 -2.5015 0.9380
13.6744 -7.9029 -2.5015 0.9380
14.5262 -6.1998 -2.5015 0.9380
15.5868 -2.5491 -2.5015 0.9380
14.5378 2.9443 -2.3493 0.9417
13.4131 6.3329 -2.3493 0.9417
12.5561 7.9028 -2.3498 0.9417
5.4554 5.6514 -1.2441 0.9687
4.2760 5.6587 -1.1234 0.9717
3.2922 5.6647 -1.0377 0.9738
0.2496 5.6834 -0.9010 0.9772
-0.4374 5.6877 -0.9035 0.9772
-1.1377 5.6884 -0.9188 0.9768
-1.8615 5.6545 -0.9429 0.9762
-4.4518 5.5054 -1.1214 0.9717
-9.6130 5.6181 -1.7635 0.9559
-8.8186 -2.8795 -1.4693 0.9631
-14.3146 -6.6738 -2.5015 0.9380
-12.3052 -9.9009 -2.5015 0.9380
-8.0023 -13.6165 -2.5015 0.9380
-4.5168 -15.1342 -2.5015 0.9380
-0.7696 -15.7751 -2.5015 0.9380
1.1346 -15.7531 -2.5015 0.9380
9.8710 -12.3292 -2.5015 0.9380
12.5312 -9.6134 -2.5015 0.9380
13.5971 -8.0354 -2.5015 0.9380
14.4653 -6.3405 -2.5015 0.9380
15.5844 1.0844 -2.4743 0.9387
14.5657 2.8030 -2.3493 0.9417
14.1225 4.5356 -2.3493 0.9417
13.4740 6.2023 -2.3493 0.9417
7.4774 5.9568 -1.5142 0.9620
5.5251 5.6135 -1.2475 0.9686
4.3625 5.6582 -1.1316 0.9715
3.3659 5.6643 -1.0436 0.9737
2.5015 5.6696 -0.9815 0.9752
0.9996 5.6788 -0.9133 0.9769
-0.3819 5.6873 -0.9028 0.9772
-1.0734 5.6520 -0.9112 0.9770
-1.8018 5.6573 -0.9404 0.9762
-2.5710 5.6212 -0.9790 0.9753
-5.7839 5.7205 -1.2885 0.9676
-7.3951 5.7304 -1.4818 0.9628
-9.4522 5.6480 -1.7440 0.9564
-12.9079 5.7327 -2.2370 0.9444
-14.6021 2.6070 -2.3493 0.9417
-15.7567 0.8837 -2.4995 0.9381
-8.8465 -2.7939 -1.4694 0.9631
-12.4008 -9.7810 -2.5015 0.9380
-11.1335 -11.2023 -2.5015 0.9380
-9.7044 -12.4608 -2.5015 0.9380
-6.4456 -14.4188 -2.5015 0.9380
-4.6635 -15.0897 -2.5015 0.9380
-0.9227 -15.7669 -2.5015 0.9380
0.9816 -15.7634 -2.5015 0.9380
2.8716 -15.5307 -2.5015 0.9380
4.7199 -15.0722 -2.5015 0.9380
6.4995 -14.3946 -2.5015 0.9380
8.1847 -13.5077 -2.5015 0.9380
9.7508 -12.4245 -2.5015 0.9380
11.1753 -11.1606 -2.5015 0.9380
