ply
format ascii 1.0
element vertex 1577
property float32 x
property float32 y
property float32 z
property float32 I
end_header
55.8791 -11.7142 9.0428 0.7936
55.5922 1.9252 8.8102 0.7983
51.3219 14.5291 8.4480 0.8057
38.6736 16.1920 6.6405 0.8438
4.6851 5.6562 1.1633 0.9707
1.9424 5.6730 0.9497 0.9760
1.2056 5.6776 0.9193 0.9768
0.5048 5.6819 0.9035 0.9772
-9.5521 62.0893 9.9497 0.7754
-2.3689 5.6995 0.9776 0.9753
-3.2251 5.7048 1.0379 0.9738
-5.3892 5.7181 1.2445 0.9687
-6.8779 5.7272 1.4176 0.9644
-8.8250 5.7032 1.6642 0.9583
-67.7223 -18.7920 11.1314 0.7523
-89.9810 -37.1246 15.4169 0.6742
-70.0820 -65.7079 15.2156 0.6777
-30.6176 -36.5750 7.5547 0.8243
-16.7522 -34.1804 6.0289 0.8571
24.4529 -43.7840 7.9429 0.8162
41.5540 -44.5518 9.6492 0.7814
53.7349 -45.2205 11.1234 0.7524
55.8571 -27.5566 9.8650 0.7771
56.0489 -12.3599 9.0906 0.7926
55.5473 -5.3723 8.8389 0.7977
55.5886 1.3464 8.8070 0.7984
30.1655 16.7444 5.4645 0.8696
26.2737 19.0508 5.1402 0.8768
6.0866 5.6476 1.3151 0.9669
4.7846 5.6556 1.1733 0.9704
3.7221 5.6621 1.0732 0.9729
2.0084 5.6726 0.9531 0.9759
0.5644 5.6815 0.9043 0.9771
-1.5324 5.6944 0.9340 0.9764
-3.1470 5.7043 1.0318 0.9740
-4.1179 5.7103 1.1151 0.9719
-8.6358 5.7091 1.6396 0.9589
-5.5817 2.7899 0.9883 0.9750
-62.1191 -44.5508 12.1074 0.7338
-15.6539 -31.1161 5.5168 0.8684
-11.2565 -49.2161 7.9964 0.8151
55.5437 -5.9556 8.8477 0.7975
55.5851 0.7679 8.8047 0.7984
51.3148 13.3806 8.3992 0.8067
30.9106 16.7398 5.5676 0.8673
26.2711 18.6351 5.1015 0.8777
6.2142 5.6468 1.3299 0.9666
3.8067 5.6616 1.0806 0.9727
2.8881 5.6672 1.0074 0.9746
1.3295 5.6768 0.9234 0.9767
-0.7523 5.6731 0.9064 0.9771
-1.4689 5.6940 0.9314 0.9765
-4.0279 5.7097 1.1067 0.9721
-6.5920 5.7255 1.3829 0.9653
-8.4850 5.7371 1.6223 0.9594
-2.1219 5.6980 0.7466 0.9758
-2.9482 5.7031 0.7883 0.9745
-3.8867 5.7089 0.8480 0.9726
-4.9966 5.7157 0.9322 0.9699
-6.3732 5.7241 1.0518 0.9661
-8.1856 5.7353 1.2272 0.9605
-14.8975 5.7765 1.9619 0.9376
-69.1357 -16.4249 8.7251 0.7510
-71.7234 -36.8409 9.9003 0.7226
-31.1721 -34.5257 5.7114 0.8291
-24.3540 -34.5674 5.1919 0.8433
-14.3215 -36.6515 4.8316 0.8534
-10.3943 -40.3914 5.1210 0.8453
-11.6869 -88.5361 10.9652 0.6977
22.7385 -44.5530 6.1417 0.8174
30.3885 -45.1375 6.6812 0.8031
49.8230 -45.2191 8.2614 0.7625
51.2619 -36.3158 7.7136 0.7763
54.2769 -21.3713 7.1624 0.7905
70.7376 -18.3998 8.9745 0.7449
55.5758 -0.7343 6.8244 0.7993
51.7360 5.5789 6.3892 0.8108
51.8065 12.0236 6.5301 0.8071
26.3651 17.6506 3.8957 0.8800
6.5596 5.6447 1.0626 0.9657
4.0320 5.6602 0.8533 0.9724
25.9500 47.6897 6.6663 0.8035
1.4921 5.6758 0.7206 0.9766
0.7799 5.6802 0.7040 0.9772
0.0899 5.6844 0.6980 0.9773
-2.0545 5.6976 0.7437 0.9759
-4.8801 5.7010 0.9214 0.9702
-10.5011 5.7495 1.4700 0.9529
-14.4037 5.7581 1.9046 0.9394
-31.8264 -34.5217 5.7652 0.8276
-24.8936 -34.5641 5.2300 0.8423
-14.7616 -36.6488 4.8512 0.8528
-10.4903 -39.0763 4.9679 0.8495
-12.6208 -88.5056 10.9771 0.6975
51.0794 -36.9903 7.7436 0.7756
53.1034 -21.5498 7.0367 0.7938
73.6483 -19.9769 9.3696 0.7353
55.6660 -8.0856 6.9066 0.7972
52.1236 5.0729 6.4302 0.8097
51.3524 11.3567 6.4576 0.8090
26.2622 17.1889 3.8539 0.8812
6.6982 5.6438 1.0755 0.9653
4.1210 5.6596 0.8596 0.9722
2.3184 5.6707 0.7522 0.9756
1.5553 5.6754 0.7225 0.9766
0.8401 5.6798 0.7050 0.9771
-3.7147 5.7078 0.8362 0.9729
-7.8307 5.7331 1.1916 0.9616
-10.2438 5.7479 1.4423 0.9538
-14.0116 5.7711 1.8606 0.9408
-89.4415 24.7608 11.3951 0.6880
-72.7456 -35.4735 9.9374 0.7217
-32.4932 -34.5176 5.8206 0.8261
-25.4412 -34.5607 5.2693 0.8412
-19.5087 -34.5570 4.8725 0.8522
-15.2053 -36.6461 4.8715 0.8522
-10.8962 -38.9651 4.9679 0.8495
19.3416 -90.8122 11.4004 0.6878
15.1877 -44.2712 5.7468 0.8281
27.6827 -33.3796 5.3246 0.8397
51.0529 -37.7866 7.7987 0.7742
52.8012 -22.0696 7.0267 0.7940
55.6624 -8.6772 6.9170 0.7969
52.4511 4.5545 6.4644 0.8088
48.8867 16.6291 6.3403 0.8121
35.7634 17.2099 4.8732 0.8522
5.3762 5.6519 0.9578 0.9691
0.9005 5.6794 0.7061 0.9771
-0.4790 5.6879 0.7009 0.9773
-2.7255 5.7017 0.7760 0.9749
-3.6304 5.7073 0.8305 0.9731
-5.9840 5.7217 1.0166 0.9672
-7.6609 5.7321 1.1748 0.9622
-9.9960 5.7464 1.4157 0.9546
-58.9547 -27.9935 8.0133 0.7687
-25.9970 -34.5573 5.3097 0.8401
-15.6529 -36.6434 4.8925 0.8516
18.3329 -90.6965 11.3614 0.6887
14.8445 -44.7830 5.7929 0.8268
28.3754 -45.1251 6.5450 0.8067
47.2008 -45.6042 8.0587 0.7676
51.0478 -38.6110 7.8589 0.7726
51.5982 -30.0202 7.3297 0.7862
52.4461 -22.5646 7.0103 0.7945
55.6595 -16.3476 7.1228 0.7915
55.6587 -9.2704 6.9282 0.7966
55.6065 4.2464 6.8475 0.7987
55.1703 11.0027 6.9074 0.7971
50.5752 16.6187 6.5365 0.8069
36.0998 16.9117 4.8948 0.8516
26.8155 16.7650 3.8831 0.8803
26.2871 21.2300 4.1488 0.8727
4.3031 5.6585 0.8729 0.9718
3.3154 5.6646 0.8059 0.9739
2.4569 5.6699 0.7587 0.9754
1.6827 5.6746 0.7267 0.9764
0.9611 5.6791 0.7072 0.9771
0.2674 5.6833 0.6986 0.9773
-0.4195 5.6876 0.7002 0.9773
-1.1198 5.6918 0.7123 0.9769
-4.5896 5.7132 0.8998 0.9709
-7.4957 5.7310 1.1585 0.9627
-13.2124 5.7662 1.7700 0.9436
-73.5672 -33.9988 9.9509 0.7214
-20.4645 -34.5511 4.9306 0.8506
-13.6210 -78.0189 9.7244 0.7267
15.8725 -49.6056 6.3950 0.8107
27.7224 -45.1211 6.5023 0.8078
36.1183 -45.4425 7.1274 0.7914
51.0427 -39.4484 7.9208 0.7711
53.0952 -23.5014 7.1293 0.7914
73.6524 -22.4670 9.4548 0.7332
55.6615 -9.8670 6.9409 0.7963
55.5616 -3.0486 6.8324 0.7991
55.6029 3.6649 6.8420 0.7989
55.8184 10.5295 6.9745 0.7954
51.4221 16.3064 6.6238 0.8046
36.2583 16.5283 4.8927 0.8516
27.6024 16.8602 3.9714 0.8778
5.6033 5.6505 0.9771 0.9684
4.3963 5.6580 0.8798 0.9715
2.5271 5.6694 0.7621 0.9753
1.7470 5.6742 0.7290 0.9764
1.0219 5.6787 0.7085 0.9770
-0.3600 5.6872 0.6997 0.9773
-1.7900 5.6960 0.7331 0.9762
-3.4652 5.7063 0.8197 0.9735
-5.7386 5.7202 0.9949 0.9679
-12.7785 5.7358 1.7198 0.9451
-41.5304 -12.9322 5.3408 0.8392
-20.9760 -34.5890 4.9669 0.8496
-12.1065 -38.6062 4.9679 0.8495
16.5088 -53.5058 6.8753 0.7980
35.1786 -45.2181 7.0344 0.7938
51.4421 -31.3795 7.3987 0.7844
55.5581 -3.6284 6.8362 0.7990
55.5993 3.0842 6.8372 0.7990
55.8001 9.9261 6.9589 0.7958
51.3791 15.7065 6.5968 0.8053
36.5517 16.2050 4.9093 0.8512
26.3519 20.3915 4.0912 0.8743
5.7203 5.6498 0.9872 0.9681
3.4750 5.6636 0.8159 0.9736
2.5979 5.6690 0.7657 0.9752
1.8117 5.6738 0.7313 0.9763
-0.9971 5.6911 0.7094 0.9770
-1.7250 5.6956 0.7307 0.9763
-3.3842 5.7058 0.8145 0.9736
-4.3963 5.7120 0.8850 0.9714
-5.6197 5.7195 0.9845 0.9682
-7.1786 5.7291 1.1277 0.9637
-67.5238 -20.2587 8.6560 0.7527
-74.8045 -32.7000 10.0241 0.7196
-27.6903 -34.5119 5.4329 0.8367
-21.3351 -34.3700 4.9671 0.8496
-16.9978 -36.5881 4.9536 0.8499
-12.3889 -38.1141 4.9208 0.8509
13.6746 -46.0126 5.8938 0.8241
34.4346 -45.2241 6.9793 0.7953
43.9723 -45.2208 7.7447 0.7755
29.0345 -18.1278 4.2044 0.8711
55.5545 -4.2086 6.8408 0.7989
37.5877 16.1987 5.0255 0.8479
26.3493 19.9547 4.0583 0.8753
5.8398 5.6491 0.9976 0.9678
4.5872 5.6568 0.8942 0.9711
3.5563 5.6631 0.8211 0.9734
2.6694 5.6686 0.7693 0.9751
1.8768 5.6734 0.7337 0.9762
1.1442 5.6779 0.7112 0.9769
0.4454 5.6822 0.6998 0.9773
-0.2413 5.6865 0.6988 0.9773
-0.9317 5.6634 0.7047 0.9771
-4.3020 5.7114 0.8780 0.9716
-5.5033 5.7188 0.9745 0.9685
-9.0892 5.7408 1.3200 0.9576
-12.1488 5.7596 1.6508 0.9473
-21.8316 -34.3669 4.9992 0.8487
13.3457 -46.6785 5.9610 0.8223
25.0448 -43.7682 6.1917 0.8161
51.0267 -42.0427 8.1180 0.7661
57.3723 -27.5659 7.8154 0.7737
55.6882 -11.6743 6.9863 0.7951
55.5922 1.9252 6.8299 0.7992
55.7694 8.7283 6.9310 0.7965
26.3768 19.5473 4.0311 0.8761
5.9619 5.6483 1.0084 0.9674
3.6386 5.6626 0.8264 0.9732
2.7415 5.6681 0.7731 0.9749
1.9424 5.6730 0.7363 0.9761
1.2056 5.6776 0.7127 0.9769
0.5048 5.6819 0.7004 0.9773
-0.1821 5.6861 0.6985 0.9773
-9.7061 63.0903 7.8376 0.7732
-1.5962 5.6948 0.7262 0.9764
-2.3689 5.6995 0.7579 0.9754
-4.2092 5.7108 0.8711 0.9718
-8.8250 5.7032 1.2902 0.9585
-28.9137 -34.5396 5.5307 0.8340
-17.8063 -36.3310 4.9679 0.8495
-12.7656 -36.6611 4.7665 0.8552
-10.4765 -48.1025 6.0447 0.8200
14.1917 -51.6647 6.5786 0.8058
24.4588 -43.7946 6.1591 0.8170
42.3774 -45.4345 7.6286 0.7785
55.5382 -27.3993 7.6039 0.7791
73.0295 -25.6425 9.5036 0.7320
55.6810 -12.2787 7.0010 0.7947
55.6826 -5.3853 6.8689 0.7982
26.3741 19.1237 4.0000 0.8770
2.0084 5.6726 0.7389 0.9760
1.2674 5.6772 0.7142 0.9768
-0.1229 5.6857 0.6983 0.9773
-0.8142 5.6853 0.7052 0.9771
-1.5324 5.6944 0.7241 0.9765
-4.1179 5.7103 0.8644 0.9720
-5.2774 5.7174 0.9554 0.9691
-6.7332 5.7263 1.0853 0.9650
-8.6358 5.7091 1.2711 0.9591
-5.5816 2.7898 0.7662 0.9752
-68.1192 -18.1412 8.6555 0.7527
-88.9343 -35.6148 11.7628 0.6797
-15.7117 -31.2310 4.2926 0.8686
-13.1938 -36.6584 4.7837 0.8547
16.7008 -42.0200 5.5520 0.8334
23.9951 -44.0341 6.1573 0.8170
32.2675 -45.2397 6.8229 0.7994
41.2921 -45.2045 7.5175 0.7813
54.8052 -27.7501 7.5427 0.7807
41.0138 16.1776 5.4135 0.8372
4.8859 5.6549 0.9176 0.9703
2.0749 5.6722 0.7416 0.9760
1.3295 5.6768 0.7159 0.9768
-0.0638 5.6854 0.6981 0.9773
-1.4690 5.6940 0.7220 0.9766
-2.2307 5.6987 0.7514 0.9756
-3.0698 5.7038 0.7953 0.9742
-5.1677 5.7167 0.9462 0.9694
-6.5920 5.7255 1.0721 0.9654
-1.3682 5.6934 0.5123 0.9768
-2.9482 5.7031 0.5617 0.9746
-10.7685 5.7512 1.0681 0.9522
-32.8783 -36.4155 4.2923 0.8212
-11.1776 -43.4353 3.9239 0.8352
22.9939 -45.0532 4.4253 0.8162
30.5191 -45.3316 4.7811 0.8030
48.6902 -44.1910 5.7527 0.7680
51.1128 -27.6406 5.0838 0.7919
55.5459 -21.8709 5.2228 0.7869
55.6343 -7.4911 4.9113 0.7982
55.5831 -0.7344 4.8633 0.8000
48.9323 5.2765 4.3058 0.8207
51.3559 11.9190 4.6125 0.8092
44.4430 16.1565 4.1372 0.8271
33.7652 17.1222 3.3122 0.8590
26.2646 17.5834 2.7653 0.8808
6.5596 5.6447 0.7571 0.9658
4.0320 5.6602 0.6080 0.9725
25.9500 47.6898 4.7500 0.8041
2.2500 5.6711 0.5338 0.9758
0.0899 5.6844 0.4974 0.9774
-0.5985 5.6887 0.5004 0.9773
-1.3057 5.6930 0.5110 0.9768
-2.0545 5.6976 0.5299 0.9760
-3.8001 5.7083 0.6000 0.9728
-4.8801 5.7010 0.6565 0.9703
-8.0056 5.7342 0.8615 0.9612
-10.5011 5.7495 1.0474 0.9531
-54.2348 -27.1488 5.3062 0.7839
-26.2495 -36.4467 3.9296 0.8350
-19.2663 -34.9725 3.4933 0.8519
-11.6597 -43.4323 3.9344 0.8348
-11.4650 -80.4001 7.1053 0.7217
-1.2967 -61.6979 5.3991 0.7805
12.6381 -56.4504 5.0610 0.7927
48.3446 -44.8031 5.7666 0.7675
51.1085 -28.3292 5.1124 0.7909
52.7803 -21.4187 4.9834 0.7956
55.5876 -15.0780 5.0390 0.7935
55.6307 -8.0805 4.9181 0.7979
55.5795 -1.3126 4.8639 0.7999
26.2622 17.1889 2.7460 0.8816
6.6982 5.6438 0.7663 0.9654
5.2659 5.6526 0.6759 0.9695
0.8401 5.6798 0.5023 0.9772
-1.2434 5.6926 0.5098 0.9769
-1.9876 5.6972 0.5279 0.9761
-19.6789 23.4792 2.6803 0.8843
-14.0116 5.7711 1.3258 0.9410
-74.2200 -36.1925 7.2243 0.7178
-26.3603 -35.8092 3.8902 0.8365
-15.2053 -36.6461 3.4711 0.8527
-12.1446 -43.4294 3.9453 0.8344
15.1027 -44.0236 4.0719 0.8295
21.0478 -43.4489 4.2239 0.8238
29.0373 -45.1291 4.6950 0.8062
37.4703 -45.1814 5.1354 0.7900
51.1043 -29.0258 5.1419 0.7898
55.5376 -23.2133 5.2663 0.7853
49.5805 4.3053 4.3541 0.8189
51.3489 10.7970 4.5907 0.8100
35.7634 17.2099 3.4723 0.8527
6.8403 5.6429 0.7758 0.9650
5.3762 5.6519 0.6825 0.9692
1.6188 5.6750 0.5163 0.9766
0.9005 5.6794 0.5031 0.9772
0.2082 5.6837 0.4976 0.9774
-1.9213 5.6968 0.5260 0.9761
-5.9840 5.7217 0.7243 0.9673
-9.9960 5.7464 1.0087 0.9548
-26.3555 -35.0337 3.8355 0.8386
-19.9838 -34.5541 3.4923 0.8519
-12.4909 -42.9406 3.9125 0.8356
17.5938 -87.0400 7.7690 0.7001
14.7739 -44.5701 4.1080 0.8282
20.0060 -42.4175 4.1031 0.8284
51.0999 -29.7303 5.1723 0.7887
49.8765 -21.4591 4.7504 0.8041
53.1420 10.5982 4.7409 0.8045
50.5754 16.6187 4.6575 0.8075
36.0998 16.9117 3.4877 0.8521
26.8155 16.7650 2.7668 0.8807
26.2871 21.2300 2.9562 0.8731
5.4886 5.6512 0.6892 0.9689
2.4569 5.6699 0.5406 0.9755
1.6827 5.6746 0.5178 0.9765
0.9611 5.6791 0.5039 0.9771
0.2674 5.6833 0.4978 0.9774
-0.4195 5.6876 0.4989 0.9774
-1.1198 5.6918 0.5075 0.9770
-2.6528 5.7013 0.5502 0.9751
-4.5896 5.7132 0.6411 0.9710
-26.5350 -34.5190 3.8092 0.8396
-16.1043 -36.6406 3.5016 0.8515
-10.5466 -60.4097 5.3651 0.7817
17.0772 -89.2536 7.9503 0.6943
14.5581 -45.4978 4.1793 0.8255
19.5599 -42.6145 4.1023 0.8284
27.8416 -45.3151 4.6531 0.8077
35.0196 -44.0602 4.9240 0.7977
45.8523 -45.2326 5.6350 0.7721
51.0955 -30.4435 5.2036 0.7876
55.4836 -16.9248 5.0750 0.7922
55.6197 -9.8596 4.9420 0.7971
55.7450 10.5156 4.9631 0.7963
51.3827 16.2939 4.7160 0.8054
36.2583 16.5283 3.4862 0.8521
27.4403 16.7611 2.8131 0.8789
5.6033 5.6505 0.6962 0.9686
2.5271 5.6694 0.5431 0.9754
1.7470 5.6742 0.5194 0.9764
0.3266 5.6830 0.4980 0.9774
-0.3600 5.6872 0.4986 0.9774
-3.4652 5.7063 0.5841 0.9736
-5.7386 5.7202 0.7089 0.9680
-9.5268 5.7435 0.9732 0.9563
-12.7785 5.7358 1.2254 0.9453
-18.6645 5.7997 1.7100 0.9245
-22.2056 -36.6165 3.7466 0.8420
-12.4714 -39.7699 3.6465 0.8459
-10.4639 -56.4620 5.0239 0.7941
27.0776 -45.1173 4.6036 0.8095
44.8515 -45.1757 5.5695 0.7744
51.4853 -40.6528 5.7393 0.7684
51.0911 -31.1654 5.2359 0.7864
55.6580 -3.6349 4.8798 0.7993
55.7413 9.9157 4.9533 0.7967
5.7203 5.6498 0.7034 0.9682
3.4750 5.6636 0.5813 0.9737
0.3860 5.6826 0.4983 0.9774
-0.3006 5.6868 0.4982 0.9774
-0.9971 5.6911 0.5055 0.9771
-3.3842 5.7058 0.5804 0.9737
-7.1786 5.7291 0.8035 0.9638
-67.4035 -20.2227 6.1567 0.7538
-22.7276 -36.6133 3.7702 0.8411
-17.0195 -36.6350 3.5341 0.8503
-12.3889 -38.1141 3.5063 0.8514
-10.9271 -55.7215 4.9679 0.7961
15.5477 -91.5360 8.1231 0.6888
13.9810 -47.0438 4.2937 0.8211
55.6124 -11.0558 4.9607 0.7964
55.6544 -4.2162 4.8831 0.7992
55.7377 9.3183 4.9441 0.7970
18.9180 5.5687 1.7253 0.9239
28.7550 16.7530 2.9116 0.8749
26.2789 19.9014 2.8840 0.8760
3.5563 5.6631 0.5851 0.9735
2.6694 5.6686 0.5482 0.9752
1.8768 5.6734 0.5228 0.9763
0.4454 5.6822 0.4987 0.9774
-5.5033 5.7188 0.6944 0.9686
-9.0892 5.7408 0.9405 0.9578
-12.1488 5.7596 1.1763 0.9474
-66.1222 -19.0908 6.0212 0.7586
-29.9793 -36.5789 4.1377 0.8270
-23.2566 -36.6101 3.7946 0.8402
-10.4717 -50.6063 4.5213 0.8126
14.7031 -92.3732 8.1833 0.6869
13.4684 -47.1078 4.2865 0.8214
18.0507 -42.8004 4.0639 0.8298
33.4307 -44.8664 4.8951 0.7988
43.0125 -45.1643 5.4566 0.7785
51.1262 -42.1247 5.7957 0.7664
51.0845 -32.6382 5.3036 0.7840
55.4166 -26.6262 5.3789 0.7812
55.6087 -11.6576 4.9709 0.7960
55.5994 1.9254 4.8672 0.7998
55.7340 8.7228 4.9354 0.7973
19.6547 5.5642 1.7871 0.9213
38.6736 16.1920 3.6681 0.8451
4.6851 5.6562 0.6426 0.9709
3.6386 5.6626 0.5889 0.9733
2.7415 5.6681 0.5509 0.9750
1.9424 5.6730 0.5246 0.9762
1.2056 5.6776 0.5078 0.9770
-0.1821 5.6861 0.4977 0.9774
-9.7061 63.0903 5.5846 0.7739
-1.5962 5.6948 0.5174 0.9765
-3.2251 5.7048 0.5733 0.9740
-5.3892 5.7181 0.6874 0.9689
-42.4601 -39.8100 5.0922 0.7916
-30.6176 -36.5750 4.1731 0.8257
-17.9525 -36.6293 3.5688 0.8489
-12.7656 -36.6611 3.3963 0.8557
-11.0211 -50.6029 4.5310 0.8122
17.5180 -42.7745 4.0440 0.8306
24.4529 -43.7840 4.3875 0.8176
32.9194 -45.1529 4.8888 0.7990
18.4272 -19.7565 2.3636 0.8972
53.7348 -45.2205 6.1444 0.7543
55.4123 -27.3371 5.4058 0.7803
55.6050 -12.2620 4.9817 0.7956
55.6473 -5.3819 4.8912 0.7989
55.5959 1.3466 4.8654 0.7999
39.8143 16.1850 3.7601 0.8415
30.1654 16.7443 3.0185 0.8706
6.0866 5.6476 0.7264 0.9672
4.7846 5.6556 0.6481 0.9707
3.7221 5.6621 0.5928 0.9732
2.0084 5.6726 0.5265 0.9761
1.2674 5.6772 0.5089 0.9769
0.5644 5.6815 0.4995 0.9773
-0.8142 5.6853 0.5025 0.9772
-2.2995 5.6991 0.5377 0.9756
-3.1470 5.7043 0.5700 0.9742
-4.1179 5.7103 0.6159 0.9721
-5.2774 5.7174 0.6807 0.9692
-8.6358 5.7091 0.9057 0.9593
-5.5816 2.7898 0.5459 0.9753
-17.4906 -34.7672 3.4050 0.8553
-9.3268 -89.1703 7.8440 0.6977
14.3667 -54.5155 4.9323 0.7974
23.9880 -44.0210 4.3860 0.8177
51.0752 -34.1488 5.3753 0.7814
54.4054 -27.5477 5.3352 0.7828
55.6012 -12.8690 4.9931 0.7952
55.5923 0.7680 4.8642 0.7999
49.4087 6.6831 4.3621 0.8186
41.0139 16.1776 3.8573 0.8378
30.9106 16.7398 3.0754 0.8684
6.2142 5.6468 0.7346 0.9668
4.8859 5.6549 0.6538 0.9704
2.0749 5.6722 0.5284 0.9760
1.3295 5.6768 0.5101 0.9769
-0.7523 5.6731 0.5007 0.9773
-3.0698 5.7038 0.5667 0.9743
-4.0279 5.7097 0.6113 0.9723
-8.4850 5.7371 0.8961 0.9597
-1.3657 5.6826 0.3063 0.9769
-2.9402 5.6876 0.3355 0.9747
-3.8769 5.6944 0.3610 0.9728
-8.1856 5.7353 0.5238 0.9608
-72.2143 -37.0931 4.2547 0.7224
-31.1721 -34.5258 2.4378 0.8300
-18.5747 -34.5627 2.0564 0.8546
-10.4303 -40.5312 2.1934 0.8457
13.7309 -58.4719 3.1477 0.7862
30.3883 -45.1374 2.8517 0.8042
30.0510 -27.2742 2.1268 0.8500
51.3513 -36.3791 3.2981 0.7772
60.5456 -15.7487 3.2786 0.7783
60.4948 -8.1455 3.1990 0.7831
44.0644 4.7516 2.3227 0.8373
44.4430 16.1565 2.4783 0.8274
33.7652 17.1222 1.9841 0.8593
6.5549 5.6406 0.4532 0.9660
25.9500 47.6897 2.8454 0.8046
2.2500 5.6711 0.3197 0.9759
1.4921 5.6758 0.3076 0.9768
-0.5985 5.6887 0.2998 0.9773
-1.3032 5.6822 0.3055 0.9769
-2.8673 5.6909 0.3340 0.9748
-6.2405 5.7233 0.4438 0.9667
-8.0056 5.7342 0.5161 0.9613
-10.5011 5.7495 0.6274 0.9532
-14.4428 5.7737 0.8152 0.9396
-21.9052 5.8196 1.1878 0.9132
-31.8264 -34.5218 2.4607 0.8286
-24.8936 -34.5641 2.2323 0.8431
-13.9285 -34.5806 1.9538 0.8613
-10.3838 -38.6795 2.0989 0.8518
51.1085 -28.3292 3.0624 0.7913
60.6052 -24.5941 3.4277 0.7695
60.5501 -16.4240 3.2880 0.7778
60.4991 -8.7876 3.2039 0.7828
44.2695 4.3085 2.3310 0.8368
25.0111 5.5312 1.3424 0.9025
45.8994 16.1475 2.5500 0.8229
34.8429 17.2156 2.0368 0.8558
26.2622 17.1889 1.6449 0.8819
4.1210 5.6596 0.3669 0.9723
3.1392 5.6288 0.3378 0.9745
2.3184 5.6707 0.3211 0.9758
0.8401 5.6798 0.3009 0.9773
0.1490 5.6841 0.2980 0.9775
-1.9841 5.6870 0.3157 0.9762
-3.7048 5.6927 0.3560 0.9732
-10.2438 5.7479 0.6156 0.9540
-14.0116 5.7711 0.7942 0.9411
-19.5087 -34.5570 2.0797 0.8530
-14.3472 -34.5780 1.9620 0.8608
-10.3760 -37.1051 2.0192 0.8570
-12.3185 -80.3948 4.2625 0.7220
18.6068 -87.3622 4.6811 0.6992
15.6647 -45.6616 2.5299 0.8242
21.8181 -45.0393 2.6228 0.8184
29.0373 -45.1291 2.8124 0.8066
28.8150 -27.2666 2.0791 0.8531
60.5547 -17.1034 3.2977 0.7772
60.5034 -9.4318 3.2091 0.7825
48.8869 16.6292 2.7062 0.8132
35.7634 17.2099 2.0800 0.8530
4.2114 5.6591 0.3697 0.9721
3.2371 5.6651 0.3419 0.9742
2.3874 5.6703 0.3224 0.9757
1.6188 5.6750 0.3093 0.9766
0.9005 5.6794 0.3014 0.9772
-1.1792 5.6813 0.3041 0.9770
-2.7212 5.6925 0.3307 0.9750
-3.6206 5.6919 0.3535 0.9733
-5.9840 5.7217 0.4339 0.9674
-7.6609 5.7321 0.5014 0.9624
-9.9960 5.7464 0.6043 0.9549
-13.6021 5.7686 0.7743 0.9425
-58.7650 -27.9033 3.4093 0.7706
-19.9838 -34.5541 2.0919 0.8522
-11.7016 -27.3936 1.5611 0.8875
-10.3651 -35.6329 1.9448 0.8619
28.3754 -45.1250 2.7936 0.8077
28.2174 -27.2629 2.0563 0.8546
51.4957 -38.9499 3.3838 0.7721
51.5483 -29.9912 3.1255 0.7875
60.5593 -17.7867 3.3078 0.7766
60.5077 -10.0781 3.2148 0.7822
60.4587 -2.6869 3.1716 0.7847
60.4108 4.6133 3.1752 0.7845
26.8155 16.7649 1.6574 0.8810
8.2411 6.6556 0.5552 0.9585
5.4886 5.6512 0.4129 0.9689
3.3154 5.6646 0.3440 0.9741
1.6827 5.6746 0.3102 0.9766
-1.1180 5.6827 0.3035 0.9771
-1.8520 5.6861 0.3134 0.9763
-5.8600 5.7210 0.4292 0.9677
-7.4957 5.7310 0.4945 0.9629
17.0923 -89.3329 4.7667 0.6947
14.3519 -44.8535 2.4681 0.8281
20.1368 -43.8715 2.5298 0.8242
27.6667 -45.0305 2.7698 0.8092
27.6328 -27.2593 2.0342 0.8560
51.5439 -30.7106 3.1444 0.7864
50.7672 -22.4709 2.9096 0.8006
51.4220 16.3063 2.8272 0.8057
8.3274 6.5835 0.5563 0.9584
5.6033 5.6505 0.4170 0.9686
0.3266 5.6830 0.2983 0.9775
-0.3600 5.6872 0.2986 0.9774
-1.0572 5.6855 0.3031 0.9771
-3.4554 5.6902 0.3489 0.9737
-12.7785 5.7358 0.7341 0.9454
-32.2115 5.8829 1.7161 0.8771
-88.7209 -5.3847 4.6582 0.7005
-11.0674 -35.2926 1.9384 0.8623
-10.5245 -56.7890 3.0269 0.7935
16.2686 -90.0962 4.7981 0.6930
19.5214 -43.7250 2.5095 0.8255
27.0231 -45.0265 2.7521 0.8103
25.6488 -32.9686 2.1891 0.8459
51.4853 -40.6528 3.4380 0.7689
51.1147 -23.2635 2.9432 0.7986
60.5686 -19.1667 3.3294 0.7753
60.5163 -11.3780 3.2271 0.7814
60.4670 -3.9490 3.1757 0.7845
60.4191 3.3516 3.1713 0.7848
60.3487 10.7353 3.2124 0.7823
18.2302 5.5729 0.9990 0.9265
6.7480 6.6648 0.4971 0.9627
4.4910 5.6574 0.3786 0.9715
3.4750 5.6636 0.3482 0.9737
1.8117 5.6738 0.3121 0.9764
1.0829 5.6783 0.3030 0.9771
0.3860 5.6826 0.2985 0.9774
-0.9967 5.6884 0.3027 0.9771
-1.7218 5.6851 0.3113 0.9765
-3.3745 5.6894 0.3467 0.9739
-4.3869 5.6997 0.3769 0.9716
-5.6197 5.7195 0.4202 0.9684
-7.1715 5.7234 0.4809 0.9639
-9.3043 5.7421 0.5730 0.9572
-12.4871 5.7617 0.7207 0.9464
-17.9887 5.7955 0.9905 0.9271
-30.3591 5.8716 1.6205 0.8835
-67.2681 -20.1820 3.6806 0.7548
-35.2961 -34.5005 2.5867 0.8206
-11.4337 -35.1756 1.9384 0.8623
-10.5048 -53.5680 2.8608 0.8036
15.4470 -90.9431 4.8344 0.6911
18.9554 -43.6713 2.4950 0.8264
25.6550 -43.7720 2.6590 0.8161
25.6444 -33.6797 2.2185 0.8440
51.2959 -41.3763 3.4539 0.7680
60.5207 -12.0316 3.2338 0.7810
60.4232 2.7220 3.1699 0.7848
28.7550 16.7530 1.7441 0.8752
26.2789 19.9014 1.7276 0.8763
3.5563 5.6631 0.3505 0.9736
1.8768 5.6734 0.3132 0.9763
1.1442 5.6779 0.3035 0.9771
0.4454 5.6822 0.2987 0.9774
-0.2413 5.6865 0.2983 0.9775
-1.6573 5.6847 0.3103 0.9766
-2.4348 5.6904 0.3244 0.9755
-3.2945 5.6886 0.3445 0.9740
-5.5033 5.7188 0.4159 0.9687
-12.1488 5.7596 0.7046 0.9476
-66.1107 -19.0875 3.6062 0.7591
-36.0338 -34.4960 2.6143 0.8189
-28.3110 -34.5433 2.3407 0.8362
-21.9683 -34.5820 2.1471 0.8487
-10.4564 -50.5323 2.7044 0.8133
14.6026 -91.7418 4.8685 0.6893
25.0448 -43.7682 2.6428 0.8171
25.9507 -27.2490 1.9721 0.8601
44.4320 -21.3484 2.5834 0.8208
60.5780 -20.5652 3.3527 0.7740
60.5251 -12.6883 3.2409 0.7806
44.2563 6.9264 2.3476 0.8357
19.6547 5.5642 1.0705 0.9214
29.4474 16.7488 1.7754 0.8731
26.2763 19.4729 1.7140 0.8772
7.0329 6.6631 0.5077 0.9619
1.9424 5.6730 0.3143 0.9763
1.2056 5.6776 0.3042 0.9770
-0.1821 5.6861 0.2981 0.9775
-9.5521 62.0894 3.2922 0.7775
-2.3649 5.6898 0.3229 0.9756
-3.2155 5.6879 0.3424 0.9742
-4.1996 5.6978 0.3710 0.9720
-6.8556 5.7087 0.4675 0.9649
-8.8250 5.7032 0.5507 0.9588
-11.8253 5.7577 0.6893 0.9487
-16.7151 5.7716 0.9268 0.9316
-28.9137 -34.5396 2.3607 0.8349
-18.4241 -28.3471 1.7718 0.8733
-16.9394 -34.5622 2.0172 0.8571
-12.1629 -34.9302 1.9384 0.8623
-10.4765 -48.1025 2.5800 0.8210
15.7332 -57.2765 3.1129 0.7883
18.2102 -44.4646 2.5181 0.8249
24.4420 -43.7645 2.6271 0.8181
60.5295 -13.3479 3.2484 0.7801
60.4314 1.4637 3.1680 0.7850
20.4466 5.5593 1.1105 0.9186
26.2737 19.0508 1.7008 0.8781
4.7846 5.6556 0.3882 0.9708
3.7221 5.6621 0.3551 0.9732
1.2674 5.6772 0.3049 0.9770
-1.5295 5.6837 0.3085 0.9767
-2.2956 5.6893 0.3215 0.9757
-3.1375 5.6871 0.3404 0.9743
-4.1082 5.6968 0.3681 0.9723
-25.8606 5.8439 1.3895 0.8992
-89.3991 -35.8009 5.0469 0.6800
-10.4621 -45.7427 2.4592 0.8287
14.4791 -54.9421 2.9777 0.7965
17.5421 -44.1367 2.4891 0.8268
25.6786 -28.1117 1.9954 0.8586
60.5339 -14.0107 3.2563 0.7797
43.5634 5.8924 2.3039 0.8385
21.2999 5.5541 1.1536 0.9156
41.0139 16.1776 2.3106 0.8381
30.9106 16.7398 1.8423 0.8687
26.2711 18.6352 1.6880 0.8790
4.8859 5.6549 0.3917 0.9705
3.8067 5.6616 0.3575 0.9730
2.8881 5.6672 0.3333 0.9748
2.0749 5.6722 0.3165 0.9761
1.3295 5.6768 0.3056 0.9769
0.6241 5.6811 0.2995 0.9774
-0.7523 5.6731 0.2999 0.9773
-1.4662 5.6833 0.3076 0.9768
-4.0181 5.6959 0.3653 0.9725
-5.1677 5.7167 0.4039 0.9696
-6.5829 5.7176 0.4570 0.9657
-8.4850 5.7371 0.5368 0.9598
-2.9326 5.6730 0.1115 0.9748
-3.8547 5.6618 0.1196 0.9730
-6.3732 5.7241 0.1495 0.9663
-10.7329 5.7322 0.2124 0.9525
-14.8975 5.7765 0.2789 0.9381
-72.2180 -37.0950 1.4171 0.7227
-30.8422 -34.1604 0.8033 0.8318
-18.3529 -34.1500 0.6767 0.8563
-13.3559 -34.1806 0.6405 0.8635
-10.0257 -38.9591 0.7022 0.8513
-9.5220 -72.1354 1.2700 0.7474
21.6153 -58.9810 1.0965 0.7778
25.5999 -38.0249 0.8001 0.8324
25.6690 -29.6732 0.6848 0.8547
30.0510 -27.2742 0.7084 0.8501
41.3002 -22.3342 0.8196 0.8287
82.1674 -21.3728 1.4820 0.7120
41.9293 4.5214 0.7361 0.8447
33.7652 17.1222 0.6608 0.8595
26.3350 17.6304 0.5532 0.8809
4.0320 5.6602 0.1213 0.9726
2.2500 5.6711 0.1065 0.9759
0.7799 5.6802 0.1001 0.9773
0.0899 5.6844 0.0992 0.9775
-0.5985 5.6887 0.0998 0.9774
-3.7687 5.6612 0.1187 0.9732
-8.0056 5.7342 0.1719 0.9614
-14.4429 5.7737 0.2715 0.9397
-26.3651 -36.6073 0.7875 0.8349
-13.7663 -34.1781 0.6432 0.8629
-10.0156 -37.3078 0.6743 0.8568
-9.5595 -67.0380 1.1820 0.7627
25.6074 -38.9033 0.8130 0.8300
29.4037 -27.2497 0.6998 0.8518
40.5418 -22.4721 0.8091 0.8307
45.8712 4.4644 0.8044 0.8316
25.0111 5.5312 0.4471 0.9026
25.9357 9.1242 0.4799 0.8958
34.8429 17.2156 0.6784 0.8560
6.8108 5.7386 0.1555 0.9650
5.2659 5.6526 0.1348 0.9696
3.1392 5.6288 0.1125 0.9745
0.8401 5.6798 0.1002 0.9773
-0.5387 5.6883 0.0997 0.9774
-1.2400 5.6770 0.1014 0.9770
-3.6839 5.6605 0.1179 0.9733
-7.8307 5.7331 0.1694 0.9619
-14.0116 5.7711 0.2645 0.9412
-20.9800 5.8081 0.3800 0.9166
-71.4174 -34.8259 1.3869 0.7277
-32.1472 -34.1501 0.8186 0.8289
-26.3603 -35.8092 0.7761 0.8370
-10.1818 -66.4495 1.1734 0.7642
31.0261 -90.4391 1.6689 0.6821
25.6612 -30.9422 0.7017 0.8514
36.8810 -27.2973 0.8009 0.8323
39.8871 -22.6547 0.8007 0.8323
66.0794 -27.6195 1.2501 0.7509
51.3489 10.7970 0.9159 0.8106
6.8508 5.6516 0.1550 0.9651
5.3762 5.6519 0.1362 0.9693
4.2114 5.6591 0.1231 0.9722
3.2371 5.6651 0.1139 0.9742
0.9005 5.6794 0.1004 0.9773
0.2082 5.6837 0.0993 0.9775
-1.1789 5.6798 0.1013 0.9771
-1.9131 5.6725 0.1045 0.9763
-2.7141 5.6778 0.1098 0.9751
-3.6002 5.6599 0.1171 0.9735
-5.9840 5.7217 0.1445 0.9674
-9.9647 5.7284 0.2006 0.9551
-20.1651 5.8089 0.3663 0.9195
-32.8273 -34.1539 0.8269 0.8274
-12.3421 -42.4293 0.7713 0.8380
-10.8896 -66.4452 1.1753 0.7639
29.9763 -90.4328 1.6630 0.6831
21.5436 -45.6776 0.8815 0.8171
28.2174 -27.2629 0.6849 0.8547
53.1419 10.5982 0.9459 0.8051
26.8156 16.7650 0.5520 0.8812
5.4886 5.6512 0.1375 0.9690
3.3154 5.6646 0.1146 0.9741
2.4569 5.6699 0.1079 0.9756
0.9611 5.6791 0.1005 0.9772
-0.4195 5.6876 0.0995 0.9774
-1.1180 5.6827 0.1011 0.9771
-1.8475 5.6721 0.1041 0.9764
-2.6417 5.6773 0.1093 0.9753
-3.5177 5.6593 0.1163 0.9737
-5.8600 5.7210 0.1429 0.9678
-7.4957 5.7310 0.1647 0.9630
-9.7262 5.7267 0.1970 0.9558
-13.2124 5.7662 0.2516 0.9440
-19.3881 5.8041 0.3533 0.9222
-34.2959 5.8957 0.6074 0.8700
-66.2035 -21.3732 1.2143 0.7571
-26.5350 -34.5190 0.7600 0.8401
-20.4645 -34.5511 0.7009 0.8516
-12.3322 -40.8080 0.7441 0.8432
-11.5996 -66.4408 1.1773 0.7635
16.1188 -50.3755 0.9232 0.8093
25.6530 -32.2756 0.7196 0.8479
35.3323 -27.3066 0.7794 0.8364
82.0271 5.4065 1.4349 0.7197
37.7270 17.1978 0.7237 0.8472
27.5538 16.8305 0.5636 0.8788
5.6033 5.6505 0.1389 0.9687
3.3947 5.6641 0.1153 0.9739
1.0219 5.6787 0.1007 0.9772
0.3266 5.6830 0.0994 0.9775
-2.5700 5.6768 0.1088 0.9754
-7.3350 5.7301 0.1625 0.9634
-9.4961 5.7250 0.1935 0.9566
-18.6645 5.7997 0.3412 0.9248
-32.2116 5.8829 0.5716 0.8772
-68.2277 -68.0913 1.6825 0.6800
-27.1081 -34.5155 0.7661 0.8390
-23.2346 -38.3133 0.7821 0.8359
-12.3229 -39.2964 0.7189 0.8481
25.6488 -32.9686 0.7291 0.8461
88.2098 4.8932 1.5421 0.7023
28.2025 16.8265 0.5732 0.8769
3.4750 5.6636 0.1160 0.9738
2.5979 5.6690 0.1088 0.9754
1.8117 5.6738 0.1040 0.9765
0.3860 5.6826 0.0994 0.9775
-0.9967 5.6884 0.1008 0.9772
-3.3559 5.6581 0.1148 0.9740
-5.6197 5.7195 0.1400 0.9684
-7.1786 5.7291 0.1603 0.9639
-9.2740 5.7235 0.1902 0.9573
-17.9887 5.7955 0.3299 0.9272
-65.7450 -19.7250 1.1981 0.7599
-73.9614 -32.3314 1.4090 0.7240
-27.6903 -34.5120 0.7723 0.8378
-23.7808 -38.3100 0.7871 0.8349
-12.7350 -27.4125 0.5275 0.8861
-12.3143 -37.8847 0.6953 0.8527
16.9878 -57.1609 1.0409 0.7878
21.5196 -49.5790 0.9434 0.8056
25.6444 -33.6797 0.7389 0.8442
26.4999 -27.2523 0.6635 0.8589
33.8418 -27.2975 0.7589 0.8403
29.0172 -18.1170 0.5971 0.8721
84.5643 -27.7306 1.5534 0.7004
39.8755 17.1846 0.7579 0.8405
28.8740 16.8223 0.5833 0.8749
26.3493 19.9547 0.5769 0.8761
4.5872 5.6568 0.1271 0.9713
3.5563 5.6631 0.1167 0.9736
2.6694 5.6686 0.1094 0.9752
0.4454 5.6822 0.0995 0.9775
-0.2413 5.6865 0.0993 0.9775
-0.9317 5.6634 0.1002 0.9773
-1.6533 5.6708 0.1031 0.9766
-2.4286 5.6759 0.1078 0.9756
-3.2765 5.6575 0.1141 0.9742
-5.5033 5.7188 0.1385 0.9687
-9.0690 5.7280 0.1872 0.9580
-12.0814 5.7277 0.2334 0.9479
-17.3561 5.7916 0.3194 0.9294
-28.6105 5.8427 0.5097 0.8897
-24.3343 -38.3066 0.7921 0.8340
-12.3062 -36.5618 0.6734 0.8570
-10.4564 -50.5325 0.9007 0.8135
25.8490 -90.4106 1.6413 0.6865
21.7078 -51.4718 0.9751 0.7997
24.1016 -42.1199 0.8471 0.8235
25.6399 -34.4106 0.7490 0.8423
25.9507 -27.2490 0.6568 0.8602
42.8117 -27.3526 0.8868 0.8161
45.5708 -21.8956 0.8825 0.8169
41.7289 6.5309 0.7372 0.8445
41.0275 17.1775 0.7764 0.8370
4.6851 5.6562 0.1282 0.9710
2.7415 5.6681 0.1099 0.9751
1.9424 5.6730 0.1047 0.9763
0.5048 5.6819 0.0996 0.9774
-0.1821 5.6861 0.0993 0.9775
-2.3589 5.6754 0.1073 0.9757
-3.2000 5.6604 0.1135 0.9743
-4.1748 5.6642 0.1228 0.9722
-6.8779 5.7272 0.1562 0.9648
-16.7151 5.7716 0.3087 0.9317
-42.8065 -1.2595 0.7475 0.8425
-18.3824 -28.2829 0.5888 0.8738
-12.7154 -36.5169 0.6749 0.8567
-8.4093 -89.3733 1.5669 0.6983
23.7907 -86.6097 1.5678 0.6981
21.5017 -52.5017 0.9903 0.7969
18.4120 -19.7402 0.4712 0.8976
32.4268 -27.2888 0.7398 0.8440
45.5672 -22.4802 0.8869 0.8161
20.4230 5.5529 0.3694 0.9188
26.3440 19.1018 0.5680 0.8779
3.7221 5.6621 0.1183 0.9733
2.8144 5.6677 0.1105 0.9750
2.0084 5.6726 0.1050 0.9762
0.5644 5.6815 0.0997 0.9774
-0.1229 5.6857 0.0993 0.9775
-2.2898 5.6750 0.1068 0.9758
-4.0842 5.6635 0.1219 0.9725
-5.2774 5.7174 0.1358 0.9694
-8.6358 5.7091 0.1807 0.9594
-30.4424 -0.5789 0.5315 0.8853
-64.2410 -17.1083 1.1604 0.7665
-25.4633 -38.2997 0.8028 0.8319
-13.1419 -36.5143 0.6774 0.8562
-9.2618 -88.5481 1.5540 0.7003
21.4919 -54.0746 1.0157 0.7923
22.9461 -42.1091 0.8371 0.8254
25.6305 -35.9346 0.7704 0.8381
40.8927 -27.3408 0.8586 0.8214
40.0595 5.4185 0.7056 0.8507
43.5102 17.1622 0.8164 0.8293
4.8859 5.6549 0.1304 0.9705
3.8067 5.6616 0.1191 0.9731
2.0749 5.6722 0.1054 0.9761
0.6241 5.6811 0.0998 0.9774
-0.0638 5.6854 0.0992 0.9775
-2.2212 5.6745 0.1064 0.9759
-3.9948 5.6629 0.1210 0.9727
-10.6826 5.7053 -0.2114 0.9527
-66.9117 -7.5676 -1.1754 0.7638
-46.9659 -11.1580 -0.8426 0.8244
-81.6110 -30.1496 -1.5186 0.7061
-66.0628 -33.9333 -1.2963 0.7430
-15.7508 -22.3563 -0.4774 0.8964
-12.5023 -23.2636 -0.4610 0.8997
21.6908 -42.5000 -0.8329 0.8262
25.6690 -29.6732 -0.6848 0.8547
30.0510 -27.2742 -0.7084 0.8501
38.5731 -27.3265 -0.8251 0.8277
70.4051 -27.7217 -1.3208 0.7388
88.6545 -23.0602 -1.5990 0.6932
46.1237 16.7675 -0.8566 0.8217
26.2646 17.5834 -0.5517 0.8812
6.7586 5.8159 -0.1556 0.9650
4.0320 5.6602 -0.1213 0.9726
18.0737 33.2151 -0.6600 0.8596
0.7799 5.6802 -0.1001 0.9773
0.0899 5.6844 -0.0992 0.9775
-1.3013 5.6741 -0.1016 0.9770
-2.0407 5.6593 -0.1050 0.9762
-2.8527 5.6619 -0.1107 0.9750
-4.8801 5.7010 -0.1310 0.9704
-6.2405 5.7233 -0.1478 0.9667
-8.0056 5.7342 -0.1719 0.9614
-14.4429 5.7737 -0.2715 0.9397
-21.6872 5.7617 -0.3917 0.9141
-63.2250 8.8481 -1.1143 0.7746
-63.4778 1.1689 -1.1082 0.7757
-72.5484 -7.4417 -1.2730 0.7469
-56.0534 -12.7024 -1.0032 0.7946
-81.6818 -29.2141 -1.5142 0.7068
-21.3691 -23.1789 -0.5503 0.8815
-16.1395 -22.4094 -0.4820 0.8954
-9.9086 -24.6003 -0.4629 0.8993
-7.6105 -28.3489 -0.5123 0.8892
-6.5825 -46.1606 -0.8139 0.8298
21.0802 -42.3868 -0.8263 0.8275
29.4037 -27.2497 -0.6998 0.8518
42.8708 -23.7631 -0.8556 0.8219
25.0111 5.5312 -0.4471 0.9026
34.8429 17.2156 -0.6784 0.8560
26.2622 17.1889 -0.5479 0.8820
3.1392 5.6288 -0.1125 0.9745
1.5553 5.6754 -0.1027 0.9767
0.8401 5.6798 -0.1002 0.9773
-0.5387 5.6883 -0.0997 0.9774
-1.9743 5.6589 -0.1046 0.9763
-6.1108 5.7225 -0.1461 0.9671
-7.8307 5.7331 -0.1694 0.9619
-10.1631 5.7027 -0.2034 0.9544
-95.7691 14.4197 -1.6905 0.6788
-63.4738 1.8294 -1.1084 0.7757
-55.7809 -12.0321 -0.9960 0.7959
-81.6746 -28.2568 -1.5085 0.7077
-65.3714 -31.8776 -1.2695 0.7475
-67.0773 -55.9241 -1.5244 0.7051
-15.1455 -36.5020 -0.6898 0.8538
-7.7040 -27.5497 -0.4993 0.8919
31.0272 -90.4424 -1.6690 0.6821
26.9806 -41.9327 -0.8704 0.8192
25.6612 -30.9422 -0.7017 0.8514
36.8810 -27.2973 -0.8009 0.8323
51.5527 -29.2805 -1.0349 0.7888
66.0794 -27.6195 -1.2501 0.7509
35.7634 17.2099 -0.6928 0.8532
5.3762 5.6519 -0.1362 0.9693
4.2114 5.6591 -0.1231 0.9722
3.2371 5.6651 -0.1139 0.9742
2.3874 5.6703 -0.1074 0.9757
1.6188 5.6750 -0.1030 0.9767
0.9005 5.6794 -0.1004 0.9773
-0.4790 5.6879 -0.0996 0.9774
-2.7071 5.6631 -0.1096 0.9752
-5.9840 5.7217 -0.1445 0.9674
-9.9177 5.7014 -0.1997 0.9553
-20.1651 5.8089 -0.3663 0.9195
-63.2640 2.4820 -1.1051 0.7762
-81.8286 -27.3607 -1.5060 0.7081
-58.6199 -27.8345 -1.1327 0.7714
-69.4437 -43.9199 -1.4342 0.7198
-16.9296 -22.5043 -0.4916 0.8935
-13.1950 -22.8156 -0.4600 0.8999
-10.3668 -24.2688 -0.4606 0.8998
29.6800 -89.5391 -1.6465 0.6857
26.3644 -41.9270 -0.8645 0.8203
40.9206 -23.8079 -0.8264 0.8275
64.0429 -27.5541 -1.2169 0.7566
55.1703 11.0027 -0.9820 0.7985
36.0998 16.9117 -0.6958 0.8526
26.8156 16.7650 -0.5520 0.8812
26.2871 21.2300 -0.5898 0.8736
2.4569 5.6699 -0.1079 0.9756
1.6827 5.6746 -0.1033 0.9766
-0.4195 5.6876 -0.0995 0.9774
-1.1180 5.6827 -0.1011 0.9771
-1.8429 5.6582 -0.1039 0.9765
-2.6349 5.6627 -0.1090 0.9753
-5.8600 5.7210 -0.1429 0.9678
-7.4957 5.7310 -0.1647 0.9630
-13.2124 5.7662 -0.2516 0.9440
-95.9028 -6.8222 -1.6782 0.6807
-8.1025 -26.8117 -0.4889 0.8940
-6.5770 -37.6718 -0.6675 0.8581
16.6554 -36.2866 -0.6969 0.8524
25.7564 -41.9213 -0.8588 0.8213
25.6530 -32.2756 -0.7196 0.8479
27.6327 -27.2593 -0.6775 0.8562
35.3323 -27.3066 -0.7794 0.8364
45.9402 -27.3718 -0.9334 0.8074
63.9992 -28.3278 -1.2216 0.7558
56.0865 10.5801 -0.9963 0.7959
51.4220 16.3063 -0.9416 0.8059
34.5967 15.7709 -0.6637 0.8589
27.4403 16.7612 -0.5613 0.8793
4.3963 5.6580 -0.1251 0.9717
3.3947 5.6641 -0.1153 0.9739
2.5271 5.6694 -0.1083 0.9755
1.7470 5.6742 -0.1036 0.9765
1.0219 5.6787 -0.1007 0.9772
-1.7780 5.6578 -0.1035 0.9766
-5.7386 5.7202 -0.1414 0.9681
-7.3350 5.7301 -0.1625 0.9634
-12.7785 5.7358 -0.2445 0.9455
-32.2116 5.8829 -0.5716 0.8772
-63.2560 3.8008 -1.1061 0.7761
-88.6952 -5.3831 -1.5510 0.7008
-17.6526 -22.4763 -0.4989 0.8920
-13.7046 -22.5985 -0.4613 0.8997
-10.9210 -24.1620 -0.4628 0.8994
17.1303 -38.3693 -0.7335 0.8453
27.0602 -27.2558 -0.6704 0.8576
34.5769 -27.3020 -0.7690 0.8384
44.8612 -27.3652 -0.9172 0.8104
60.8102 -27.6762 -1.1662 0.7655
51.3792 15.7065 -0.9378 0.8066
4.4910 5.6574 -0.1261 0.9715
3.4750 5.6636 -0.1160 0.9738
2.5979 5.6690 -0.1088 0.9754
0.3860 5.6826 -0.0994 0.9775
-4.3347 5.6319 -0.1241 0.9720
-5.6197 5.7195 -0.1400 0.9684
-7.1786 5.7291 -0.1603 0.9639
-12.2789 5.6657 -0.2360 0.9473
-17.9887 5.7955 -0.3299 0.9272
-63.4575 4.4757 -1.1104 0.7753
-81.7607 -14.1061 -1.4482 0.7175
-65.8619 -19.7601 -1.2002 0.7595
-81.6979 -35.7134 -1.5563 0.7000
-26.2707 -25.6785 -0.6412 0.8633
-18.2433 -22.7377 -0.5088 0.8899
-13.9382 -22.4539 -0.4613 0.8997
-11.0963 -23.8852 -0.4597 0.9000
-6.6114 -33.7141 -0.5997 0.8716
-6.8792 -94.0516 -1.6461 0.6857
17.1673 -39.5516 -0.7526 0.8416
24.5638 -41.9102 -0.8479 0.8234
25.6444 -33.6797 -0.7389 0.8442
26.4999 -27.2523 -0.6635 0.8589
33.8418 -27.2975 -0.7589 0.8403
59.9281 -28.0304 -1.1548 0.7675
18.5571 5.4625 -0.3377 0.9255
28.7551 16.7531 -0.5809 0.8753
6.4539 6.2431 -0.1567 0.9647
4.5872 5.6568 -0.1271 0.9713
3.5563 5.6631 -0.1167 0.9736
2.6694 5.6686 -0.1094 0.9752
1.1442 5.6779 -0.1011 0.9771
-3.2675 5.6420 -0.1138 0.9743
-4.2418 5.6315 -0.1231 0.9722
-95.8839 -3.8197 -1.6750 0.6812
-65.9565 -19.0430 -1.1983 0.7598
-27.3847 -26.2161 -0.6617 0.8593
-18.5667 -22.6539 -0.5113 0.8894
-14.2176 -22.3811 -0.4628 0.8994
-6.5612 -31.7079 -0.5652 0.8785
16.6991 -39.5956 -0.7501 0.8420
23.9785 -41.9047 -0.8427 0.8244
25.9507 -27.2490 -0.6568 0.8602
33.1238 -27.2918 -0.7491 0.8422
58.3211 -28.0218 -1.1294 0.7719
81.8000 -27.7697 -1.5079 0.7078
43.5595 6.8174 -0.7696 0.8383
37.2987 15.6163 -0.7058 0.8506
29.4474 16.7488 -0.5913 0.8733
2.7415 5.6681 -0.1099 0.9751
1.2056 5.6776 -0.1013 0.9770
-9.5059 61.7890 -1.0912 0.7787
-3.1917 5.6457 -0.1132 0.9744
-6.8779 5.7272 -0.1562 0.9648
-26.8329 5.7711 -0.4791 0.8960
-42.8065 -1.2595 -0.7475 0.8425
-70.4858 -51.6698 -1.5255 0.7049
-18.9039 -22.5821 -0.5140 0.8889
-11.6625 -23.7954 -0.4626 0.8994
-6.6974 -30.7511 -0.5493 0.8817
-6.8890 -73.2152 -1.2836 0.7451
24.8082 -90.3142 -1.6348 0.6875
25.6331 -35.1588 -0.7595 0.8402
32.4268 -27.2888 -0.7398 0.8440
43.5567 6.3535 -0.7683 0.8385
20.2464 5.5049 -0.3662 0.9195
41.1450 16.7259 -0.7753 0.8372
30.1655 16.7444 -0.6022 0.8711
26.2737 19.0508 -0.5665 0.8782
6.5632 6.0898 -0.1563 0.9648
3.7221 5.6621 -0.1183 0.9733
0.5644 5.6815 -0.0997 0.9774
-2.2840 5.6607 -0.1065 0.9759
-4.0604 5.6306 -0.1212 0.9726
-5.2774 5.7174 -0.1358 0.9694
-6.7332 5.7263 -0.1543 0.9653
-62.0025 6.3221 -1.0879 0.7793
-30.3390 -0.5769 -0.5297 0.8857
-64.2352 -17.1068 -1.1603 0.7665
-67.2029 -36.8472 -1.3378 0.7359
-70.3011 -50.4188 -1.5101 0.7074
-19.4613 -22.7627 -0.5227 0.8871
-14.7748 -22.2231 -0.4658 0.8987
-11.8609 -23.5766 -0.4607 0.8998
-9.0010 -25.0088 -0.4639 0.8991
-6.7421 -64.4585 -1.1313 0.7716
22.9279 -87.0019 -1.5705 0.6977
21.2383 -53.4366 -1.0037 0.7945
22.8289 -41.8940 -0.8328 0.8262
25.6305 -35.9346 -0.7704 0.8381
25.6786 -28.1116 -0.6646 0.8587
68.1300 0.9412 -1.1893 0.7614
43.5538 5.8912 -0.7672 0.8388
26.2711 18.6352 -0.5622 0.8791
4.8859 5.6549 -0.1304 0.9705
0.6241 5.6811 -0.0998 0.9774
-0.0638 5.6854 -0.0992 0.9775
-1.4619 5.6666 -0.1021 0.9769
-6.5920 5.7255 -0.1524 0.9657
-8.4850 5.7371 -0.1788 0.9599
-2.1024 5.6456 -0.3157 0.9762
-2.9176 5.6440 -0.3330 0.9749
-3.8127 5.6001 -0.3550 0.9732
-6.3732 5.7241 -0.4489 0.9663
-10.6295 5.6769 -0.6315 0.9529
-14.8975 5.7765 -0.8374 0.9380
-22.3351 5.6858 -1.2079 0.9118
-32.8401 4.2481 -1.7354 0.8758
-42.4645 0.3402 -2.2255 0.8436
-44.7762 -16.5417 -2.5016 0.8260
-39.5271 -26.7609 -2.5016 0.8260
-33.8281 -29.4173 -2.3494 0.8356
-12.4514 -23.1688 -1.3785 0.9000
-7.3492 -28.5584 -1.5454 0.8886
-3.7947 -28.7470 -1.5196 0.8903
5.2410 -47.4454 -2.5016 0.8260
20.3791 -39.9300 -2.3494 0.8356
25.5649 -29.5529 -2.0479 0.8551
29.9347 -27.1686 -2.1186 0.8505
39.2119 -15.4395 -2.2086 0.8447
47.7298 -0.6307 -2.5016 0.8260
23.8632 5.5383 -1.2839 0.9065
20.5668 7.4767 -1.1469 0.9161
20.6137 10.4532 -1.2113 0.9116
6.7586 5.8159 -0.4673 0.9649
5.1578 5.6533 -0.4011 0.9698
4.0320 5.6602 -0.3642 0.9725
0.7799 5.6802 -0.3005 0.9773
-0.5985 5.6887 -0.2998 0.9773
-1.3013 5.6741 -0.3051 0.9770
-2.0356 5.6453 -0.3145 0.9762
-2.8454 5.6475 -0.3314 0.9750
-3.7307 5.6041 -0.3528 0.9734
-4.8801 5.7010 -0.3933 0.9704
-10.3671 5.6761 -0.6194 0.9538
-14.4428 5.7737 -0.8152 0.9396
-44.5958 -4.5745 -2.3494 0.8356
-43.7213 -9.9078 -2.3494 0.8356
-44.9458 -16.0752 -2.5016 0.8260
-42.6847 -21.3671 -2.5016 0.8260
-39.8032 -26.3484 -2.5016 0.8260
-34.1322 -29.0639 -2.3494 0.8356
-12.6600 -22.9805 -1.3750 0.9002
-9.8168 -24.3724 -1.3770 0.9001
-7.5062 -27.9604 -1.5172 0.8905
-1.0030 -47.7235 -2.5016 0.8260
10.4285 -46.5809 -2.5016 0.8260
24.6480 -37.4458 -2.3494 0.8356
36.3090 -26.2940 -2.3494 0.8356
39.2093 -21.7335 -2.3494 0.8356
39.1959 -15.9060 -2.2169 0.8441
46.0693 -12.4962 -2.5016 0.8260
47.7207 -1.1270 -2.5016 0.8260
44.6190 4.3425 -2.3494 0.8356
20.6698 13.5286 -1.2947 0.9058
5.2659 5.6526 -0.4049 0.9695
4.1210 5.6596 -0.3669 0.9723
1.5553 5.6754 -0.3084 0.9767
-1.9694 5.6450 -0.3133 0.9763
-3.6498 5.6081 -0.3507 0.9736
-19.3811 23.1239 -1.5812 0.8862
-7.8307 5.7331 -0.5086 0.9619
-14.0116 5.7711 -0.7942 0.9411
-30.8906 4.6511 -1.6372 0.8824
-45.1106 -15.6068 -2.5016 0.8260
-42.9046 -20.9219 -2.5016 0.8260
-40.0751 -25.9330 -2.5016 0.8260
-21.6920 -23.0435 -1.6586 0.8809
-16.3080 -22.1538 -1.4417 0.8957
-7.6638 -27.4061 -1.4914 0.8923
-6.3786 -41.6287 -2.2071 0.8448
-1.4992 -47.7104 -2.5016 0.8260
4.2531 -47.5441 -2.5016 0.8260
9.9436 -46.6868 -2.5016 0.8260
24.2573 -37.7001 -2.3494 0.8356
28.7035 -27.1610 -2.0710 0.8536
38.9811 -22.1402 -2.3494 0.8356
36.0930 -15.0860 -2.0501 0.8550
45.9368 -12.9747 -2.5016 0.8260
47.7064 -1.6233 -2.5016 0.8260
44.6618 3.8782 -2.3494 0.8356
20.6638 13.2198 -1.2856 0.9064
4.2114 5.6591 -0.3697 0.9721
3.2371 5.6651 -0.3419 0.9742
2.3874 5.6703 -0.3224 0.9757
0.9005 5.6794 -0.3014 0.9772
0.2082 5.6837 -0.2981 0.9775
-0.4790 5.6879 -0.2991 0.9774
-1.1789 5.6798 -0.3040 0.9770
-4.5946 5.5991 -0.3796 0.9714
-5.9840 5.7217 -0.4339 0.9674
-7.6609 5.7321 -0.5014 0.9624
-9.8965 5.6892 -0.5982 0.9553
-20.1651 5.8089 -1.0998 0.9194
-30.8886 4.9798 -1.6397 0.8822
-45.1145 1.7700 -2.3662 0.8346
-45.2704 -15.1369 -2.5016 0.8260
-43.1199 -20.4746 -2.5016 0.8260
-40.3426 -25.5148 -2.5016 0.8260
-22.6311 -23.5457 -1.7115 0.8774
-13.1323 -22.7071 -1.3747 0.9003
3.7584 -47.5858 -2.5016 0.8260
15.0164 -45.3018 -2.5012 0.8260
28.1081 -27.1574 -2.0483 0.8551
35.7543 -27.0434 -2.3494 0.8356
35.1032 -15.1029 -2.0027 0.8581
45.7994 -13.4517 -2.5016 0.8260
47.6869 -2.1193 -2.5016 0.8260
20.4655 6.7248 -1.1290 0.9173
25.9856 20.9865 -1.7505 0.8748
3.3154 5.6646 -0.3440 0.9741
2.4569 5.6699 -0.3238 0.9756
1.6827 5.6746 -0.3102 0.9766
0.9611 5.6791 -0.3019 0.9772
0.2674 5.6833 -0.2982 0.9775
-0.4195 5.6876 -0.2989 0.9774
-1.1180 5.6827 -0.3035 0.9771
-2.6281 5.6481 -0.3265 0.9754
-5.8600 5.7210 -0.4292 0.9677
-7.4957 5.7310 -0.4945 0.9629
-13.2124 5.7662 -0.7555 0.9439
-19.3881 5.8041 -1.0606 0.9221
-31.0714 5.3414 -1.6523 0.8814
-44.0091 -8.5391 -2.3494 0.8356
-7.9603 -26.3410 -1.4421 0.8956
8.9704 -46.8836 -2.5016 0.8260
14.5471 -45.4634 -2.5016 0.8260
23.4679 -38.1965 -2.3494 0.8356
27.6904 -27.3162 -2.0385 0.8557
35.1956 -27.2009 -2.3312 0.8368
38.5122 -22.9461 -2.3494 0.8356
34.0554 -15.0738 -1.9518 0.8614
47.0012 -8.3318 -2.5016 0.8260
47.6623 -2.6152 -2.5016 0.8260
44.7328 2.9484 -2.3494 0.8356
20.9907 9.5686 -1.2090 0.9117
21.2735 12.9943 -1.3064 0.9050
5.6033 5.6505 -0.4170 0.9686
4.3963 5.6580 -0.3755 0.9717
1.7470 5.6742 -0.3111 0.9765
-4.4027 5.5988 -0.3733 0.9719
-9.4699 5.7092 -0.5795 0.9567
-12.4809 5.6021 -0.7170 0.9467
-18.6645 5.7997 -1.0243 0.9247
-28.9426 5.2859 -1.5419 0.8888
-44.8268 -2.7206 -2.3536 0.8354
-44.0955 -8.0807 -2.3494 0.8356
-45.5755 -14.1918 -2.5016 0.8260
-40.8647 -24.6700 -2.5016 0.8260
-24.6128 -24.5636 -1.8224 0.8700
-10.7646 -23.8159 -1.3697 0.9006
-2.9870 -47.6404 -2.5016 0.8260
8.4821 -46.9743 -2.5016 0.8260
14.0733 -45.6122 -2.5016 0.8260
17.1699 -38.4579 -2.2072 0.8448
22.6500 -37.7399 -2.3067 0.8384
25.5447 -32.8349 -2.1802 0.8465
27.1650 -27.3613 -2.0206 0.8569
38.2715 -23.3455 -2.3494 0.8356
46.9120 -8.8202 -2.5016 0.8260
47.6325 -3.1108 -2.5016 0.8260
44.7610 2.4830 -2.3494 0.8356
20.4581 6.2540 -1.1211 0.9179
21.7744 12.9913 -1.3288 0.9034
25.9802 20.1038 -1.7216 0.8767
6.3990 6.3201 -0.4714 0.9646
4.4910 5.6574 -0.3786 0.9715
3.4750 5.6636 -0.3482 0.9737
1.8117 5.6738 -0.3121 0.9764
1.0829 5.6783 -0.3030 0.9771
0.3860 5.6826 -0.2985 0.9774
-0.3006 5.6868 -0.2984 0.9774
-2.4862 5.6475 -0.3234 0.9756
-3.3354 5.6235 -0.3427 0.9742
-9.2664 5.7188 -0.5707 0.9573
-12.1456 5.6042 -0.7010 0.9478
-17.9887 5.7955 -0.9905 0.9271
-45.1085 3.1802 -2.3699 0.8343
-44.8783 -2.2555 -2.3549 0.8353
-45.6870 -13.7071 -2.4998 0.8261
-43.7376 -19.1195 -2.5016 0.8260
-41.1190 -24.2438 -2.5016 0.8260
-37.9027 -29.0158 -2.5016 0.8260
-13.8191 -22.2620 -1.3732 0.9004
-11.0418 -23.7677 -1.3735 0.9003
-8.2497 -25.3800 -1.3986 0.8986
-6.5198 -33.2470 -1.7756 0.8731
7.9933 -47.0600 -2.5016 0.8260
13.5983 -45.7561 -2.5016 0.8260
17.1673 -39.5516 -2.2596 0.8414
45.3575 -14.8738 -2.5016 0.8260
46.8178 -9.3075 -2.5016 0.8260
44.7844 2.0175 -2.3494 0.8356
41.0890 6.8693 -2.1833 0.8463
18.3023 5.3875 -0.9999 0.9264
22.1861 9.5612 -1.2661 0.9078
1.1442 5.6779 -0.3035 0.9771
0.4454 5.6822 -0.2987 0.9774
-0.2413 5.6865 -0.2983 0.9775
-2.4163 5.6471 -0.3219 0.9757
-7.0263 5.7282 -0.4751 0.9643
-11.8521 5.6190 -0.6874 0.9488
-45.0981 3.6525 -2.3712 0.8342
-43.3610 -1.7273 -2.2743 0.8404
-26.8614 -25.7151 -1.9488 0.8616
-18.4938 -22.5651 -1.5290 0.8897
-8.4281 -25.0397 -1.3846 0.8996
-6.5018 -31.4208 -1.6816 0.8794
7.5034 -47.1406 -2.5016 0.8260
17.4207 -41.3066 -2.3494 0.8356
22.2649 -38.9100 -2.3494 0.8356
26.0511 -27.3544 -1.9797 0.8596
45.2004 -15.3448 -2.5016 0.8260
47.5575 -4.1007 -2.5016 0.8260
19.1428 5.4193 -1.0427 0.9234
20.5839 8.6181 -1.1695 0.9145
6.5086 6.1664 -0.4699 0.9647
4.6851 5.6562 -0.3849 0.9710
3.6386 5.6626 -0.3528 0.9734
2.7415 5.6681 -0.3300 0.9751
1.9424 5.6730 -0.3143 0.9763
0.5048 5.6819 -0.2989 0.9774
-0.1821 5.6861 -0.2981 0.9775
-7.2428 47.0785 -2.4963 0.8263
-1.5866 5.6607 -0.3081 0.9767
-2.3470 5.6468 -0.3205 0.9758
-3.1833 5.6310 -0.3390 0.9744
-6.8779 5.7272 -0.4691 0.9648
-8.8250 5.7032 -0.5507 0.9588
-11.5697 5.6332 -0.6744 0.9498
-16.7151 5.7716 -0.9268 0.9316
-26.3349 5.6640 -1.4117 0.8977
-42.6656 -1.2553 -2.2370 0.8428
-44.9026 -12.4598 -2.4422 0.8297
-38.4981 -28.2212 -2.5016 0.8260
-18.9652 -22.6554 -1.5484 0.8884
-11.5267 -23.5185 -1.3726 0.9004
-4.1996 -44.6327 -2.3494 0.8356
1.2798 -47.7168 -2.5016 0.8260
12.6436 -46.0291 -2.5016 0.8260
16.7197 -40.8252 -2.3120 0.8380
21.8590 -39.1395 -2.3494 0.8356
25.5313 -35.0193 -2.2713 0.8406
18.4016 -19.7291 -1.4139 0.8976
30.2132 -25.4259 -2.0695 0.8537
41.3723 6.0349 -2.1912 0.8458
20.5800 8.3660 -1.1643 0.9149
20.6312 11.4520 -1.2366 0.9098
20.6990 15.0087 -1.3399 0.9027
6.5632 6.0898 -0.4692 0.9648
4.7846 5.6556 -0.3882 0.9708
3.7221 5.6621 -0.3551 0.9732
2.8144 5.6677 -0.3316 0.9750
2.0084 5.6726 -0.3154 0.9762
0.5644 5.6815 -0.2992 0.9774
-0.1229 5.6857 -0.2980 0.9775
-4.0370 5.5981 -0.3617 0.9727
-6.7332 5.7263 -0.4632 0.9652
-8.6358 5.7091 -0.5425 0.9594
-16.2044 5.7846 -0.9017 0.9334
-44.3935 -6.2399 -2.3494 0.8356
-44.3129 -17.7456 -2.5016 0.8260
-41.8554 -22.9492 -2.5016 0.8260
-38.7895 -27.8192 -2.5016 0.8260
-33.0208 -30.3207 -2.3494 0.8356
-19.2066 -22.4648 -1.5490 0.8884
-14.6180 -21.9873 -1.3837 0.8996
-8.8982 -24.7233 -1.3771 0.9001
-6.9595 -30.4284 -1.6359 0.8825
0.7835 -47.7276 -2.5016 0.8260
6.5212 -47.2864 -2.5016 0.8260
12.1642 -46.1581 -2.5016 0.8260
16.5577 -41.6600 -2.3494 0.8356
21.4507 -39.3648 -2.3494 0.8356
25.5266 -35.7889 -2.3038 0.8386
37.2674 -24.9169 -2.3494 0.8356
44.8714 -16.2816 -2.5016 0.8260
47.4619 -5.0891 -2.5016 0.8260
47.7294 0.6594 -2.5016 0.8260
41.3696 5.5957 -2.1878 0.8460
2.8881 5.6672 -0.3333 0.9748
2.0749 5.6722 -0.3165 0.9761
1.3295 5.6768 -0.3056 0.9769
0.6241 5.6811 -0.2995 0.9774
-0.7523 5.6731 -0.2999 0.9773
-2.2101 5.6462 -0.3178 0.9760
-3.0345 5.6383 -0.3356 0.9747
-3.9490 5.5979 -0.3590 0.9729
-5.1677 5.7167 -0.4039 0.9696
-8.4850 5.7371 -0.5368 0.9598
-1.3629 5.6712 -0.5103 0.9769
-2.0990 5.6367 -0.5262 0.9761
-8.1856 5.7353 -0.8744 0.9607
-10.5789 5.6499 -1.0493 0.9530
-14.8975 5.7765 -1.3979 0.9379
-26.8533 0.2151 -2.3494 0.8978
-27.8195 -6.6092 -2.5016 0.8915
-17.9960 -19.9321 -2.3494 0.8978
-12.2455 -22.7856 -2.2631 0.9013
-9.4771 -24.2539 -2.2782 0.9007
9.8391 -26.8476 -2.5016 0.8915
12.9984 -25.4685 -2.5016 0.8915
15.7926 -23.4576 -2.4740 0.8927
23.3321 -16.5293 -2.5016 0.8915
26.6056 -10.4759 -2.5016 0.8915
28.3380 -3.8157 -2.5016 0.8915
26.6993 2.8791 -2.3494 0.8978
20.9241 7.6066 -1.9478 0.9145
21.0840 14.1151 -2.2198 0.9031
6.7586 5.8159 -0.7801 0.9648
5.1578 5.6533 -0.6695 0.9697
4.0320 5.6602 -0.6080 0.9725
13.1694 24.2021 -2.4106 0.8953
2.2500 5.6711 -0.5338 0.9758
1.4921 5.6758 -0.5134 0.9767
0.7799 5.6802 -0.5016 0.9772
0.0899 5.6844 -0.4974 0.9774
-1.3013 5.6741 -0.5093 0.9769
-2.0336 5.6397 -0.5245 0.9762
-3.7206 5.5889 -0.5874 0.9734
-4.8801 5.7010 -0.6565 0.9703
-6.2405 5.7233 -0.7408 0.9666
-10.3473 5.6653 -1.0321 0.9537
-21.3600 5.6747 -1.9336 0.9151
-28.4445 -2.9177 -2.5016 0.8915
-26.9236 -9.6294 -2.5016 0.8915
-21.7705 -18.5378 -2.5016 0.8915
-18.2023 -19.7439 -2.3494 0.8978
-9.7177 -24.1263 -2.2756 0.9008
-6.9627 -25.9358 -2.3494 0.8978
-0.6008 -28.5875 -2.5016 0.8915
2.8437 -28.4520 -2.5016 0.8915
6.2469 -27.9030 -2.5016 0.8915
9.5593 -26.9485 -2.5016 0.8915
12.7328 -25.6023 -2.5016 0.8915
15.6788 -23.8196 -2.4949 0.8918
19.6964 -18.2536 -2.3494 0.8978
25.0088 -13.8623 -2.5016 0.8915
28.2968 -4.1102 -2.5016 0.8915
26.7278 2.6012 -2.3494 0.8978
20.9192 7.3594 -1.9401 0.9148
21.0760 13.7945 -2.2038 0.9038
2.3184 5.6707 -0.5360 0.9757
1.5553 5.6754 -0.5148 0.9766
0.8401 5.6798 -0.5023 0.9772
-0.5387 5.6883 -0.4999 0.9773
-1.9687 5.6428 -0.5229 0.9763
-2.7656 5.6341 -0.5491 0.9751
-3.6399 5.5930 -0.5838 0.9736
-7.8307 5.7331 -0.8491 0.9618
-10.1204 5.6787 -1.0153 0.9545
-20.8440 5.7704 -1.8922 0.9168
