ply
format ascii 1.0
element vertex 1563
property float32 x
property float32 y
property float32 z
property float32 I
end_header
-18.4419 -34.7306 3.4403 0.8539
-10.9582 -43.4366 3.9193 0.8354
30.7777 -45.3332 4.7938 0.8025
47.8411 -33.6391 5.1167 0.7907
51.9344 -27.8563 5.1560 0.7893
54.9102 -21.4124 5.1564 0.7893
56.4143 -14.4835 5.0957 0.7915
56.4576 -7.4269 4.9820 0.7956
47.4398 5.2500 4.1758 0.8256
52.1809 12.2579 4.6895 0.8064
33.7583 17.2223 3.3156 0.8588
27.0916 18.2279 2.8568 0.8771
6.5308 5.6448 0.7552 0.9659
4.0155 5.6603 0.6072 0.9725
3.0698 5.6661 0.5638 0.9745
2.2389 5.6712 0.5334 0.9758
0.7714 5.6802 0.5015 0.9772
-0.6055 5.6887 0.5005 0.9773
-1.3122 5.6930 0.5111 0.9768
-2.0608 5.6976 0.5301 0.9760
-4.8982 5.7151 0.6585 0.9702
-7.9850 5.7151 0.8591 0.9613
-10.5072 5.7496 1.0479 0.9530
-14.4479 5.7738 1.3612 0.9394
-19.0994 -34.5595 3.4546 0.8534
-14.8238 -36.6485 3.4587 0.8532
51.9275 -28.9822 5.2028 0.7876
56.4517 -8.3897 4.9931 0.7952
56.4012 -1.5248 4.9363 0.7973
35.1838 17.2135 3.4268 0.8545
6.7545 5.6435 0.7701 0.9653
2.3491 5.6705 0.5370 0.9757
1.5843 5.6752 0.5155 0.9766
0.8684 5.6796 0.5027 0.9772
0.1775 5.6839 0.4975 0.9774
-1.2121 5.6924 0.5092 0.9769
-1.9533 5.6970 0.5269 0.9761
-2.7601 5.7019 0.5542 0.9749
-3.6691 5.7075 0.5936 0.9731
-4.7337 5.7141 0.6492 0.9706
-7.7325 5.7325 0.8421 0.9621
-4.8573 2.7646 0.4890 0.9778
-25.8185 -34.5234 3.7716 0.8411
-15.5407 -36.6441 3.4823 0.8523
-11.6525 -40.4316 3.6813 0.8445
-9.7225 -60.2108 5.3360 0.7828
18.3076 -89.6531 8.0055 0.6925
15.0650 -45.1661 4.1655 0.8260
28.6005 -45.3198 4.6885 0.8064
35.8876 -44.0655 4.9720 0.7960
46.9525 -45.2393 5.7043 0.7697
52.3155 -39.4668 5.7334 0.7686
51.9204 -30.1290 5.2519 0.7858
50.6534 -21.7326 4.8223 0.8015
56.5301 4.3467 4.9603 0.7964
50.5287 16.6191 4.6537 0.8077
36.7088 17.2041 3.5468 0.8498
27.0836 16.9339 2.7945 0.8796
6.9872 5.6420 0.7857 0.9646
2.4608 5.6698 0.5408 0.9755
0.9659 5.6790 0.5040 0.9771
0.2727 5.6833 0.4978 0.9774
-2.6429 5.7012 0.5498 0.9751
-4.5738 5.7131 0.6403 0.9710
-7.4658 5.7309 0.8234 0.9629
-4.7434 2.8059 0.4822 0.9781
-13.1339 5.7657 1.2549 0.9440
-19.2249 5.8031 1.7569 0.9225
-87.9899 4.5918 7.7086 0.7020
-16.2678 -36.6396 3.5073 0.8513
-11.6375 -37.9783 3.4752 0.8526
-9.9890 -55.8996 4.9680 0.7961
19.3479 -42.6688 4.0989 0.8285
34.6690 -44.0554 4.9047 0.7984
45.3727 -45.2059 5.6035 0.7732
52.3070 -40.8520 5.8066 0.7661
51.9132 -31.2978 5.3034 0.7840
50.1435 -22.5151 4.8089 0.8020
56.3029 -17.5107 5.1586 0.7892
56.4398 -10.3295 5.0199 0.7942
56.4823 -3.4218 4.9506 0.7968
37.0819 16.6278 3.5555 0.8494
27.8291 16.7587 2.8421 0.8777
7.2297 5.6405 0.8023 0.9639
5.6766 5.6501 0.7007 0.9684
3.4470 5.6638 0.5801 0.9737
-1.7421 5.6957 0.5211 0.9764
-2.5276 5.7005 0.5456 0.9753
-3.4036 5.7059 0.5813 0.9737
-5.6455 5.7197 0.7031 0.9682
-7.2106 5.7293 0.8057 0.9637
-4.7582 2.9233 0.4889 0.9778
-12.5507 5.7621 1.2082 0.9461
-66.6095 -20.0695 6.0863 0.7563
-29.3181 -36.5830 4.1016 0.8284
-17.6410 -28.4468 2.9285 0.8742
-9.9208 -50.6097 4.5120 0.8130
15.5411 -91.6581 8.1335 0.6885
18.5126 -42.7139 4.0729 0.8295
51.9500 -41.9917 5.8442 0.7647
51.0234 -23.9442 4.9311 0.7975
56.4338 -11.3079 5.0355 0.7937
56.4764 -4.3712 4.9558 0.7966
56.5608 9.3467 5.0155 0.7944
19.0553 5.5679 1.7368 0.9234
28.9020 16.7521 2.9226 0.8745
5.8688 5.6489 0.7127 0.9678
2.6891 5.6684 0.5489 0.9751
1.1624 5.6778 0.5070 0.9770
0.4637 5.6821 0.4988 0.9774
-1.6382 5.6950 0.5185 0.9765
-2.4139 5.6998 0.5415 0.9755
-30.3323 -36.5768 4.1572 0.8263
-23.5596 -36.6082 3.8087 0.8396
-15.1204 -31.1959 3.0330 0.8701
15.1882 -54.5121 4.9508 0.7967
17.7009 -42.7901 4.0513 0.8303
24.7977 -44.0486 4.4225 0.8163
33.3128 -45.3787 4.9251 0.7977
45.2720 -21.4297 2.6250 0.8182
19.2892 5.5664 1.0522 0.9227
38.1506 16.1952 2.1721 0.8470
7.5344 5.6387 0.4932 0.9630
4.6429 5.6564 0.3835 0.9711
1.9165 5.6732 0.3138 0.9763
1.1821 5.6777 0.3039 0.9770
0.4828 5.6820 0.2989 0.9774
-0.2032 5.6820 0.2980 0.9775
-1.6146 5.6843 0.3097 0.9766
-3.2400 5.6881 0.3431 0.9741
-8.9356 5.7399 0.5566 0.9584
-11.9474 5.7783 0.6955 0.9482
-16.9023 5.7888 0.9363 0.9309
-27.5393 5.8542 1.4755 0.8934
-28.8384 -34.5401 2.3582 0.8351
-15.2519 -31.2018 1.8201 0.8701
13.6510 -91.6357 4.8554 0.6900
24.6860 -44.1940 2.6529 0.8165
26.4997 -28.4212 2.0365 0.8559
52.3476 -34.2482 3.2784 0.7784
61.4083 -21.6075 3.4117 0.7705
61.3544 -13.5802 3.2933 0.7775
61.3039 -5.9850 3.2281 0.7814
61.2551 1.4207 3.2111 0.7824
44.8843 6.4946 2.3768 0.8339
39.9714 16.1840 2.2600 0.8414
30.2723 16.7437 1.8130 0.8706
3.7383 5.6620 0.3556 0.9732
2.0227 5.6725 0.3156 0.9762
1.2815 5.6771 0.3050 0.9770
-0.1076 5.6595 0.2967 0.9776
-0.7974 5.6787 0.3005 0.9773
-1.5121 5.6836 0.3082 0.9767
-2.2718 5.6791 0.3206 0.9758
-5.2419 5.7172 0.4065 0.9694
-6.6727 5.7149 0.4604 0.9654
-11.4083 5.7551 0.6697 0.9501
-29.3117 -0.4344 1.5363 0.8892
-29.8284 -34.5340 2.3915 0.8330
-17.6152 -34.5581 2.0328 0.8561
-9.5739 -40.8188 2.1973 0.8454
14.7669 -57.4358 3.1080 0.7886
24.1804 -45.0438 2.6793 0.8148
26.4937 -29.3860 2.0736 0.8534
31.3200 -27.2820 2.1768 0.8467
61.3616 -14.6634 3.3064 0.7767
61.3107 -7.0235 3.2342 0.7810
61.2618 0.3952 3.2107 0.7824
44.3673 5.6633 2.3440 0.8360
27.0957 18.8971 1.7313 0.8761
4.9672 5.6545 0.3944 0.9703
6.7214 9.8188 0.6236 0.9535
1.3816 5.6765 0.3062 0.9769
-0.1405 62.0314 3.2509 0.7800
-1.4105 5.6829 0.3069 0.9768
-8.3045 5.7360 0.5289 0.9604
-15.1926 5.7783 0.8519 0.9370
-71.4027 -37.1834 4.2190 0.7244
-9.5559 -37.8784 2.0473 0.8552
23.2176 -45.0434 2.6558 0.8163
30.6459 -45.1390 2.8593 0.8037
52.0341 -27.9098 3.0945 0.7894
61.3690 -15.7555 3.3205 0.7759
61.3177 -8.0662 3.2412 0.7806
44.0973 16.1586 2.4613 0.8285
4.0155 5.6603 0.3637 0.9726
3.0698 5.6661 0.3377 0.9745
2.2389 5.6712 0.3195 0.9759
0.0822 5.6795 0.2977 0.9775
-1.3097 5.6822 0.3056 0.9769
-2.8701 5.6846 0.3337 0.9748
-4.8982 5.7151 0.3945 0.9703
-6.2466 5.7234 0.4440 0.9666
-7.9850 5.7151 0.5146 0.9614
-14.4479 5.7738 0.8154 0.9396
-24.9575 -34.5637 2.2343 0.8430
-13.9873 -34.5803 1.9549 0.8612
-11.6050 -80.3992 4.2572 0.7223
19.3638 -87.3407 4.6885 0.6988
22.3194 -45.1408 2.6391 0.8173
26.4812 -31.4263 2.1537 0.8482
29.2669 -27.2694 2.0964 0.8519
51.8758 -37.7894 3.3635 0.7733
52.3760 -29.2325 3.1435 0.7864
61.4323 -25.1482 3.4788 0.7665
61.2753 -1.6565 3.2125 0.7823
45.2424 4.2417 2.3814 0.8336
25.4405 5.5286 1.3644 0.9010
46.4502 16.1441 2.5772 0.8212
35.1838 17.2135 2.0528 0.8548
27.0875 17.5738 1.6922 0.8787
5.3109 5.6523 0.4065 0.9694
4.1590 5.6594 0.3681 0.9723
3.1932 5.6653 0.3408 0.9743
2.3491 5.6705 0.3217 0.9757
1.5843 5.6752 0.3088 0.9767
0.8684 5.6796 0.3011 0.9772
0.1775 5.6839 0.2980 0.9775
-0.5083 5.6768 0.2987 0.9774
-1.2098 5.6815 0.3044 0.9770
-1.9498 5.6868 0.3151 0.9762
-4.8572 2.7645 0.2929 0.9779
-20.4841 5.8109 1.1159 0.9182
-58.0132 -27.7832 3.3710 0.7729
-20.3291 -27.1833 1.7789 0.8729
18.1932 -89.0931 4.7655 0.6947
14.9991 -44.9686 2.4843 0.8271
28.4780 -45.1256 2.7965 0.8076
52.3155 -39.4668 3.4344 0.7691
51.9437 -22.2862 2.9622 0.7974
61.2821 -2.6839 3.2147 0.7822
53.0339 10.5988 2.8343 0.8052
36.7088 17.2041 2.1246 0.8501
3.3189 5.6646 0.3441 0.9740
1.6870 5.6746 0.3103 0.9766
-0.4126 5.6762 0.2983 0.9775
-1.1106 5.6808 0.3034 0.9771
-3.5251 5.6909 0.3508 0.9735
-13.1339 5.7657 0.7517 0.9442
-19.2249 5.8031 1.0524 0.9227
-33.7917 5.8926 1.7977 0.8716
-26.7268 -34.5179 2.2879 0.8396
-10.8376 -35.3678 1.9386 0.8623
16.8913 -90.4124 4.8203 0.6918
17.1998 -54.5946 2.9998 0.7951
27.3736 -45.0285 2.7617 0.8097
26.4512 -33.6127 2.2416 0.8425
27.3582 -27.2576 2.0239 0.8567
52.3070 -40.8520 3.4783 0.7666
51.9373 -23.3205 2.9837 0.7961
61.3914 -19.0932 3.3694 0.7730
61.3387 -11.2261 3.2680 0.7790
61.2403 3.6788 3.2152 0.7821
37.0819 16.6278 2.1298 0.8498
27.8291 16.7587 1.7025 0.8780
7.2211 5.6338 0.4800 0.9640
1.0638 5.6784 0.3028 0.9771
0.3681 5.6827 0.2984 0.9774
-0.3172 5.6766 0.2980 0.9775
-1.0121 5.6801 0.3024 0.9772
-2.5190 5.6813 0.3257 0.9754
-3.3939 5.6896 0.3472 0.9738
-4.4182 5.7121 0.3785 0.9715
-5.6455 5.7197 0.4212 0.9683
-12.5507 5.7621 0.7238 0.9462
-18.1013 5.7962 0.9961 0.9267
-66.4352 -20.0170 3.6363 0.7574
-27.6866 -34.5471 2.3202 0.8375
-17.5937 -28.3705 1.7495 0.8748
-16.0457 -34.5677 1.9973 0.8584
-11.4280 -35.1814 1.9386 0.8623
16.8556 -56.8021 3.1052 0.7887
25.6163 -43.7717 2.6579 0.8162
51.9059 -32.4904 3.2092 0.7825
61.3990 -20.2287 3.3879 0.7719
61.2956 -4.7442 3.2220 0.7817
19.0553 5.5679 1.0404 0.9236
5.8688 5.6489 0.4269 0.9679
4.6116 5.6566 0.3825 0.9712
2.6891 5.6684 0.3288 0.9752
-0.2221 5.6811 0.2980 0.9775
-0.9141 5.6795 0.3015 0.9772
-1.6352 5.6845 0.3100 0.9766
-2.4056 5.6803 0.3233 0.9756
-3.2653 5.6883 0.3437 0.9741
-5.4584 5.7185 0.4143 0.9688
-9.0022 5.7403 0.5595 0.9581
-11.9539 5.7323 0.6948 0.9483
-27.8106 5.8150 1.4890 0.8924
-28.6443 -34.5413 2.3517 0.8355
-15.1624 -31.2826 1.8219 0.8700
-12.0152 -34.9852 1.9386 0.8623
13.9081 -91.2728 4.8386 0.6909
15.3059 -54.9348 2.9887 0.7958
33.1483 -45.1545 2.9356 0.7990
83.2092 -27.7223 1.5309 0.7041
19.2351 5.5508 0.3494 0.9230
40.4726 17.1809 0.7675 0.8387
5.9078 5.6487 0.1427 0.9678
3.6042 5.6628 0.1172 0.9735
2.7122 5.6683 0.1097 0.9752
1.1821 5.6777 0.1012 0.9771
0.4828 5.6820 0.0995 0.9774
-0.2032 5.6820 0.0992 0.9775
-1.6107 5.6705 0.1029 0.9767
-2.3728 5.6551 0.1070 0.9758
-3.2224 5.6571 0.1136 0.9743
-6.9185 5.7275 0.1568 0.9647
-8.9059 5.7208 0.1848 0.9585
-16.9023 5.7888 0.3119 0.9310
-24.8317 -38.3036 0.7968 0.8331
-15.2942 -31.2883 0.6079 0.8699
-9.2245 -42.5183 0.7594 0.8402
-8.2714 -88.5542 1.5524 0.7006
24.8637 -90.4045 1.6366 0.6872
22.3125 -54.4515 1.0271 0.7902
23.5229 -42.1119 0.8420 0.8245
26.4483 -36.2810 0.7837 0.8356
32.4073 -27.2887 0.7395 0.8441
41.7983 -27.3464 0.8719 0.8189
42.8499 -21.1683 0.8342 0.8260
20.5001 5.5459 0.3707 0.9185
9.2026 6.6497 0.1982 0.9556
6.1080 5.6474 0.1452 0.9673
4.8028 5.6555 0.1295 0.9708
3.7383 5.6620 0.1184 0.9732
1.2815 5.6771 0.1016 0.9770
0.5787 5.6814 0.0997 0.9774
-0.1076 5.6595 0.0988 0.9776
-0.7955 5.6653 0.0999 0.9774
-1.5084 5.6699 0.1024 0.9768
-3.0976 5.6562 0.1126 0.9745
-4.0703 5.6829 0.1220 0.9724
-5.2419 5.7172 0.1354 0.9694
-6.6858 5.7261 0.1537 0.9654
-8.5829 5.7185 0.1800 0.9596
-11.3418 5.7215 0.2217 0.9504
-15.9105 5.7485 0.2953 0.9346
-29.3080 -0.4344 0.5116 0.8894
-63.3972 -16.5828 1.1438 0.7694
-25.4707 -37.8846 0.7968 0.8331
-12.5133 -34.1857 0.6354 0.8645
-9.2045 -39.2436 0.7036 0.8511
22.3105 -57.1550 1.0710 0.7823
24.2104 -45.0996 0.8935 0.8148
26.4937 -29.3860 0.6906 0.8536
40.2955 -27.3371 0.8499 0.8230
42.4267 -21.8502 0.8330 0.8262
42.2344 5.3910 0.7432 0.8434
44.4995 17.1562 0.8325 0.8263
6.3155 5.6462 0.1479 0.9667
4.9672 5.6545 0.1314 0.9703
6.5060 9.5042 0.2010 0.9550
2.1301 5.6719 0.1058 0.9761
-0.1382 61.0313 1.0653 0.7834
-0.6990 5.6647 0.0996 0.9774
-2.1570 5.6653 0.1058 0.9760
-2.9752 5.6553 0.1115 0.9748
-6.4620 5.7247 0.1507 0.9661
-10.8775 5.7177 0.2145 0.9520
-23.4968 5.8233 0.4225 0.9077
-12.6106 -18.0951 0.3850 0.9155
-13.1648 -34.1818 0.6394 0.8637
-8.7222 -68.5202 1.2057 0.7586
22.2783 -60.0194 1.1175 0.7740
23.5524 -45.6930 0.8973 0.8141
30.2383 -27.2432 0.7104 0.8497
38.8660 -27.3283 0.8293 0.8269
42.0262 -22.5418 0.8324 0.8263
70.7734 -27.5983 1.3260 0.7379
42.6177 4.7164 0.7484 0.8424
23.5835 5.5400 0.4229 0.9076
46.7813 17.1421 0.8697 0.8193
27.1619 18.2752 0.5714 0.8772
7.2540 6.2700 0.1674 0.9624
4.0155 5.6603 0.1211 0.9726
1.4825 5.6759 0.1024 0.9768
0.7714 5.6802 0.1001 0.9773
-0.6028 5.6641 0.0994 0.9775
-3.7746 5.6612 0.1188 0.9731
-4.8982 5.7151 0.1314 0.9703
-14.4479 5.7738 0.2716 0.9397
-25.5346 -35.3629 0.7614 0.8399
-19.0994 -34.5595 0.6892 0.8539
-13.8244 -34.1777 0.6435 0.8629
-11.5205 -42.6433 0.7710 0.8380
-9.5920 -66.4531 1.1720 0.7644
27.5972 -42.1498 0.8794 0.8175
26.4812 -31.4263 0.7173 0.8484
29.2669 -27.2694 0.6982 0.8521
37.4922 -27.3115 0.8097 0.8306
82.6772 -22.7078 1.4966 0.7096
25.4193 5.5240 0.4540 0.9012
35.1838 17.2135 0.6837 0.8550
27.1578 17.6194 0.5651 0.8785
5.3109 5.6523 0.1354 0.9694
4.1590 5.6594 0.1226 0.9723
2.3491 5.6705 0.1071 0.9757
0.8684 5.6796 0.1003 0.9773
-0.5074 5.6677 0.0993 0.9775
-1.2069 5.6679 0.1012 0.9771
-1.9450 5.6727 0.1047 0.9763
-2.7367 5.6536 0.1096 0.9752
-3.6386 5.6602 0.1175 0.9734
-4.7337 5.7141 0.1295 0.9708
-7.2023 3.0190 0.1363 0.9692
-20.4608 5.8043 0.3712 0.9184
-32.6276 -34.1480 0.8244 0.8278
-19.8620 -34.5599 0.6958 0.8526
-14.4930 -34.1736 0.6479 0.8620
-11.5038 -39.9154 0.7251 0.8469
-10.7293 -66.4461 1.1748 0.7639
26.4746 -32.5075 0.7318 0.8456
64.2312 -27.5581 1.2200 0.7561
50.5287 16.6191 0.9285 0.8083
36.7088 17.2041 0.7076 0.8503
5.4908 5.6512 0.1375 0.9690
2.4608 5.6698 0.1079 0.9756
-0.4123 5.6721 0.0993 0.9775
-1.1079 5.6673 0.1008 0.9772
-1.8393 5.6720 0.1041 0.9764
-4.5738 5.7131 0.1277 0.9711
-4.7433 2.8059 0.0962 0.9782
-33.7917 5.8926 0.5987 0.8718
-15.1710 -34.1695 0.6526 0.8611
-11.4889 -37.4935 0.6845 0.8548
-9.9561 -55.7154 0.9879 0.7974
22.3445 -49.2775 0.9444 0.8054
25.6124 -42.1313 0.8606 0.8210
45.3957 -27.3685 0.9252 0.8089
57.9253 10.5712 1.0278 0.7901
27.9443 16.8281 0.5694 0.8777
3.4470 5.6638 0.1157 0.9738
1.7907 5.6740 0.1039 0.9765
0.3681 5.6827 0.0994 0.9775
-0.3172 5.6766 0.0992 0.9775
-1.7347 5.6713 0.1035 0.9766
-4.7564 2.9222 0.0971 0.9779
-12.5507 5.7621 0.2411 0.9462
-18.1013 5.7962 0.3318 0.9268
-30.6411 5.8733 0.5446 0.8827
-64.9364 -19.5654 1.1838 0.7624
-17.5468 -28.2948 0.5811 0.8753
-15.8589 -34.1652 0.6575 0.8601
-11.8635 -36.5222 0.6703 0.8576
-9.8641 -50.3202 0.8951 0.8145
22.4670 -51.8378 0.9862 0.7977
26.4604 -34.8077 0.7632 0.8395
19.1774 -19.7576 0.4806 0.8957
33.7705 -27.2970 0.7580 0.8405
43.7066 -27.3581 0.9000 0.8136
84.1617 -27.7281 1.5467 0.7015
19.0001 5.5517 0.3455 0.9239
29.0215 16.8214 0.5855 0.8744
5.8688 5.6489 0.1422 0.9679
3.5778 5.6630 0.1169 0.9736
2.6891 5.6684 0.1095 0.9752
1.8955 5.6733 0.1044 0.9764
-0.2221 5.6811 0.0992 0.9775
-0.9120 5.6660 0.1002 0.9773
-5.4584 5.7185 0.1380 0.9689
-17.0915 5.7900 0.3150 0.9304
-28.3184 -34.1483 0.7743 0.8374
-24.6513 -38.3047 0.7951 0.8334
-15.2045 -31.3694 0.6085 0.8698
-9.5994 -44.9695 0.8026 0.8320
-7.9739 -88.5560 1.5520 0.7007
22.3156 -53.9455 1.0190 0.7917
23.7084 -42.1136 0.8436 0.8242
7.6334 5.7128 -0.1664 0.9626
1.1821 5.6777 -0.1012 0.9771
0.4828 5.6820 -0.0995 0.9774
-0.2032 5.6820 -0.0992 0.9775
-1.6068 5.6568 -0.1026 0.9767
-3.2049 5.6264 -0.1130 0.9744
-4.2369 5.7110 -0.1241 0.9720
-5.4219 5.7183 -0.1375 0.9690
-6.9185 5.7275 -0.1568 0.9647
-95.0558 -3.0008 -1.6600 0.6835
-64.1757 -17.9392 -1.1631 0.7660
-80.8236 -33.5147 -1.5273 0.7047
-69.6699 -51.2363 -1.5095 0.7075
-19.0759 -22.8474 -0.5195 0.8877
-14.3147 -22.0810 -0.4593 0.9001
-11.4257 -23.3742 -0.4541 0.9011
-5.8615 -62.7531 -1.1001 0.7771
26.4514 -36.2851 -0.7838 0.8356
26.4997 -28.4212 -0.6783 0.8560
32.4073 -27.2887 -0.7395 0.8441
41.7983 -27.3464 -0.8719 0.8189
43.2740 -21.3779 -0.8425 0.8244
79.2935 -27.9007 -1.4672 0.7144
44.3801 6.4216 -0.7827 0.8358
41.8970 16.9637 -0.7890 0.8346
30.2723 16.7437 -0.6038 0.8708
27.0999 19.5824 -0.5836 0.8748
6.1080 5.6474 -0.1452 0.9673
2.8294 5.6676 -0.1106 0.9750
2.0227 5.6725 -0.1051 0.9762
1.2815 5.6771 -0.1016 0.9770
0.5787 5.6814 -0.0997 0.9774
-2.2587 5.6463 -0.1061 0.9760
-3.0810 5.6258 -0.1120 0.9747
-5.2419 5.7172 -0.1354 0.9694
-6.6858 5.7261 -0.1537 0.9654
-29.3147 -0.4345 -0.5117 0.8893
-80.8345 -11.0065 -1.4240 0.7215
-80.8713 -31.9588 -1.5178 0.7062
-64.7377 -45.9595 -1.3858 0.7279
-19.9383 -23.0838 -0.5324 0.8851
-11.9072 -23.3601 -0.4577 0.9004
-5.7681 -52.2865 -0.9182 0.8102
23.5702 -91.6764 -1.6522 0.6848
18.2258 -46.6909 -0.8749 0.8183
22.4719 -41.8611 -0.8293 0.8269
26.4434 -37.5798 -0.8021 0.8321
26.4937 -29.3860 -0.6906 0.8536
31.3200 -27.2820 -0.7250 0.8469
40.2955 -27.3371 -0.8499 0.8230
89.8078 -21.4613 -1.6111 0.6911
68.9225 0.4446 -1.2031 0.7590
44.3754 5.6643 -0.7809 0.8361
21.7991 5.5075 -0.3925 0.9140
44.4995 17.1562 -0.8325 0.8263
31.4921 16.7362 -0.6225 0.8670
27.0957 18.8971 -0.5766 0.8762
4.9672 5.6545 -0.1314 0.9703
22.8324 33.3541 -0.7055 0.8507
0.6749 5.6808 -0.0999 0.9774
-0.1398 61.7314 -1.0775 0.7812
-0.6983 5.6587 -0.0995 0.9774
-2.9594 5.6252 -0.1109 0.9749
-17.0651 24.6885 -0.5239 0.8869
-5.0674 5.7161 -0.1333 0.9699
-6.4620 5.7247 -0.1507 0.9661
-8.2831 5.7212 -0.1757 0.9605
-23.0306 5.7077 -0.4142 0.9094
-88.2112 10.8539 -1.5513 0.7008
-6.9462 -27.5337 -0.4957 0.8926
21.8719 -42.4327 -0.8333 0.8261
26.4351 -38.9368 -0.8215 0.8284
26.4876 -30.3868 -0.7036 0.8511
30.2383 -27.2432 -0.7104 0.8497
38.8641 -27.3270 -0.8293 0.8269
71.1367 -27.7400 -1.3327 0.7368
89.4780 -22.9721 -1.6125 0.6910
46.7813 17.1421 -0.8697 0.8193
33.7583 17.2223 -0.6615 0.8593
7.2540 6.2700 -0.1674 0.9624
5.1365 5.6534 -0.1333 0.9699
4.0155 5.6603 -0.1211 0.9726
3.0698 5.6661 -0.1125 0.9745
2.2389 5.6712 -0.1064 0.9759
0.7714 5.6802 -0.1001 0.9773
0.0822 5.6795 -0.0991 0.9775
-2.0459 5.6565 -0.1050 0.9762
-10.3747 5.6771 -0.2064 0.9538
-14.4479 5.7738 -0.2716 0.9397
-21.6812 5.7601 -0.3916 0.9142
-62.6549 1.1692 -1.0938 0.7783
-55.1285 -12.4644 -0.9866 0.7976
-66.2668 -56.3153 -1.5180 0.7062
-16.2060 -22.4438 -0.4832 0.8952
-12.6621 -22.9116 -0.4569 0.9006
-9.7885 -24.1999 -0.4557 0.9008
17.9234 -36.2499 -0.7059 0.8506
27.4562 -41.9345 -0.8749 0.8183
26.4812 -31.4263 -0.7173 0.8484
37.5038 -27.3200 -0.8099 0.8306
42.6381 -23.7975 -0.8523 0.8225
47.8639 16.6355 -0.8845 0.8165
5.3109 5.6523 -0.1354 0.9694
2.3491 5.6705 -0.1071 0.9757
1.5843 5.6752 -0.1028 0.9767
0.1775 5.6839 -0.0993 0.9775
-0.5074 5.6677 -0.0993 0.9775
-1.2040 5.6544 -0.1009 0.9771
-1.9402 5.6587 -0.1044 0.9764
-2.7225 5.6241 -0.1091 0.9753
-6.0391 5.7221 -0.1452 0.9673
-4.8569 2.7644 -0.0975 0.9779
-7.2001 3.0181 -0.1363 0.9692
-62.6484 2.2186 -1.0942 0.7782
-23.1326 -24.2105 -0.5845 0.8746
-16.8281 -22.5020 -0.4905 0.8937
-13.0281 -22.6690 -0.4564 0.9007
-10.2102 -24.0751 -0.4565 0.9007
17.1722 -36.2453 -0.7001 0.8518
26.4746 -32.5075 -0.7318 0.8456
36.2036 -27.3120 -0.7916 0.8341
47.1823 -27.3795 -0.9522 0.8039
64.7976 -27.8011 -1.2307 0.7542
89.6616 6.8943 -1.5697 0.6978
7.4407 6.0082 -0.1669 0.9625
5.4908 5.6512 -0.1375 0.9690
1.6870 5.6746 -0.1033 0.9766
-0.4123 5.6721 -0.0993 0.9775
-1.1053 5.6538 -0.1006 0.9772
-2.6097 5.6295 -0.1083 0.9755
-7.4658 5.7309 -0.1643 0.9630
-13.1339 5.7657 -0.2504 0.9442
-24.7558 -25.0559 -0.6148 0.8686
-17.4944 -22.5943 -0.4988 0.8920
-10.5957 -23.8645 -0.4558 0.9008
-7.7858 -25.4084 -0.4639 0.8991
17.9952 -57.1191 -1.0453 0.7870
17.9365 -39.5563 -0.7581 0.8405
25.4816 -41.9161 -0.8562 0.8218
45.3957 -27.3685 -0.9252 0.8089
58.9995 10.7673 -1.0468 0.7867
52.3054 16.2383 -0.9559 0.8032
5.6766 5.6501 -0.1398 0.9685
4.4568 5.6576 -0.1257 0.9716
3.4470 5.6638 -0.1157 0.9738
2.5741 5.6692 -0.1087 0.9754
1.7907 5.6740 -0.1039 0.9765
1.0638 5.6784 -0.1008 0.9772
0.3681 5.6827 -0.0994 0.9775
-0.3172 5.6766 -0.0992 0.9775
-1.0073 5.6533 -0.1002 0.9773
-1.7305 5.6575 -0.1033 0.9766
-4.4182 5.7121 -0.1260 0.9715
-5.6455 5.7197 -0.1403 0.9684
-18.1013 5.7962 -0.3318 0.9268
-18.1347 -22.6285 -0.5062 0.8905
-17.5371 -28.2793 -0.5808 0.8754
-10.9074 -23.4981 -0.4522 0.9015
-8.1227 -25.0060 -0.4589 0.9002
-6.0488 -30.8570 -0.5489 0.8818
17.1624 -39.5985 -0.7533 0.8414
26.4604 -34.8077 -0.7632 0.8395
33.7705 -27.2970 -0.7580 0.8405
43.7066 -27.3581 -0.9000 0.8136
90.3827 3.9126 -1.5791 0.6963
36.6421 15.6992 -0.6958 0.8526
3.5778 5.6630 -0.1169 0.9736
1.1624 5.6778 -0.1012 0.9771
-0.9098 5.6527 -0.0999 0.9774
-5.4584 5.7185 -0.1380 0.9689
-6.9661 5.7278 -0.1574 0.9646
-8.9332 5.6963 -0.1849 0.9585
-11.9539 5.7323 -0.2314 0.9483
-17.0915 5.7900 -0.3150 0.9304
-64.1887 -18.1740 -1.1645 0.7658
-19.0708 -22.9969 -0.5215 0.8873
-14.3711 -22.3308 -0.4635 0.8992
-11.3779 -23.4746 -0.4553 0.9009
-8.5811 -24.9859 -0.4611 0.8997
-6.3578 -29.7836 -0.5316 0.8853
-5.8423 -64.8824 -1.1371 0.7706
23.2835 -83.5674 -1.5142 0.7068
23.5873 -41.8985 -0.8393 0.8250
26.4529 -36.0341 -0.7803 0.8362
47.5754 -3.8420 -2.5014 0.8260
44.7904 1.7893 -2.3492 0.8356
42.2001 6.8292 -2.2404 0.8426
21.6976 6.2615 -1.1835 0.9135
22.5782 12.9863 -1.3650 0.9009
5.9078 5.6487 -0.4284 0.9678
3.6042 5.6628 -0.3518 0.9735
-0.2032 5.6820 -0.2980 0.9775
-0.8900 5.6497 -0.2997 0.9774
-1.6029 5.6431 -0.3074 0.9768
-4.2369 5.7110 -0.3727 0.9719
-5.4219 5.7183 -0.4130 0.9689
-6.9185 5.7275 -0.4707 0.9647
-8.8641 5.6940 -0.5521 0.9587
-16.9023 5.7888 -0.9363 0.9309
-26.4108 5.6143 -1.4151 0.8975
-41.8881 -1.3224 -2.1964 0.8455
-44.3088 -6.7904 -2.3492 0.8356
-41.5723 -23.4503 -2.5014 0.8260
-18.9271 -22.6692 -1.5477 0.8884
-11.3353 -23.1894 -1.3527 0.9018
-8.4989 -24.4806 -1.3581 0.9014
-6.3235 -29.1469 -1.5631 0.8874
-4.1689 -44.6318 -2.3492 0.8356
12.6571 -46.0214 -2.5014 0.8260
16.9967 -41.4788 -2.3492 0.8356
32.2818 -27.1830 -2.2117 0.8445
33.3536 -16.4771 -1.9497 0.8616
43.6050 -15.3431 -2.4226 0.8310
47.5044 -4.6377 -2.5014 0.8260
42.1957 6.1055 -2.2344 0.8430
21.4790 11.8801 -1.2864 0.9064
26.7986 19.3646 -1.7327 0.8760
3.7383 5.6620 -0.3556 0.9732
2.8294 5.6676 -0.3320 0.9749
2.0227 5.6725 -0.3156 0.9762
1.2815 5.6771 -0.3050 0.9770
0.5787 5.6814 -0.2993 0.9774
-0.1076 5.6595 -0.2967 0.9776
-1.5012 5.6426 -0.3060 0.9769
-2.2531 5.6324 -0.3179 0.9760
-3.0645 5.5958 -0.3344 0.9748
-6.6858 5.7261 -0.4613 0.9654
-8.5670 5.7079 -0.5395 0.9596
-11.1240 5.6117 -0.6530 0.9513
-15.9105 5.7485 -0.8866 0.9345
-45.0768 4.7820 -2.3756 0.8340
-29.3213 -0.4346 -1.5368 0.8892
-43.3671 -11.3435 -2.3492 0.8356
-38.9196 -27.6304 -2.5014 0.8260
-33.1669 -30.1552 -2.3492 0.8356
-14.7379 -21.9209 -1.3843 0.8996
-11.7171 -22.9869 -1.3522 0.9018
-8.9128 -24.3493 -1.3589 0.9014
-6.6476 -28.3422 -1.5257 0.8899
-3.1627 -28.6688 -1.5116 0.8909
0.5076 -47.7275 -2.5014 0.8260
6.2416 -47.3204 -2.5014 0.8260
11.8850 -46.2268 -2.5014 0.8260
21.2018 -39.4951 -2.3492 0.8356
26.3896 -29.2705 -2.0654 0.8540
31.1988 -27.1764 -2.1684 0.8473
37.0952 -25.1660 -2.3492 0.8356
39.8515 -20.5240 -2.3492 0.8356
40.8312 -15.1399 -2.2822 0.8399
46.4231 -11.0936 -2.5014 0.8260
47.4201 -5.4323 -2.5014 0.8260
42.1913 5.3855 -2.2291 0.8434
21.6292 5.4646 -1.1692 0.9145
6.3155 5.6462 -0.4440 0.9666
4.9672 5.6545 -0.3944 0.9703
25.8562 37.7713 -2.3989 0.8325
2.9486 5.6668 -0.3348 0.9747
1.3816 5.6765 -0.3062 0.9769
0.6749 5.6808 -0.2998 0.9773
-0.1080 47.6666 -2.4981 0.8262
-1.4003 5.6420 -0.3047 0.9770
-2.1464 5.6376 -0.3161 0.9761
-5.0674 5.7161 -0.4003 0.9699
-15.1926 5.7783 -0.8519 0.9370
-22.6768 5.6201 -1.2244 0.9107
-34.6137 4.2590 -1.8277 0.8696
-44.5112 -5.3035 -2.3492 0.8356
-43.5509 -10.6160 -2.3492 0.8356
-42.3339 -22.0457 -2.5014 0.8260
-20.5666 -23.0206 -1.6178 0.8837
-6.8595 -27.1900 -1.4696 0.8938
11.1096 -46.4193 -2.5014 0.8260
16.2840 -43.8704 -2.4524 0.8291
20.5378 -39.8444 -2.3492 0.8356
25.1788 -37.0864 -2.3492 0.8356
30.1569 -27.1700 -2.1273 0.8499
36.6687 -25.7833 -2.3492 0.8356
39.5024 -21.1881 -2.3492 0.8356
46.2309 -11.8691 -2.5014 0.8260
47.3225 -6.2252 -2.5014 0.8260
42.1869 4.6687 -2.2244 0.8437
23.5835 5.5400 -1.2696 0.9075
21.5277 14.4843 -1.3598 0.9013
7.2540 6.2700 -0.5025 0.9623
5.1365 5.6534 -0.4003 0.9699
4.0155 5.6603 -0.3637 0.9726
3.0698 5.6661 -0.3377 0.9745
1.4825 5.6759 -0.3074 0.9768
-0.6028 5.6632 -0.2985 0.9774
-1.3004 5.6415 -0.3034 0.9771
-2.0409 5.6427 -0.3145 0.9763
-3.7321 5.5974 -0.3526 0.9734
-4.8982 5.7151 -0.3945 0.9703
-6.2466 5.7234 -0.4440 0.9666
-14.4479 5.7738 -0.8154 0.9396
-21.4372 5.6953 -1.1624 0.9150
-30.2682 4.2398 -1.6018 0.8848
-45.1184 0.8419 -2.3650 0.8346
-44.6019 -4.5585 -2.3497 0.8356
-43.7224 -9.8856 -2.3492 0.8356
-44.9521 -16.0463 -2.5014 0.8260
-42.6970 -21.3340 -2.5014 0.8260
-39.8226 -26.3122 -2.5014 0.8260
-21.8020 -23.5963 -1.6837 0.8793
-16.0103 -22.1728 -1.4333 0.8962
-5.3480 -37.0510 -1.9619 0.8608
-1.0902 -47.7178 -2.5014 0.8260
10.3311 -46.5987 -2.5014 0.8260
15.8540 -45.0074 -2.5008 0.8260
24.5543 -37.5080 -2.3492 0.8356
27.7158 -25.8241 -1.9853 0.8592
46.0258 -12.6413 -2.5014 0.8260
44.6304 4.1843 -2.3492 0.8356
21.4078 7.4404 -1.1878 0.9132
21.5175 13.9601 -1.3442 0.9024
5.3109 5.6523 -0.4065 0.9694
3.1932 5.6653 -0.3408 0.9743
1.5843 5.6752 -0.3088 0.9767
0.8684 5.6796 -0.3011 0.9772
-2.7156 5.6099 -0.3266 0.9753
-4.7337 5.7141 -0.3889 0.9707
-7.7326 5.7325 -0.5045 0.9622
-4.8568 2.7643 -0.2929 0.9779
-7.1979 3.0171 -0.4090 0.9692
-20.3163 5.7633 -1.1067 0.9189
-30.0672 4.7260 -1.5951 0.8852
-43.0481 -20.6163 -2.5014 0.8260
-40.2575 -25.6419 -2.5014 0.8260
-23.1068 -24.1835 -1.7529 0.8746
-12.8654 -22.3859 -1.3531 0.9017
-7.3366 -25.4562 -1.3884 0.8993
-5.5202 -34.1863 -1.8148 0.8705
-1.8888 -47.6928 -2.5014 0.8260
3.8584 -47.5740 -2.5014 0.8260
9.5497 -46.7652 -2.5014 0.8260
15.1023 -45.2780 -2.5014 0.8260
23.9233 -37.9085 -2.3492 0.8356
38.7710 -22.4985 -2.3492 0.8356
45.8078 -13.4098 -2.5014 0.8260
47.6845 -2.0884 -2.5014 0.8260
21.4022 7.0392 -1.1808 0.9137
7.4407 6.0082 -0.5012 0.9624
5.4908 5.6512 -0.4129 0.9689
3.3189 5.6646 -0.3441 0.9740
2.4608 5.6698 -0.3239 0.9755
0.9659 5.6790 -0.3019 0.9772
0.2727 5.6833 -0.2982 0.9775
-1.1027 5.6404 -0.3012 0.9772
-1.8303 5.6442 -0.3110 0.9765
-2.6031 5.6154 -0.3244 0.9755
-3.4669 5.5968 -0.3450 0.9740
-4.5738 5.7131 -0.3835 0.9711
-5.8389 5.7208 -0.4284 0.9678
-7.4658 5.7309 -0.4932 0.9630
-19.2249 5.8031 -1.0524 0.9227
-30.2488 5.2748 -1.6092 0.8843
-44.8051 -3.0681 -2.3536 0.8354
-44.0289 -8.4165 -2.3492 0.8356
-45.4640 -14.5327 -2.5014 0.8260
-37.3849 -29.6739 -2.5014 0.8260
-24.7704 -25.0708 -1.8470 0.8683
-17.2588 -22.2899 -1.4774 0.8932
-10.5269 -23.7096 -1.3595 0.9013
-7.6823 -25.0706 -1.3742 0.9003
-5.6668 -31.7120 -1.6883 0.8789
-2.6565 -47.1167 -2.4732 0.8278
3.0616 -47.6319 -2.5014 0.8260
17.9365 -39.5563 -2.2762 0.8403
26.1374 -33.2139 -2.2150 0.8443
27.4641 -27.3631 -2.0318 0.8562
29.9151 -18.0354 -1.8306 0.8694
33.6975 -15.1306 -1.9359 0.8625
45.5769 -14.1748 -2.5014 0.8260
46.9504 -8.5928 -2.5014 0.8260
47.6429 -2.8863 -2.5014 0.8260
21.5822 12.9968 -1.3203 0.9040
7.5338 5.8778 -0.5008 0.9624
5.6766 5.6501 -0.4197 0.9684
3.4470 5.6638 -0.3475 0.9738
2.5741 5.6692 -0.3263 0.9754
1.0638 5.6784 -0.3028 0.9771
-0.3172 5.6766 -0.2980 0.9775
-1.0057 5.6443 -0.3005 0.9773
-3.3384 5.5965 -0.3415 0.9742
-4.4182 5.7121 -0.3785 0.9715
-5.6455 5.7197 -0.4212 0.9683
-18.1013 5.7962 -0.9961 0.9267
-27.5315 5.2773 -1.4691 0.8938
-44.8915 -2.3199 -2.3558 0.8352
-44.1636 -7.6784 -2.3492 0.8356
-45.2763 -13.6418 -2.4782 0.8274
-41.0932 -24.2801 -2.5014 0.8260
-37.8763 -29.0441 -2.5014 0.8260
-27.1247 -26.5497 -1.9892 0.8590
-18.1535 -22.6518 -1.5213 0.8902
-13.6107 -21.9478 -1.3535 0.9017
-3.2721 -44.7065 -2.3492 0.8356
2.2638 -47.6765 -2.5014 0.8260
17.7365 -40.9231 -2.3375 0.8364
22.6411 -38.6879 -2.3492 0.8356
26.3564 -34.6709 -2.2824 0.8399
19.1710 -19.7510 -1.4425 0.8956
33.3356 -15.6437 -1.9298 0.8629
45.3332 -14.9356 -2.5014 0.8260
46.8000 -9.3775 -2.5014 0.8260
44.7841 1.9387 -2.3492 0.8356
7.6267 5.7475 -0.5005 0.9625
5.8688 5.6489 -0.4269 0.9679
3.5778 5.6630 -0.3511 0.9735
1.8955 5.6733 -0.3135 0.9763
1.1624 5.6778 -0.3037 0.9771
-0.2221 5.6811 -0.2980 0.9775
-0.9092 5.6488 -0.2999 0.9773
-1.6233 5.6432 -0.3077 0.9768
-2.3827 5.6261 -0.3202 0.9758
-3.2124 5.5962 -0.3382 0.9745
-5.4584 5.7185 -0.4143 0.9688
-6.9661 5.7278 -0.4726 0.9645
-26.7516 5.5936 -1.4323 0.8963
-43.5944 -1.5218 -2.2861 0.8397
-44.1190 -12.4916 -2.4031 0.8322
-44.0287 -18.4295 -2.5014 0.8260
-41.4939 -23.5887 -2.5014 0.8260
-32.5550 -30.8148 -2.3492 0.8356
-18.8412 -22.7201 -1.5469 0.8885
-8.4637 -24.6440 -1.3656 0.9009
-4.0200 -44.6454 -2.3492 0.8356
7.1901 -47.1856 -2.5014 0.8260
17.1349 -41.4219 -2.3492 0.8356
26.3489 -35.8924 -2.3335 0.8367
25.8425 -12.2327 -2.5014 0.8915
27.1257 -9.0373 -2.5014 0.8915
28.4987 -2.3014 -2.5014 0.8915
28.5666 1.1412 -2.5012 0.8915
26.5070 4.2896 -2.3492 0.8978
21.7821 6.2858 -1.9835 0.9130
22.5782 12.9863 -2.2788 0.9007
5.9078 5.6487 -0.7151 0.9677
4.6429 5.6564 -0.6402 0.9710
3.6042 5.6628 -0.5873 0.9734
2.7122 5.6683 -0.5498 0.9751
1.9165 5.6732 -0.5239 0.9762
0.4828 5.6820 -0.4989 0.9774
-0.2032 5.6820 -0.4974 0.9774
-0.8900 5.6497 -0.5004 0.9773
-2.3552 5.6132 -0.5326 0.9759
-3.1742 5.5725 -0.5611 0.9746
-4.2369 5.7110 -0.6221 0.9719
-11.4669 5.5459 -1.1144 0.9501
-16.9023 5.7888 -1.5631 0.9308
-26.2865 5.5879 -2.3512 0.8977
-26.7457 2.3853 -2.3492 0.8978
-28.2616 -4.3311 -2.5014 0.8915
-26.4109 -10.9517 -2.5014 0.8915
-24.9028 -14.0473 -2.5014 0.8915
-20.7798 -19.5381 -2.4954 0.8918
-17.2095 -20.6120 -2.3492 0.8978
-14.2160 -21.9286 -2.2864 0.9004
-11.1985 -22.9095 -2.2310 0.9027
-8.4581 -24.3629 -2.2563 0.9016
-5.6932 -26.2414 -2.3492 0.8978
-2.5025 -26.7916 -2.3542 0.8976
0.7826 -28.5808 -2.5014 0.8915
13.9430 -24.9613 -2.5014 0.8915
23.9258 -15.6534 -2.5014 0.8915
25.6341 -12.6636 -2.5014 0.8915
26.9706 -9.4901 -2.5014 0.8915
27.9159 -6.1789 -2.5014 0.8915
28.5838 0.6629 -2.5014 0.8915
26.5751 3.8453 -2.3492 0.8978
23.1130 6.2528 -2.0948 0.9083
13.8871 5.6227 -1.3108 0.9416
21.9002 12.1131 -2.1896 0.9044
8.4825 6.1295 -0.9156 0.9588
4.8028 5.6555 -0.6491 0.9706
2.8294 5.6676 -0.5542 0.9749
2.0227 5.6725 -0.5269 0.9761
0.5787 5.6814 -0.4996 0.9773
-0.1076 5.6595 -0.4952 0.9775
-2.2476 5.6185 -0.5294 0.9760
-4.0703 5.6829 -0.6116 0.9723
-8.5670 5.7079 -0.9006 0.9595
-11.0490 5.5739 -1.0827 0.9515
-26.2052 6.0308 -2.3526 0.8977
-26.8489 -0.3979 -2.3492 0.8978
-28.3301 -3.8574 -2.5014 0.8915
-26.5905 -10.5081 -2.5014 0.8915
-25.1344 -13.6285 -2.5014 0.8915
-23.3137 -16.5513 -2.5014 0.8915
-21.1549 -19.2339 -2.5014 0.8915
-14.7919 -22.0012 -2.3194 0.8990
-8.8430 -24.1588 -2.2508 0.9019
-6.1316 -26.1424 -2.3492 0.8978
3.7389 -28.3460 -2.5014 0.8915
7.1194 -27.6910 -2.5014 0.8915
10.3967 -26.6342 -2.5014 0.8915
25.4186 -13.0908 -2.5014 0.8915
27.8085 -6.6453 -2.5014 0.8915
28.5909 0.1844 -2.5014 0.8915
21.7947 8.4026 -2.0436 0.9105
8.5839 5.9866 -0.9156 0.9588
6.3155 5.6462 -0.7411 0.9666
4.9672 5.6545 -0.6585 0.9702
2.1301 5.6719 -0.5301 0.9760
1.3816 5.6765 -0.5111 0.9768
-0.0627 27.7019 -2.4236 0.8947
-0.6983 5.6587 -0.4988 0.9774
-2.1412 5.6238 -0.5265 0.9761
-5.0674 5.7161 -0.6683 0.9698
-10.6540 5.6002 -1.0530 0.9528
-15.1926 5.7783 -1.4221 0.9368
-26.8518 0.0516 -2.3492 0.8978
-28.3907 -3.3827 -2.5014 0.8915
-26.7627 -10.0615 -2.5014 0.8915
-25.3590 -13.2059 -2.5014 0.8915
-23.5875 -16.1587 -2.5014 0.8915
-11.9526 -22.5096 -2.2298 0.9027
-9.2262 -23.9555 -2.2459 0.9021
-6.5683 -26.0361 -2.3492 0.8978
-0.1745 -28.5910 -2.5014 0.8915
9.9494 -26.8045 -2.5014 0.8915
16.0599 -23.6549 -2.5014 0.8915
17.8812 -20.5135 -2.3808 0.8965
20.2676 -18.2602 -2.3867 0.8962
23.3885 -16.4454 -2.5014 0.8915
25.1959 -13.5145 -2.5014 0.8915
26.6378 -10.3875 -2.5014 0.8915
27.6934 -7.1099 -2.5014 0.8915
28.5900 -0.2942 -2.5014 0.8915
23.5835 5.5400 -2.1195 0.9073
21.7860 7.9831 -2.0300 0.9110
8.6829 5.8421 -0.9156 0.9588
7.2540 6.2700 -0.8389 0.9622
4.0155 5.6603 -0.6072 0.9725
1.4825 5.6759 -0.5132 0.9767
0.7714 5.6802 -0.5015 0.9772
0.0822 5.6795 -0.4969 0.9775
-1.2978 5.6306 -0.5055 0.9771
-2.0359 5.6290 -0.5237 0.9763
-2.8224 5.5900 -0.5479 0.9752
-4.8982 5.7151 -0.6585 0.9702
-10.2798 5.6251 -1.0252 0.9540
-14.4479 5.7738 -1.3612 0.9394
-21.0103 5.5819 -1.9019 0.9164
-26.8472 0.5010 -2.3492 0.8978
-27.8876 -6.3053 -2.5014 0.8915
-25.5765 -12.7795 -2.5014 0.8915
-23.8547 -15.7616 -2.5014 0.8915
-18.2225 -19.7222 -2.3492 0.8978
-9.6078 -23.7531 -2.2417 0.9022
-3.8361 -26.5764 -2.3492 0.8978
-0.6531 -28.5841 -2.5014 0.8915
2.7880 -28.4553 -2.5014 0.8915
9.4994 -26.9673 -2.5014 0.8915
12.6724 -25.6298 -2.5014 0.8915
15.6617 -23.9204 -2.5014 0.8915
17.6261 -20.9176 -2.3931 0.8960
23.1099 -16.8346 -2.5014 0.8915
24.9662 -13.9343 -2.5014 0.8915
26.4603 -10.8319 -2.5014 0.8915
27.5705 -7.5724 -2.5014 0.8915
28.2809 -4.2030 -2.5014 0.8915
26.7346 2.5065 -2.3492 0.8978
21.8462 10.6881 -2.1278 0.9070
7.3475 6.1390 -0.8377 0.9623
3.1932 5.6653 -0.5690 0.9742
2.3491 5.6705 -0.5370 0.9757
-0.5074 5.6677 -0.4978 0.9774
-1.9307 5.6309 -0.5208 0.9764
-4.7337 5.7141 -0.6492 0.9706
-6.0391 5.7221 -0.7279 0.9671
-7.7325 5.7325 -0.8421 0.9621
-7.1956 3.0162 -0.6826 0.9692
-20.2041 5.7314 -1.8374 0.9191
-26.8350 0.9503 -2.3492 0.8978
-28.4168 -2.4244 -2.4952 0.8918
-27.9892 -5.8376 -2.5014 0.8915
-18.5500 -19.4144 -2.3492 0.8978
-16.0816 -21.5036 -2.3492 0.8978
-12.7067 -22.1097 -2.2310 0.9027
-8.1564 -19.2322 -1.8277 0.9195
-7.2870 -25.2843 -2.3021 0.8997
-1.1314 -28.5691 -2.5014 0.8915
2.3113 -28.4979 -2.5014 0.8915
5.7205 -28.0134 -2.5014 0.8915
9.0466 -27.1225 -2.5014 0.8915
15.2591 -24.1792 -2.5014 0.8915
17.3815 -21.3423 -2.4081 0.8954
19.4979 -18.7864 -2.3688 0.8970
22.7851 -17.1891 -2.4971 0.8917
24.7294 -14.3503 -2.5014 0.8915
28.2066 -4.6758 -2.5014 0.8915
26.3312 5.2623 -2.3492 0.8978
21.7698 7.1601 -2.0050 0.9121
21.8354 10.2334 -2.1097 0.9077
21.9044 13.6956 -2.2601 0.9015
3.3189 5.6646 -0.5744 0.9740
1.6870 5.6746 -0.5179 0.9765
-0.4123 5.6721 -0.4976 0.9774
-1.8258 5.6304 -0.5178 0.9765
-3.4478 5.5660 -0.5728 0.9741
-5.8389 5.7208 -0.7152 0.9677
-7.4658 5.7309 -0.8234 0.9629
-4.7432 2.8058 -0.4821 0.9781
-13.1339 5.7657 -1.2549 0.9440
-19.2249 5.8031 -1.7569 0.9225
-26.4527 4.6129 -2.3492 0.8978
-27.2971 -1.8692 -2.3938 0.8960
-28.0830 -5.3683 -2.5014 0.8915
-25.9899 -11.9163 -2.5014 0.8915
-22.3944 -17.7754 -2.5014 0.8915
-18.8724 -19.1012 -2.3492 0.8978
-8.4386 -19.0061 -1.8193 0.9199
-7.6042 -24.8158 -2.2707 0.9010
-4.7235 -26.4331 -2.3492 0.8978
1.8340 -28.5326 -2.5014 0.8915
5.2508 -28.1052 -2.5014 0.8915
24.4858 -14.7622 -2.5014 0.8915
28.1244 -5.1473 -2.5014 0.8915
28.5392 -1.7289 -2.5014 0.8915
26.8212 1.6112 -2.3508 0.8977
26.4156 4.8208 -2.3492 0.8978
12.5435 5.6246 -1.2027 0.9463
7.5338 5.8778 -0.8360 0.9624
3.4470 5.6638 -0.5801 0.9737
1.7907 5.6740 -0.5205 0.9764
-0.3172 5.6766 -0.4974 0.9774
-2.4860 5.6067 -0.5366 0.9757
-4.4182 5.7121 -0.6318 0.9714
-5.6455 5.7197 -0.7031 0.9682
-12.5507 5.7621 -1.2082 0.9461
-18.1013 5.7962 -1.6629 0.9265
-26.3740 5.0554 -2.3494 0.8978
-26.7882 1.8480 -2.3492 0.8978
-28.1689 -4.8975 -2.5014 0.8915
-24.6158 -14.5443 -2.5014 0.8915
-22.6888 -17.3981 -2.5014 0.8915
-19.6459 -19.2294 -2.4051 0.8955
-13.5464 -21.8441 -2.2488 0.9019
-10.7457 -23.1497 -2.2329 0.9026
8.1337 -27.4102 -2.5014 0.8915
16.9560 -22.3050 -2.4513 0.8936
18.8179 -19.3872 -2.3638 0.8972
21.7822 -17.6067 -2.4504 0.8936
28.5063 -2.2064 -2.5014 0.8915
28.5443 1.2357 -2.4996 0.8916
21.7551 6.3567 -1.9829 0.9130
5.8688 5.6489 -0.7127 0.9678
4.6116 5.6566 -0.6385 0.9711
3.5778 5.6630 -0.5860 0.9735
1.8955 5.6733 -0.5233 0.9763
0.4637 5.6821 -0.4988 0.9774
-0.2221 5.6811 -0.4974 0.9774
-1.6194 5.6295 -0.5125 0.9768
-5.4584 5.7185 -0.6916 0.9688
-6.9661 5.7278 -0.7890 0.9644
-26.3018 5.4996 -2.3509 0.8977
-26.3742 -11.0397 -2.5014 0.8915
-24.8558 -14.1302 -2.5014 0.8915
-14.1032 -21.9144 -2.2800 0.9006
-5.6056 -26.2602 -2.3492 0.8978
4.3070 -28.2652 -2.5014 0.8915
7.6739 -27.5424 -2.5014 0.8915
14.0261 -24.9147 -2.5014 0.8915
16.7717 -22.8463 -2.4796 0.8924
18.4138 -8.7163 -2.5014 0.9212
20.3563 0.8132 -2.5014 0.9212
18.3828 5.3049 -2.3492 0.9258
16.6326 9.5666 -2.3559 0.9256
7.6334 5.7128 -1.1707 0.9623
5.9078 5.6487 -1.0036 0.9676
4.6429 5.6564 -0.8985 0.9709
3.6042 5.6628 -0.8242 0.9733
2.7122 5.6683 -0.7715 0.9750
1.1821 5.6777 -0.7121 0.9769
-1.5954 5.6166 -0.7169 0.9767
-2.3493 5.5993 -0.7456 0.9758
-3.1659 5.5579 -0.7854 0.9746
-4.2369 5.7110 -0.8731 0.9717
-8.7750 5.6367 -1.2806 0.9588
-11.1579 5.3964 -1.5218 0.9513
-16.9023 5.7888 -2.1937 0.9305
-18.7148 3.9783 -2.3492 0.9258
-20.1374 -3.0861 -2.5014 0.9212
-17.7442 -10.0092 -2.5014 0.9212
-4.3194 -19.9094 -2.5014 0.9212
-1.8947 -20.2842 -2.5014 0.9212
5.4024 -19.6432 -2.5014 0.9212
9.9349 -17.7859 -2.5014 0.9212
12.0010 -16.4626 -2.5014 0.9212
17.0481 -11.1536 -2.5014 0.9212
19.2176 -6.7620 -2.5014 0.9212
19.8911 -4.4027 -2.5014 0.9212
20.3671 0.4724 -2.5014 0.9212
17.7345 7.1805 -2.3492 0.9258
16.7829 9.2827 -2.3549 0.9256
4.8028 5.6555 -0.9110 0.9705
3.7383 5.6620 -0.8331 0.9730
2.0227 5.6725 -0.7395 0.9760
1.2815 5.6771 -0.7146 0.9768
-0.1076 5.6595 -0.6950 0.9774
-1.4955 5.6213 -0.7142 0.9768
-2.2420 5.6046 -0.7412 0.9760
-4.0703 5.6829 -0.8583 0.9722
-8.4910 5.6572 -1.2528 0.9597
-10.8692 5.4832 -1.4948 0.9521
-15.9105 5.7485 -2.0772 0.9341
-18.6456 4.2910 -2.3492 0.9258
-19.0262 2.0184 -2.3492 0.9258
-18.9467 -7.4874 -2.5014 0.9212
-16.6119 -11.7934 -2.5014 0.9212
-15.0737 -13.7049 -2.5014 0.9212
-6.9489 -18.9842 -2.4822 0.9218
-2.2339 -20.2497 -2.5014 0.9212
2.6641 -20.1976 -2.5014 0.9212
5.0729 -19.7309 -2.5014 0.9212
7.4080 -18.9779 -2.5014 0.9212
13.6417 -15.1309 -2.5014 0.9212
18.1117 -9.3277 -2.5014 0.9212
19.1017 -7.0828 -2.5014 0.9212
19.8146 -4.7350 -2.5014 0.9212
20.3721 0.1314 -2.5014 0.9212
18.9790 2.4226 -2.3492 0.9258
18.5501 4.6866 -2.3492 0.9258
6.3155 5.6462 -1.0402 0.9664
10.9486 15.9940 -2.3799 0.9249
2.9486 5.6668 -0.7844 0.9746
2.1301 5.6719 -0.7439 0.9759
0.6749 5.6808 -0.7024 0.9772
-0.0441 19.4891 -2.3930 0.9245
-0.6983 5.6587 -0.7001 0.9773
-2.9303 5.5699 -0.7728 0.9750
-3.8254 5.5342 -0.8260 0.9733
-5.0674 5.7161 -0.9379 0.9697
-8.2396 5.6911 -1.2296 0.9604
-18.5711 4.6026 -2.3492 0.9258
-18.9898 2.3366 -2.3492 0.9258
-20.3388 0.0390 -2.4973 0.9213
-19.0694 -7.1692 -2.5014 0.9212
-16.8070 -11.5137 -2.5014 0.9212
-13.5730 -15.1926 -2.5014 0.9212
-11.6482 -16.7141 -2.5014 0.9212
-2.5725 -20.2095 -2.5014 0.9212
2.3256 -20.2394 -2.5014 0.9212
4.7419 -19.8130 -2.5014 0.9212
7.0893 -19.0993 -2.5014 0.9212
9.3340 -18.1085 -2.5014 0.9212
13.3865 -15.3571 -2.5014 0.9212
15.1356 -13.6365 -2.5014 0.9212
16.6652 -11.7180 -2.5014 0.9212
18.9805 -7.4015 -2.5014 0.9212
19.7326 -5.0660 -2.5014 0.9212
20.3715 -0.2096 -2.5014 0.9212
17.9649 6.5829 -2.3492 0.9258
8.4717 5.6999 -1.2537 0.9597
7.2540 6.2700 -1.1773 0.9621
5.1365 5.6534 -0.9379 0.9697
4.0155 5.6603 -0.8521 0.9724
3.0698 5.6661 -0.7913 0.9744
2.2389 5.6712 -0.7486 0.9757
1.4825 5.6759 -0.7203 0.9766
-0.6027 5.6632 -0.6993 0.9773
-1.2978 5.6306 -0.7095 0.9770
-2.0310 5.6152 -0.7332 0.9762
-2.8152 5.5758 -0.7669 0.9751
-6.2467 5.7234 -1.0402 0.9664
-14.4479 5.7738 -1.9104 0.9392
-18.9480 2.6541 -2.3492 0.9258
-16.9974 -11.2308 -2.5014 0.9212
-13.8254 -14.9633 -2.5014 0.9212
-11.9263 -16.5168 -2.5014 0.9212
-5.3119 -19.6622 -2.5008 0.9212
-2.9105 -20.1636 -2.5014 0.9212
1.9865 -20.2754 -2.5014 0.9212
6.7687 -19.2152 -2.5014 0.9212
13.1276 -15.5790 -2.5014 0.9212
14.9052 -13.8879 -2.5014 0.9212
17.7894 -9.9288 -2.5014 0.9212
18.8539 -7.7181 -2.5014 0.9212
20.3651 -0.5506 -2.5014 0.9212
19.0494 1.7860 -2.3492 0.9258
8.7019 5.6456 -1.2736 0.9591
5.3109 5.6523 -0.9523 0.9692
4.1590 5.6594 -0.8623 0.9721
3.1932 5.6653 -0.7985 0.9741
0.8684 5.6796 -0.7055 0.9771
0.1775 5.6839 -0.6982 0.9773
-0.5074 5.6677 -0.6987 0.9773
-1.1999 5.6352 -0.7074 0.9770
-2.7018 5.5815 -0.7614 0.9753
-3.5599 5.5377 -0.8083 0.9738
-6.0391 5.7221 -1.0215 0.9670
-4.8565 2.7642 -0.6861 0.9777
-7.1934 3.0153 -0.9577 0.9691
-18.9009 2.9709 -2.3492 0.9258
-20.2988 -1.7318 -2.5014 0.9212
-19.9434 -4.1595 -2.5014 0.9212
-18.3741 -8.7996 -2.5014 0.9212
-17.1830 -10.9447 -2.5014 0.9212
-15.7426 -12.9310 -2.5014 0.9212
-14.0739 -14.7297 -2.5014 0.9212
-12.2011 -16.3148 -2.5014 0.9212
-7.8471 -18.5029 -2.4677 0.9222
-5.6354 -19.5536 -2.4986 0.9213
-0.8062 -20.3566 -2.5014 0.9212
4.0761 -19.9606 -2.5014 0.9212
6.4461 -19.3259 -2.5014 0.9212
10.8727 -17.2286 -2.5014 0.9212
14.6707 -14.1354 -2.5014 0.9212
16.2636 -12.2693 -2.5014 0.9212
19.5520 -5.7237 -2.5014 0.9212
20.0983 -3.3317 -2.5014 0.9212
18.7620 3.7496 -2.3492 0.9258
18.1751 5.9779 -2.3492 0.9258
9.0403 5.6524 -1.3091 0.9579
2.4608 5.6698 -0.7589 0.9754
1.6870 5.6746 -0.7269 0.9764
-0.4123 5.6721 -0.6983 0.9773
-1.1026 5.6397 -0.7056 0.9771
-1.8213 5.6166 -0.7250 0.9765
-18.3167 5.5290 -2.3492 0.9258
-18.8485 3.2868 -2.3492 0.9258
-20.3249 -1.3918 -2.5014 0.9212
-20.0102 -3.8251 -2.5014 0.9212
-17.3638 -10.6555 -2.5014 0.9212
-14.3185 -14.4921 -2.5014 0.9212
-12.4725 -16.1083 -2.5014 0.9212
-10.4291 -17.4635 -2.4975 0.9213
-8.1547 -18.3668 -2.4674 0.9222
-5.9575 -19.4419 -2.4967 0.9213
1.3068 -20.3306 -2.5014 0.9212
8.4133 -18.5542 -2.5014 0.9212
12.5987 -16.0098 -2.5014 0.9212
16.0560 -12.5398 -2.5014 0.9212
19.4534 -6.0502 -2.5014 0.9212
20.3234 1.2209 -2.4999 0.9212
18.2727 5.6728 -2.3492 0.9258
17.4599 7.8292 -2.3495 0.9258
9.3889 5.6540 -1.3457 0.9568
7.5338 5.8778 -1.1733 0.9622
5.6766 5.6501 -0.9834 0.9682
1.0638 5.6784 -0.7094 0.9770
-0.3172 5.6766 -0.6981 0.9773
-2.4798 5.5927 -0.7512 0.9756
-3.3109 5.5505 -0.7936 0.9743
-5.6455 5.7197 -0.9868 0.9681
-11.5067 5.2828 -1.5546 0.9503
-18.2216 5.8347 -2.3492 0.9258
-20.3454 -1.0514 -2.5014 0.9212
-18.6584 -8.1796 -2.5014 0.9212
-10.7283 -17.2998 -2.4994 0.9212
-8.4642 -18.2347 -2.4684 0.9222
-6.2780 -19.3272 -2.4951 0.9214
-1.4871 -20.3182 -2.5014 0.9212
3.4057 -20.0859 -2.5014 0.9212
5.7956 -19.5308 -2.5014 0.9212
8.1015 -18.6924 -2.5014 0.9212
10.2899 -17.5829 -2.5014 0.9212
12.3290 -16.2184 -2.5014 0.9212
14.1893 -14.6186 -2.5014 0.9212
15.8439 -12.8068 -2.5014 0.9212
17.2685 -10.8092 -2.5014 0.9212
18.4428 -8.6548 -2.5014 0.9212
19.3494 -6.3749 -2.5014 0.9212
20.3118 -1.5721 -2.5014 0.9212
20.3535 0.8811 -2.5014 0.9212
18.8770 3.1194 -2.3492 0.9258
18.3650 5.3662 -2.3492 0.9258
9.7784 5.6677 -1.3877 0.9555
5.8688 5.6489 -1.0002 0.9677
4.6116 5.6566 -0.8961 0.9710
2.6891 5.6684 -0.7703 0.9750
1.1624 5.6778 -0.7116 0.9769
0.4637 5.6821 -0.7000 0.9773
-0.2221 5.6811 -0.6981 0.9773
-2.3708 5.5982 -0.7465 0.9758
-3.1898 5.5567 -0.7867 0.9745
-4.2666 5.7112 -0.8753 0.9717
-5.4584 5.7185 -0.9707 0.9686
-11.2148 5.3779 -1.5271 0.9511
-17.0915 5.7900 -2.2157 0.9299
-18.7280 3.9159 -2.3492 0.9258
-19.0629 1.6360 -2.3492 0.9258
-20.3602 -0.7107 -2.5014 0.9212
-20.1271 -3.1532 -2.5014 0.9212
-18.7927 -7.8662 -2.5014 0.9212
-17.7107 -10.0683 -2.5014 0.9212
-16.3719 -12.1245 -2.5014 0.9212
-14.7956 -14.0047 -2.5014 0.9212
-13.0046 -15.6819 -2.5014 0.9212
-11.0251 -17.1315 -2.5014 0.9212
0.6255 -20.3629 -2.5014 0.9212
7.7875 -18.8254 -2.5014 0.9212
15.7422 -1.2713 -2.5014 0.9380
15.7685 0.6300 -2.4995 0.9381
13.6532 5.7959 -2.3492 0.9417
12.8574 7.3952 -2.3492 0.9417
7.6334 5.7128 -1.5101 0.9621
5.9078 5.6487 -1.2946 0.9674
2.7122 5.6683 -0.9953 0.9749
1.9165 5.6732 -0.9484 0.9760
0.4828 5.6820 -0.9032 0.9772
-0.2032 5.6820 -0.9005 0.9772
-0.8900 5.6497 -0.9059 0.9771
-3.1575 5.5432 -1.0104 0.9745
-4.2369 5.7110 -1.1263 0.9716
-5.4219 5.7183 -1.2481 0.9686
-14.0323 4.8059 -2.3492 0.9417
-14.7738 1.3176 -2.3492 0.9417
-15.7856 -0.4983 -2.5014 0.9380
-15.6112 -2.3924 -2.5014 0.9380
-6.2886 -2.6076 -1.0782 0.9728
-11.5061 -10.8186 -2.5014 0.9380
-3.3485 -15.4344 -2.5014 0.9380
-1.4688 -15.7250 -2.5014 0.9380
0.4323 -15.7875 -2.5014 0.9380
4.1881 -15.2280 -2.5014 0.9380
5.9884 -14.6141 -2.5014 0.9380
9.3035 -12.7623 -2.5014 0.9380
12.0809 -10.1727 -2.5014 0.9380
14.1598 -6.9951 -2.5014 0.9380
15.4202 -3.4131 -2.5014 0.9380
15.7187 -1.5346 -2.5014 0.9380
15.7892 0.3662 -2.5014 0.9380
14.3178 3.8734 -2.3492 0.9417
13.7483 5.5665 -2.3492 0.9417
12.9794 7.1789 -2.3492 0.9417
8.4267 6.0891 -1.6466 0.9588
6.1080 5.6474 -1.3176 0.9669
3.7383 5.6620 -1.0746 0.9729
2.0227 5.6725 -0.9539 0.9759
1.2815 5.6771 -0.9218 0.9767
-0.1076 5.6595 -0.8965 0.9773
-0.7940 5.6542 -0.9043 0.9771
-1.4955 5.6213 -0.9213 0.9767
-3.0391 5.5494 -1.0021 0.9747
-4.0703 5.6829 -1.1071 0.9721
-5.2419 5.7172 -1.2285 0.9691
-6.6858 5.7261 -1.3942 0.9650
-8.4760 5.6473 -1.6131 0.9596
-13.9499 5.0401 -2.3492 0.9417
-14.4546 3.3265 -2.3492 0.9417
-15.2794 -3.9966 -2.5014 0.9380
-10.3236 -11.9522 -2.5014 0.9380
-8.8119 -13.1066 -2.5014 0.9380
-7.1723 -14.0709 -2.5014 0.9380
-3.6064 -15.3761 -2.5014 0.9380
0.1679 -15.7925 -2.5014 0.9380
2.0653 -15.6578 -2.5014 0.9380
5.7429 -14.7123 -2.5014 0.9380
7.4700 -13.9152 -2.5014 0.9380
10.5755 -11.7299 -2.5014 0.9380
14.0408 -7.2311 -2.5014 0.9380
15.6908 -1.7975 -2.5014 0.9380
15.7931 0.1019 -2.5014 0.9380
14.7131 1.8781 -2.3492 0.9417
13.8395 5.3356 -2.3492 0.9417
13.0977 6.9607 -2.3492 0.9417
8.4253 5.8760 -1.6269 0.9593
2.9486 5.6668 -1.0118 0.9745
-0.6983 5.6587 -0.9030 0.9772
-1.3963 5.6259 -0.9181 0.9768
-2.9227 5.5555 -0.9942 0.9749
-3.7977 5.4942 -1.0578 0.9733
-5.0674 5.7161 -1.2099 0.9695
-8.2395 5.6911 -1.5861 0.9603
-10.3150 5.4221 -1.8457 0.9539
-13.8636 5.2729 -2.3492 0.9417
-14.7214 1.8114 -2.3492 0.9417
-6.4020 -2.4068 -1.0833 0.9727
-6.1241 -3.1892 -1.0936 0.9724
-10.5222 -11.7777 -2.5014 0.9380
-5.6762 -14.7381 -2.5014 0.9380
-1.9943 -15.6670 -2.5014 0.9380
1.8029 -15.6902 -2.5014 0.9380
3.6760 -15.3596 -2.5014 0.9380
5.4959 -14.8063 -2.5014 0.9380
10.3776 -11.9053 -2.5014 0.9380
11.7336 -10.5714 -2.5014 0.9380
13.9178 -7.4651 -2.5014 0.9380
14.7143 -5.7379 -2.5014 0.9380
15.2973 -3.9274 -2.5014 0.9380
15.6585 -2.0599 -2.5014 0.9380
14.7425 1.6315 -2.3492 0.9417
7.2540 6.2700 -1.5186 0.9619
5.1365 5.6534 -1.2098 0.9695
4.0155 5.6603 -1.0992 0.9723
3.0698 5.6661 -1.0207 0.9742
0.7714 5.6802 -0.9079 0.9771
0.0822 5.6795 -0.8996 0.9773
-1.2978 5.6306 -0.9152 0.9769
-2.0260 5.6014 -0.9434 0.9762
-2.8079 5.5614 -0.9867 0.9751
-3.6731 5.5089 -1.0487 0.9735
-7.9850 5.7151 -1.5552 0.9610
-9.9662 5.4536 -1.7994 0.9550
-15.7907 0.2947 -2.5014 0.9380
-15.7116 -1.6058 -2.5014 0.9380
-13.1769 -8.7064 -2.5014 0.9380
-12.0347 -10.2274 -2.5014 0.9380
-7.6393 -13.8229 -2.5014 0.9380
-4.1191 -15.2468 -2.5014 0.9380
-0.3607 -15.7893 -2.5014 0.9380
3.4185 -15.4190 -2.5014 0.9380
10.1769 -12.0773 -2.5014 0.9380
11.5550 -10.7663 -2.5014 0.9380
12.7655 -9.2991 -2.5014 0.9380
13.7908 -7.6971 -2.5014 0.9380
14.6161 -5.9833 -2.5014 0.9380
15.2294 -4.1829 -2.5014 0.9380
14.4942 3.1498 -2.3492 0.9417
5.3109 5.6523 -1.2284 0.9691
3.1932 5.6653 -1.0300 0.9740
1.5843 5.6752 -0.9332 0.9764
0.1775 5.6839 -0.9007 0.9772
-0.5074 5.6677 -0.9013 0.9772
-1.1999 5.6352 -0.9125 0.9769
-3.5468 5.5174 -1.0389 0.9738
-7.7326 5.7325 -1.5246 0.9618
-4.8564 2.7641 -0.8850 0.9776
-14.2694 4.0479 -2.3492 0.9417
-14.6526 2.3031 -2.3492 0.9417
-15.4607 -3.2246 -2.5014 0.9380
-6.1768 -2.9582 -1.0847 0.9726
-13.3208 -8.4847 -2.5014 0.9380
-12.2042 -10.0245 -2.5014 0.9380
-10.9105 -11.4189 -2.5014 0.9380
-7.8696 -13.6931 -2.5014 0.9380
-4.3737 -15.1757 -2.5014 0.9380
-2.5176 -15.5914 -2.5014 0.9380
3.1599 -15.4741 -2.5014 0.9380
4.9972 -14.9820 -2.5014 0.9380
11.3732 -10.9582 -2.5014 0.9380
12.6081 -9.5115 -2.5014 0.9380
15.1573 -4.4371 -2.5014 0.9380
14.5448 2.9068 -2.3492 0.9417
14.0899 4.6342 -2.3492 0.9417
13.4306 6.2944 -2.3492 0.9417
7.4407 6.0082 -1.5147 0.9620
4.3060 5.6585 -1.1262 0.9716
2.4608 5.6698 -0.9789 0.9753
0.9659 5.6790 -0.9124 0.9769
-1.1026 5.6397 -0.9102 0.9770
-3.4228 5.5257 -1.0295 0.9740
-5.8389 5.7208 -1.2947 0.9674
-7.4658 5.7309 -1.4907 0.9626
-13.5814 5.9622 -2.3492 0.9417
-14.6120 2.5481 -2.3492 0.9417
-15.5125 -2.9654 -2.5014 0.9380
-6.2098 -2.8472 -1.0820 0.9727
-13.4609 -8.2605 -2.5014 0.9380
-12.3703 -9.8188 -2.5014 0.9380
-11.1001 -11.2347 -2.5014 0.9380
-9.6691 -12.4877 -2.5014 0.9380
-8.0977 -13.5595 -2.5014 0.9380
-6.4089 -14.4346 -2.5014 0.9380
-0.8891 -15.7684 -2.5014 0.9380
2.9004 -15.5248 -2.5014 0.9380
4.7457 -15.0635 -2.5014 0.9380
8.2041 -13.4954 -2.5014 0.9380
13.5255 -8.1543 -2.5014 0.9380
14.4077 -6.4692 -2.5014 0.9380
15.5354 -2.8433 -2.5014 0.9380
15.7645 -0.9550 -2.5014 0.9380
14.5915 2.6629 -2.3492 0.9417
14.1655 4.3977 -2.3492 0.9417
7.5338 5.8778 -1.5134 0.9620
5.6766 5.6501 -1.2685 0.9681
4.4568 5.6576 -1.1407 0.9713
3.4470 5.6638 -1.0501 0.9735
1.7907 5.6740 -0.9424 0.9762
-1.7162 5.6109 -0.9293 0.9765
-3.3010 5.5338 -1.0205 0.9742
-4.4182 5.7121 -1.1438 0.9712
-5.6455 5.7197 -1.2729 0.9680
-7.2106 5.7293 -1.4587 0.9634
-4.7557 2.9217 -0.8840 0.9776
-11.1730 5.1296 -1.9472 0.9514
-14.5673 2.7923 -2.3492 0.9417
-15.7724 -0.8151 -2.5014 0.9380
-9.8767 -12.3241 -2.5014 0.9380
-8.3235 -13.4220 -2.5014 0.9380
-6.6496 -14.3253 -2.5014 0.9380
-4.8792 -15.0208 -2.5014 0.9380
-3.0381 -15.4985 -2.5014 0.9380
0.7491 -15.7756 -2.5014 0.9380
2.6402 -15.5712 -2.5014 0.9380
4.4929 -15.1409 -2.5014 0.9380
6.2805 -14.4909 -2.5014 0.9380
7.9771 -13.6308 -2.5014 0.9380
9.5578 -12.5730 -2.5014 0.9380
11.0000 -11.3328 -2.5014 0.9380
14.2974 -6.7094 -2.5014 0.9380
15.0003 -4.9420 -2.5014 0.9380
