ply
format ascii 1.0
element vertex 1569
property float32 x
property float32 y
property float32 z
property float32 I
end_header
6.5693 -27.8269 -2.5015 0.8915
9.8689 -26.8346 -2.5015 0.8915
13.0253 -25.4525 -2.5015 0.8915
15.0195 -22.2587 -2.3493 0.8978
16.9376 -19.5401 -2.2624 0.9014
19.9011 -18.0272 -2.3493 0.8978
26.6125 -10.4529 -2.5015 0.8915
27.6766 -7.1758 -2.5015 0.8915
28.3389 -3.7943 -2.5015 0.8915
19.4976 9.9001 -1.9131 0.9159
19.5840 13.1246 -2.0626 0.9097
20.6686 17.8016 -2.3865 0.8963
4.0290 5.6602 -0.6078 0.9725
2.2483 5.6712 -0.5337 0.9758
1.4908 5.6758 -0.5134 0.9767
0.7788 5.6802 -0.5016 0.9772
0.0891 5.6844 -0.4974 0.9774
-1.3060 5.6930 -0.5110 0.9768
-2.8598 5.6766 -0.5561 0.9748
-8.0019 5.7342 -0.8613 0.9612
-7.0031 2.8021 -0.6599 0.9702
-21.8658 5.8172 -1.9795 0.9132
-26.8473 0.5061 -2.3493 0.8978
-28.4439 -2.9040 -2.5015 0.8915
-27.8880 -6.3046 -2.5015 0.8915
-26.9271 -9.6136 -2.5015 0.8915
-25.5751 -12.7829 -2.5015 0.8915
-23.8517 -15.7666 -2.5015 0.8915
-21.7818 -18.5214 -2.5015 0.8915
-18.2156 -19.7289 -2.3493 0.8978
-9.9862 -24.7309 -2.3334 0.8984
-6.9858 -25.9275 -2.3493 0.8978
-4.0634 -28.3015 -2.5015 0.8915
-0.6293 -28.5848 -2.5015 0.8915
6.2161 -27.9079 -2.5015 0.8915
9.5282 -26.9574 -2.5015 0.8915
28.5827 -0.7198 -2.5015 0.8915
26.7300 2.5580 -2.3493 0.8978
26.2282 5.7549 -2.3493 0.8978
19.9437 13.0025 -2.0829 0.9088
20.8837 17.5309 -2.3855 0.8963
5.3824 5.7560 -0.6895 0.9689
4.1376 5.6595 -0.6134 0.9722
2.3317 5.6707 -0.5364 0.9757
0.1612 5.6840 -0.4975 0.9774
-0.5262 5.6882 -0.4998 0.9773
-1.2302 5.6925 -0.5095 0.9769
-2.7722 5.6807 -0.5530 0.9749
-5.9112 5.5627 -0.7101 0.9679
-10.2528 5.7871 -1.0300 0.9538
-26.5421 4.0684 -2.3493 0.8978
-25.7350 -12.4579 -2.5015 0.8915
-24.0495 -15.4632 -2.5015 0.8915
-22.0147 -18.2440 -2.5015 0.8915
-18.4639 -19.4967 -2.3493 0.8978
-15.9846 -21.5762 -2.3493 0.8978
-10.2859 -24.5720 -2.3305 0.8986
-0.9914 -28.5746 -2.5015 0.8915
5.8622 -27.9843 -2.5015 0.8915
9.1859 -27.0760 -2.5015 0.8915
12.3763 -25.7743 -2.5015 0.8915
14.5550 -22.7952 -2.3662 0.8971
26.3391 -11.1238 -2.5015 0.8915
28.2337 -4.5110 -2.5015 0.8915
28.5713 -1.0819 -2.5015 0.8915
26.2990 5.4222 -2.3493 0.8978
16.5999 5.5732 -1.5320 0.9321
4.2223 5.6246 -0.6153 0.9722
3.2688 5.6649 -0.5722 0.9741
7.6998 26.5577 -2.4192 0.8949
0.9258 5.6793 -0.5034 0.9772
0.2332 5.6835 -0.4977 0.9774
-0.4535 5.6878 -0.4992 0.9774
-1.1548 5.6921 -0.5081 0.9769
-1.8925 5.6966 -0.5252 0.9762
-2.6855 5.6848 -0.5501 0.9751
-5.7635 5.5630 -0.7008 0.9683
-9.8848 5.7457 -1.0003 0.9551
-19.7934 5.8066 -1.8047 0.9205
-26.4884 4.4045 -2.3493 0.8978
-26.8259 1.1860 -2.3493 0.8978
-28.5084 -2.1824 -2.5015 0.8915
-27.1620 -8.9283 -2.5015 0.8915
-24.2434 -15.1573 -2.5015 0.8915
-22.2440 -17.9636 -2.5015 0.8915
-5.8096 5.5396 -0.9856 0.9682
-10.0265 5.7466 -1.4190 0.9545
-12.8636 5.4363 -1.7147 0.9453
-18.3919 5.2740 -2.3493 0.9258
-20.1480 0.7678 -2.4757 0.9220
-20.3035 -1.6788 -2.5015 0.9212
-10.5108 -2.1644 -1.3176 0.9577
-18.3951 -8.7560 -2.5015 0.9212
-15.7715 -12.8961 -2.5015 0.9212
-14.1056 -14.6997 -2.5015 0.9212
-10.1864 -17.6433 -2.5015 0.9212
-7.9901 -18.7405 -2.5015 0.9212
-5.6777 -19.5656 -2.5015 0.9212
-3.2828 -20.1065 -2.5015 0.9212
-0.8402 -20.3554 -2.5015 0.9212
1.6145 -20.3087 -2.5015 0.9212
4.0458 -19.9670 -2.5015 0.9212
6.4183 -19.3353 -2.5015 0.9212
8.6977 -18.4228 -2.5015 0.9212
10.8507 -17.2427 -2.5015 0.9212
12.8461 -15.8122 -2.5015 0.9212
18.7151 -8.0494 -2.5015 0.9212
19.5475 -5.7396 -2.5015 0.9212
20.0960 -3.3465 -2.5015 0.9212
20.3526 -0.9047 -2.5015 0.9212
20.2583 1.5459 -2.4946 0.9214
18.7640 3.7403 -2.3493 0.9258
9.0456 5.6524 -1.3097 0.9579
14.9901 12.0996 -2.3653 0.9253
4.8977 6.4356 -0.9930 0.9679
3.3185 5.6646 -0.8061 0.9739
0.9642 5.6790 -0.7073 0.9771
0.2707 5.6833 -0.6986 0.9773
-0.4159 5.6875 -0.7002 0.9773
-1.1158 5.6918 -0.7122 0.9769
-2.6409 5.6869 -0.7699 0.9750
-3.5035 5.6464 -0.8159 0.9736
-5.6717 5.5469 -0.9741 0.9685
-7.4812 5.7309 -1.1571 0.9627
-9.7354 5.7448 -1.3880 0.9555
-12.5252 5.4814 -1.6787 0.9464
-18.3236 5.5065 -2.3493 0.9258
-18.8530 3.2623 -2.3493 0.9258
-11.0411 -2.1282 -1.3806 0.9557
-14.2907 -14.5198 -2.5015 0.9212
-10.4091 -17.5128 -2.5015 0.9212
-5.9251 -19.4921 -2.5015 0.9212
-3.5372 -20.0633 -2.5015 0.9212
3.7925 -20.0166 -2.5015 0.9212
6.1729 -19.4150 -2.5015 0.9212
14.4745 -14.3366 -2.5015 0.9212
17.4798 -10.4645 -2.5015 0.9212
20.3395 -1.1624 -2.5015 0.9212
6.1709 6.1909 -1.0733 0.9654
2.5455 5.6693 -0.7631 0.9753
1.7641 5.6741 -0.7296 0.9763
0.3428 5.6829 -0.6990 0.9773
-1.0410 5.6914 -0.7104 0.9770
-2.5557 5.6909 -0.7660 0.9752
-5.5369 5.5540 -0.9629 0.9689
-7.2866 5.7298 -1.1382 0.9633
-12.1649 5.5083 -1.6396 0.9476
-11.6571 -2.0942 -1.4542 0.9534
-9.7968 -3.0126 -1.2585 0.9595
-17.4790 -10.4658 -2.5015 0.9212
-16.0931 -12.4924 -2.5015 0.9212
-12.6436 -15.9746 -2.5015 0.9212
-10.6301 -17.3796 -2.5015 0.9212
-8.4623 -18.5321 -2.5015 0.9212
1.0995 -20.3430 -2.5015 0.9212
10.4104 -17.5121 -2.5015 0.9212
15.9345 -12.6941 -2.5015 0.9212
17.3458 -10.6851 -2.5015 0.9212
20.0048 -3.8545 -2.5015 0.9212
20.3232 -1.4200 -2.5015 0.9212
20.3464 1.0351 -2.5015 0.9212
18.3232 5.5079 -2.3493 0.9258
17.5276 7.6721 -2.3493 0.9258
9.6050 5.6688 -1.3694 0.9560
6.1711 6.0362 -1.0599 0.9658
1.1127 5.6781 -0.7104 0.9770
0.4151 5.6824 -0.6996 0.9773
-0.2712 5.6866 -0.6990 0.9773
-0.9666 5.6909 -0.7088 0.9770
-1.6924 5.6954 -0.7295 0.9763
-3.3136 5.6553 -0.8048 0.9739
-4.2777 5.6201 -0.8672 0.9719
-11.8208 5.5340 -1.6026 0.9488
-18.7643 3.7389 -2.3493 0.9258
-19.0778 1.4545 -2.3493 0.9258
-20.0958 -3.3479 -2.5015 0.9212
-8.6963 -18.4234 -2.5015 0.9212
-4.0444 -19.9673 -2.5015 0.9212
0.8417 -20.3553 -2.5015 0.9212
5.6791 -19.5652 -2.5015 0.9212
7.9914 -18.7399 -2.5015 0.9212
12.2361 -16.2889 -2.5015 0.9212
17.2090 -10.9040 -2.5015 0.9212
18.3958 -8.7546 -2.5015 0.9212
20.3036 -1.6774 -2.5015 0.9212
20.3579 0.7773 -2.5015 0.9212
18.8926 3.0246 -2.3493 0.9258
17.6234 7.4494 -2.3493 0.9258
16.6456 9.5419 -2.3558 0.9256
15.4247 11.5106 -2.3631 0.9254
6.1713 5.8853 -1.0471 0.9662
5.0063 6.0840 -0.9674 0.9687
3.6132 5.6628 -0.8248 0.9733
1.9227 5.6732 -0.7355 0.9761
1.1875 5.6777 -0.7122 0.9769
-1.6140 5.6949 -0.7268 0.9764
-3.2206 5.6597 -0.7995 0.9741
-18.7154 3.9763 -2.3493 0.9258
-17.7385 -10.0196 -2.5015 0.9212
-13.0442 -15.6491 -2.5015 0.9212
-1.8702 -20.2867 -2.5015 0.9212
3.0293 -20.1462 -2.5015 0.9212
5.4308 -19.6355 -2.5015 0.9212
7.7534 -18.8397 -2.5015 0.9212
9.9634 -17.7702 -2.5015 0.9212
13.9193 -14.8762 -2.5015 0.9212
17.0695 -11.1211 -2.5015 0.9212
18.2834 -8.9869 -2.5015 0.9212
19.2317 -6.7223 -2.5015 0.9212
20.2807 -1.9344 -2.5015 0.9212
7.7917 5.6623 -1.1826 0.9619
6.2165 5.7798 -1.0422 0.9664
3.7146 5.6621 -0.8315 0.9731
2.8082 5.6677 -0.7766 0.9748
1.2627 5.6772 -0.7141 0.9768
0.5601 5.6815 -0.7010 0.9773
-0.8187 5.6900 -0.7058 0.9771
-1.5362 5.6944 -0.7242 0.9765
-7.2863 18.0284 -2.3876 0.9246
-3.1287 5.6640 -0.7945 0.9743
-6.7387 5.7264 -1.0858 0.9650
-8.6868 5.7384 -1.2783 0.9589
-11.1766 5.5819 -1.5339 0.9509
-16.2186 5.7847 -2.1143 0.9330
-20.3690 -0.3903 -2.5015 0.9212
-9.8469 -2.6230 -1.2512 0.9598
-17.8640 -9.7941 -2.5015 0.9212
-13.2415 -15.4826 -2.5015 0.9212
-11.2828 -16.9631 -2.5015 0.9212
5.1816 -19.7028 -2.5015 0.9212
9.7375 -17.8949 -2.5015 0.9212
11.8195 -16.5936 -2.5015 0.9212
13.7297 -15.0513 -2.5015 0.9212
15.4406 -13.2904 -2.5015 0.9212
19.1450 -6.9654 -2.5015 0.9212
19.8439 -4.6118 -2.5015 0.9212
20.3711 0.2613 -2.5015 0.9212
7.9891 5.6525 -1.2016 0.9613
6.3745 5.7779 -1.0564 0.9659
5.1210 5.9115 -0.9603 0.9690
3.8176 5.6615 -0.8384 0.9729
-0.0549 5.6853 -0.6981 0.9773
-3.0380 5.6682 -0.7896 0.9744
-3.9533 5.6253 -0.8442 0.9727
-5.0265 5.5809 -0.9222 0.9702
-18.6087 4.4491 -2.3493 0.9258
-20.3723 -0.1322 -2.5015 0.9212
-20.2084 -2.5820 -2.5015 0.9212
-9.8745 -2.4968 -1.2506 0.9598
-19.0069 -7.3339 -2.5015 0.9212
-17.9867 -9.5670 -2.5015 0.9212
-15.1811 -13.5862 -2.5015 0.9212
-13.4365 -15.3137 -2.5015 0.9212
-9.3901 -18.0797 -2.5015 0.9212
-4.8001 -19.7992 -2.5015 0.9212
0.0677 -20.3726 -2.5015 0.9212
2.5180 -20.2165 -2.5015 0.9212
4.9316 -19.7668 -2.5015 0.9212
9.5100 -18.0169 -2.5015 0.9212
11.6083 -16.7420 -2.5015 0.9212
13.5380 -15.2240 -2.5015 0.9212
15.2710 -13.4849 -2.5015 0.9212
16.7823 -11.5500 -2.5015 0.9212
18.0499 -9.4472 -2.5015 0.9212
19.0552 -7.2074 -2.5015 0.9212
19.7839 -4.8628 -2.5015 0.9212
20.2252 -2.4476 -2.5015 0.9212
20.3727 0.0032 -2.5015 0.9212
18.9939 2.3046 -2.3493 0.9258
8.2077 5.6525 -1.2236 0.9606
6.5368 5.7759 -1.0710 0.9655
5.1807 5.8296 -0.9576 0.9691
2.9888 5.6666 -0.7866 0.9745
1.4143 5.6763 -0.7183 0.9767
0.0171 5.6849 -0.6980 0.9774
-1.3822 5.6935 -0.7194 0.9767
-4.9055 5.5873 -0.9129 0.9705
-6.4004 5.7243 -1.0543 0.9660
-10.6701 5.6711 -1.4837 0.9525
-18.5508 4.6845 -2.3493 0.9258
-18.9796 2.4189 -2.3493 0.9258
-20.2395 -2.3258 -2.5015 0.9212
-9.8485 -3.6574 -1.2899 0.9585
-18.1064 -9.3384 -2.5015 0.9212
-16.8516 -11.4487 -2.5015 0.9212
-15.3519 -13.3928 -2.5015 0.9212
-11.7089 -16.6718 -2.5015 0.9212
-5.0506 -19.7368 -2.5015 0.9212
-0.1904 -20.3718 -2.5015 0.9212
2.2617 -20.2468 -2.5015 0.9212
4.6808 -19.8277 -2.5015 0.9212
13.3440 -15.3943 -2.5015 0.9212
16.6347 -11.7616 -2.5015 0.9212
18.9624 -7.4481 -2.5015 0.9212
18.6351 4.3370 -2.3493 0.9258
8.4343 5.6525 -1.2467 0.9599
5.2410 5.7491 -0.9552 0.9691
2.2483 5.6712 -0.7491 0.9757
1.4908 5.6758 -0.7205 0.9766
0.7788 5.6802 -0.7040 0.9772
0.0891 5.6844 -0.6980 0.9773
-0.5990 5.6887 -0.7023 0.9772
-3.7504 5.6348 -0.8311 0.9731
-10.4321 5.7153 -1.4605 0.9532
-18.4900 4.9191 -2.3493 0.9258
-18.9475 2.6592 -2.3493 0.9258
-20.2674 -2.0692 -2.5015 0.9212
-9.9462 -2.2485 -1.2521 0.9597
-18.2233 -9.1083 -2.5015 0.9212
-2.8953 -20.1659 -2.5015 0.9212
-0.4484 -20.3678 -2.5015 0.9212
9.0505 -18.2520 -2.5015 0.9212
11.1805 -17.0307 -2.5015 0.9212
13.1480 -15.5621 -2.5015 0.9212
17.8047 -9.9015 -2.5015 0.9212
19.6543 -5.3624 -2.5015 0.9212
20.1567 -2.9592 -2.5015 0.9212
20.3663 -0.5129 -2.5015 0.9212
19.0461 1.8227 -2.3493 0.9258
18.6886 4.1006 -2.3493 0.9258
18.0596 6.3189 -2.3493 0.9258
17.1867 8.4546 -2.3518 0.9257
0.8522 5.6797 -0.7052 0.9771
0.1612 5.6840 -0.6982 0.9773
-1.2302 5.6925 -0.7151 0.9768
-1.9732 5.6971 -0.7403 0.9760
-2.7722 5.6807 -0.7761 0.9748
-3.6513 5.6395 -0.8249 0.9733
-10.2528 5.7871 -1.4456 0.9537
-18.4262 5.1529 -2.3493 0.9258
-20.3133 0.6404 -2.4954 0.9214
-10.2543 -2.1820 -1.2873 0.9586
-18.3372 -8.8767 -2.5015 0.9212
-14.0086 -14.7921 -2.5015 0.9212
-7.8667 -18.7926 -2.5015 0.9212
-5.5490 -19.6025 -2.5015 0.9212
-3.1506 -20.1276 -2.5015 0.9212
-0.7064 -20.3605 -2.5015 0.9212
1.7480 -20.2976 -2.5015 0.9212
6.5453 -19.2927 -2.5015 0.9212
8.8186 -18.3652 -2.5015 0.9212
12.9497 -15.7274 -2.5015 0.9212
14.7476 -14.0554 -2.5015 0.9212
16.3314 -12.1793 -2.5015 0.9212
18.7676 -7.9261 -2.5015 0.9212
20.1176 -3.2143 -2.5015 0.9212
19.4379 1.6119 -2.3949 0.9244
18.7390 3.8635 -2.3493 0.9258
16.5999 5.5732 -2.1500 0.9319
17.2863 8.2333 -2.3509 0.9257
4.2223 5.6246 -0.8636 0.9721
3.2688 5.6649 -0.8031 0.9740
2.4159 5.6701 -0.7568 0.9755
5.4200 18.6945 -2.3899 0.9246
-0.4535 5.6878 -0.7006 0.9773
-1.1548 5.6921 -0.7131 0.9769
-1.8925 5.6966 -0.7370 0.9761
-2.6855 5.6848 -0.7720 0.9750
-3.5536 5.6440 -0.8189 0.9735
-4.5563 5.6056 -0.8870 0.9713
-5.7428 5.5431 -0.9800 0.9683
-7.5849 5.7316 -1.1673 0.9624
-9.8848 5.7457 -1.4038 0.9550
-12.7191 5.4668 -1.6998 0.9457
-18.3595 5.3859 -2.3493 0.9258
-20.3133 -1.5551 -2.5015 0.9212
-18.4482 -8.6437 -2.5015 0.9212
-15.8497 -12.7998 -2.5015 0.9212
-10.2938 -17.5808 -2.5015 0.9212
-7.6825 5.7322 -1.5182 0.9619
-10.0265 5.7466 -1.8304 0.9543
-13.6626 5.7740 -2.3493 0.9417
-15.7398 -1.3015 -2.5015 0.9380
-9.9469 -2.0483 -1.6085 0.9597
-13.3404 -8.4541 -2.5015 0.9380
-12.2265 -9.9975 -2.5015 0.9380
-9.4848 -12.6283 -2.5015 0.9380
-7.8968 -13.6776 -2.5015 0.9380
-4.4015 -15.1678 -2.5015 0.9380
-0.6514 -15.7801 -2.5015 0.9380
1.2516 -15.7439 -2.5015 0.9380
3.1364 -15.4790 -2.5015 0.9380
4.9757 -14.9893 -2.5015 0.9380
6.7427 -14.2819 -2.5015 0.9380
9.9587 -12.2581 -2.5015 0.9380
11.3610 -10.9711 -2.5015 0.9380
12.5982 -9.5248 -2.5015 0.9380
13.6525 -7.9401 -2.5015 0.9380
15.5790 -2.5943 -2.5015 0.9380
15.1546 1.1565 -2.4072 0.9403
14.5464 2.8996 -2.3493 0.9417
14.0920 4.6284 -2.3493 0.9417
13.4329 6.2899 -2.3493 0.9417
12.5804 7.8612 -2.3496 0.9417
4.8977 6.4356 -1.2809 0.9678
3.3185 5.6646 -1.0398 0.9738
1.6838 5.6682 -0.9365 0.9763
-1.1158 5.6918 -0.9187 0.9768
-1.8509 5.6964 -0.9486 0.9760
-2.6409 5.6869 -0.9931 0.9749
-3.4994 5.6399 -1.0512 0.9735
-7.4812 5.7309 -1.4926 0.9626
-15.7732 0.8013 -2.5015 0.9380
-9.1211 -2.9318 -1.5174 0.9619
-13.4464 -8.2844 -2.5015 0.9380
-12.3522 -9.8418 -2.5015 0.9380
-11.0786 -11.2562 -2.5015 0.9380
-8.0695 -13.5765 -2.5015 0.9380
-6.3777 -14.4486 -2.5015 0.9380
-4.5933 -15.1109 -2.5015 0.9380
-0.8512 -15.7706 -2.5015 0.9380
1.0521 -15.7585 -2.5015 0.9380
4.7854 -15.0511 -2.5015 0.9380
6.5612 -14.3662 -2.5015 0.9380
12.4765 -9.6836 -2.5015 0.9380
13.5508 -8.1124 -2.5015 0.9380
14.4283 -6.4234 -2.5015 0.9380
15.0962 -4.6411 -2.5015 0.9380
15.5449 -2.7914 -2.5015 0.9380
14.1495 4.4495 -2.3493 0.9417
13.5115 6.1193 -2.3493 0.9417
11.6850 9.1898 -2.3545 0.9416
4.9597 6.3486 -1.2760 0.9679
1.7641 5.6741 -0.9411 0.9762
1.0383 5.6786 -0.9143 0.9769
0.3428 5.6829 -0.9017 0.9772
-2.5557 5.6909 -0.9881 0.9751
-4.3607 5.5810 -1.1218 0.9717
-9.4567 5.7431 -1.7524 0.9562
-11.9855 5.4271 -2.0839 0.9481
-14.5822 2.7140 -2.3493 0.9417
-15.7527 1.0004 -2.5000 0.9381
-15.7678 -0.9023 -2.5015 0.9380
-11.1335 -2.0001 -1.7916 0.9552
-9.1584 -2.8163 -1.5176 0.9619
-14.4279 -6.4245 -2.5015 0.9380
-13.5503 -8.1134 -2.5015 0.9380
-9.8017 -12.3840 -2.5015 0.9380
-6.5602 -14.3666 -2.5015 0.9380
-1.0509 -15.7585 -2.5015 0.9380
2.7433 -15.5535 -2.5015 0.9380
4.5944 -15.1105 -2.5015 0.9380
12.3529 -9.8409 -2.5015 0.9380
15.0362 -4.8320 -2.5015 0.9380
15.7552 -1.1008 -2.5015 0.9380
14.6152 2.5301 -2.3493 0.9417
12.7738 7.5390 -2.3493 0.9417
6.1782 6.0432 -1.3688 0.9656
5.0213 6.2623 -1.2713 0.9680
1.8431 5.6737 -0.9448 0.9761
1.1127 5.6781 -0.9164 0.9768
0.4151 5.6824 -0.9024 0.9772
-0.2712 5.6866 -0.9017 0.9772
-0.9666 5.6909 -0.9143 0.9769
-1.6924 5.6954 -0.9410 0.9762
-2.4713 5.6948 -0.9832 0.9752
-4.2536 5.5884 -1.1123 0.9720
-5.3551 5.5096 -1.2169 0.9694
-7.0982 5.7286 -1.4447 0.9637
-9.1896 5.7415 -1.7162 0.9571
-11.7040 5.4794 -2.0468 0.9490
-14.5466 2.8985 -2.3493 0.9417
-15.7180 1.1983 -2.4967 0.9382
-9.1954 -2.7007 -1.5179 0.9619
-13.6519 -7.9411 -2.5015 0.9380
-12.5975 -9.5257 -2.5015 0.9380
-6.7417 -14.2824 -2.5015 0.9380
-4.9746 -14.9896 -2.5015 0.9380
-3.1353 -15.4792 -2.5015 0.9380
-1.2505 -15.7440 -2.5015 0.9380
4.4026 -15.1675 -2.5015 0.9380
7.8978 -13.6770 -2.5015 0.9380
9.4858 -12.6276 -2.5015 0.9380
10.9359 -11.3948 -2.5015 0.9380
12.2272 -9.9966 -2.5015 0.9380
15.7821 0.6026 -2.5015 0.9380
14.2577 4.0896 -2.3493 0.9417
13.6622 5.7750 -2.3493 0.9417
11.9083 8.8865 -2.3534 0.9416
6.1773 5.8910 -1.3520 0.9660
3.6132 5.6628 -1.0639 0.9732
2.7196 5.6683 -0.9958 0.9749
1.9227 5.6732 -0.9487 0.9760
-0.1991 5.6862 -0.9012 0.9772
-2.3707 5.6584 -0.9717 0.9755
-6.9157 5.7275 -1.4222 0.9643
-8.9332 5.7399 -1.6818 0.9579
-11.4322 5.5298 -2.0114 0.9499
-14.0326 4.8055 -2.3493 0.9417
-14.5088 3.0825 -2.3493 0.9417
-15.5717 1.3858 -2.4761 0.9387
-15.6105 -2.3979 -2.5015 0.9380
-9.2320 -2.5849 -1.5184 0.9619
-12.7172 -9.3654 -2.5015 0.9380
-10.1123 -12.1317 -2.5015 0.9380
-8.5795 -13.2600 -2.5015 0.9380
-6.9220 -14.1958 -2.5015 0.9380
-5.1641 -14.9254 -2.5015 0.9380
-3.3312 -15.4383 -2.5015 0.9380
0.4526 -15.7871 -2.5015 0.9380
6.0107 -14.6051 -2.5015 0.9380
7.7239 -13.7760 -2.5015 0.9380
9.3250 -12.7468 -2.5015 0.9380
10.7907 -11.5325 -2.5015 0.9380
12.0996 -10.1507 -2.5015 0.9380
14.1739 -6.9670 -2.5015 0.9380
14.6746 2.1591 -2.3493 0.9417
14.3083 3.9086 -2.3493 0.9417
12.9607 7.2130 -2.3493 0.9417
12.0170 8.7329 -2.3528 0.9416
3.7146 5.6621 -1.0726 0.9729
2.8082 5.6677 -1.0018 0.9747
2.0030 5.6727 -0.9528 0.9759
1.2627 5.6772 -0.9212 0.9767
0.5601 5.6815 -0.9042 0.9771
-0.8187 5.6900 -0.9105 0.9770
-1.5362 5.6944 -0.9342 0.9764
-5.6119 13.8853 -2.3720 0.9411
-3.1287 5.6640 -1.0248 0.9741
-6.7387 5.7264 -1.4006 0.9648
-8.6868 5.7384 -1.6489 0.9587
-13.9706 4.9829 -2.3493 0.9417
-15.7907 -0.3026 -2.5015 0.9380
-15.6396 -2.1999 -2.5015 0.9380
-9.1542 -3.6660 -1.5618 0.9609
-12.8348 -9.2035 -2.5015 0.9380
-10.2652 -12.0026 -2.5015 0.9380
-8.7468 -13.1503 -2.5015 0.9380
-7.1013 -14.1070 -2.5015 0.9380
-3.5265 -15.3948 -2.5015 0.9380
-1.6489 -15.7072 -2.5015 0.9380
0.2525 -15.7915 -2.5015 0.9380
5.8252 -14.6800 -2.5015 0.9380
7.5488 -13.8727 -2.5015 0.9380
10.6437 -11.6682 -2.5015 0.9380
14.8418 -5.3998 -2.5015 0.9380
15.7020 -1.6987 -2.5015 0.9380
14.3567 3.7271 -2.3493 0.9417
13.0510 7.0482 -2.3493 0.9417
5.2035 6.0068 -1.2587 0.9683
2.8979 5.6672 -1.0081 0.9746
2.0840 5.6722 -0.9571 0.9758
1.3383 5.6767 -0.9238 0.9767
0.6328 5.6811 -0.9054 0.9771
-0.0549 5.6853 -0.9005 0.9772
-1.4590 5.6939 -0.9310 0.9765
-2.2038 5.6581 -0.9617 0.9757
-3.0380 5.6682 -1.0186 0.9743
-3.9425 5.6099 -1.0860 0.9726
-6.5671 5.7253 -1.3799 0.9653
-8.4500 5.7369 -1.6176 0.9595
-10.9158 5.6255 -1.9450 0.9515
-14.4260 3.4491 -2.3493 0.9417
-15.7932 -0.1025 -2.5015 0.9380
-9.1639 -3.5360 -1.5557 0.9610
-11.7688 -10.5324 -2.5015 0.9380
-10.4164 -11.8716 -2.5015 0.9380
-8.9127 -13.0384 -2.5015 0.9380
-7.2794 -14.0159 -2.5015 0.9380
-3.7212 -15.3489 -2.5015 0.9380
-1.8478 -15.6851 -2.5015 0.9380
0.0525 -15.7935 -2.5015 0.9380
1.9520 -15.6725 -2.5015 0.9380
5.6387 -14.7527 -2.5015 0.9380
7.3725 -13.9672 -2.5015 0.9380
8.9991 -12.9789 -2.5015 0.9380
11.8386 -10.4539 -2.5015 0.9380
13.9928 -7.3238 -2.5015 0.9380
15.3371 -3.7698 -2.5015 0.9380
14.7246 1.7866 -2.3493 0.9417
13.8717 5.2517 -2.3493 0.9417
12.2284 8.4215 -2.3516 0.9416
6.4376 5.6883 -1.3606 0.9658
3.9224 5.6609 -1.0908 0.9725
2.9888 5.6666 -1.0147 0.9744
1.4143 5.6763 -0.9265 0.9766
0.7057 5.6806 -0.9066 0.9771
-1.3822 5.6935 -0.9280 0.9766
-2.1367 5.6981 -0.9639 0.9757
-3.8420 5.6168 -1.0778 0.9728
-6.0154 5.3800 -1.2782 0.9678
-8.2218 5.7355 -1.5877 0.9602
-10.6701 5.6711 -1.9138 0.9522
-13.8399 5.3352 -2.3493 0.9417
-14.7136 1.8752 -2.3493 0.9417
-15.7933 0.0976 -2.5015 0.9380
-15.6903 -1.8030 -2.5015 0.9380
-13.0638 -8.8754 -2.5015 0.9380
-7.4564 -13.9226 -2.5015 0.9380
-5.7275 -14.7184 -2.5015 0.9380
-0.1476 -15.7929 -2.5015 0.9380
1.7533 -15.6959 -2.5015 0.9380
5.4514 -14.8229 -2.5015 0.9380
7.1949 -14.0595 -2.5015 0.9380
10.3447 -11.9342 -2.5015 0.9380
13.8989 -7.5005 -2.5015 0.9380
14.7002 -5.7740 -2.5015 0.9380
15.6539 -2.0959 -2.5015 0.9380
14.8944 1.6160 -2.3729 0.9411
14.4465 3.3622 -2.3493 0.9417
13.9372 5.0756 -2.3493 0.9417
6.6032 5.6872 -1.3803 0.9653
5.3231 5.8392 -1.2515 0.9685
4.0290 5.6602 -1.1004 0.9723
3.0809 5.6660 -1.0215 0.9742
2.2483 5.6712 -0.9662 0.9756
1.4908 5.6758 -0.9295 0.9765
0.7788 5.6802 -0.9081 0.9770
0.0891 5.6844 -0.9004 0.9772
-3.7429 5.6235 -1.0699 0.9730
-10.4321 5.7153 -1.8840 0.9530
-14.6887 2.0615 -2.3493 0.9417
-15.7908 0.2976 -2.5015 0.9380
-9.4194 -2.1294 -1.5295 0.9616
-9.1683 -3.2733 -1.5419 0.9613
-12.0319 -10.2309 -2.5015 0.9380
-10.7138 -11.6039 -2.5015 0.9380
-7.6322 -13.8270 -2.5015 0.9380
-5.9134 -14.6447 -2.5015 0.9380
-2.2445 -15.6333 -2.5015 0.9380
-0.3476 -15.7897 -2.5015 0.9380
1.5543 -15.7169 -2.5015 0.9380
3.4337 -15.4158 -2.5015 0.9380
5.2632 -14.8908 -2.5015 0.9380
11.5699 -10.7505 -2.5015 0.9380
12.7792 -9.2806 -2.5015 0.9380
15.2366 -4.1571 -2.5015 0.9380
14.0003 4.8986 -2.3493 0.9417
12.4316 8.1049 -2.3505 0.9417
5.3824 5.7560 -1.2481 0.9686
4.1376 5.6595 -1.1104 0.9720
2.3317 5.6707 -0.9711 0.9755
0.8522 5.6797 -0.9097 0.9770
-0.5262 5.6882 -0.9048 0.9771
-1.2302 5.6925 -0.9224 0.9767
-1.9732 5.6971 -0.9549 0.9759
-2.7722 5.6807 -1.0012 0.9747
-3.6452 5.6301 -1.0623 0.9732
-5.7926 5.4511 -1.2598 0.9683
-7.7897 5.7328 -1.5319 0.9616
-14.6614 2.2473 -2.3493 0.9417
-9.6932 -2.0626 -1.5696 0.9607
-9.1490 -3.1363 -1.5318 0.9616
-14.2156 -6.8815 -2.5015 0.9380
-12.1605 -10.0776 -2.5015 0.9380
-9.4016 -12.6904 -2.5015 0.9380
-6.0985 -14.5686 -2.5015 0.9380
-4.3017 -15.1964 -2.5015 0.9380
-2.4424 -15.6035 -2.5015 0.9380
1.3551 -15.7353 -2.5015 0.9380
3.2382 -15.4580 -2.5015 0.9380
5.0741 -14.9563 -2.5015 0.9380
8.4995 -13.3115 -2.5015 0.9380
10.0390 -12.1924 -2.5015 0.9380
11.4328 -10.8962 -2.5015 0.9380
12.6606 -9.4417 -2.5015 0.9380
15.1827 -4.3498 -2.5015 0.9380
15.7823 -0.5976 -2.5015 0.9380
15.1453 1.2559 -2.4070 0.9403
12.5300 7.9448 -2.3499 0.9417
11.5101 9.4163 -2.3553 0.9416
5.4188 5.6498 -1.2399 0.9688
4.2223 5.6246 -1.1139 0.9719
3.2688 5.6649 -1.0359 0.9739
2.4159 5.6701 -0.9762 0.9753
0.9258 5.6793 -0.9114 0.9770
0.2332 5.6835 -0.9009 0.9772
-0.4535 5.6878 -0.9037 0.9772
-1.1548 5.6921 -0.9199 0.9768
-2.6855 5.6848 -0.9958 0.9749
-7.5849 5.7316 -1.5057 0.9622
-9.8848 5.7457 -1.8109 0.9548
-13.6272 5.8572 -2.3493 0.9417
-14.2328 4.1754 -2.3493 0.9417
-15.7475 -1.2055 -2.5015 0.9380
-10.2214 -2.0400 -1.6508 0.9587
-7.9800 -13.6292 -2.5015 0.9380
-7.6825 5.7322 -1.8632 0.9617
-11.6177 3.3314 -2.3493 0.9519
-11.9340 1.9097 -2.3493 0.9519
-9.7521 -2.0082 -1.9354 0.9602
-8.9101 -9.2854 -2.5015 0.9489
-7.7284 -10.2898 -2.5015 0.9489
-3.5864 -12.3590 -2.5015 0.9489
-2.0737 -12.7007 -2.5015 0.9489
1.0198 -12.8284 -2.5015 0.9489
2.5556 -12.6125 -2.5015 0.9489
5.4941 -11.6371 -2.5015 0.9489
10.2653 -7.7610 -2.5015 0.9489
11.1243 -6.4698 -2.5015 0.9489
12.3476 -3.6255 -2.5015 0.9489
12.6941 -2.1139 -2.5015 0.9489
12.8562 -0.5715 -2.5015 0.9489
12.7429 0.9724 -2.4842 0.9493
11.8527 2.3626 -2.3493 0.9519
11.4824 3.7713 -2.3493 0.9519
10.9454 5.1252 -2.3493 0.9519
10.2494 6.4046 -2.3493 0.9519
5.4550 5.6132 -1.5214 0.9686
3.3185 5.6646 -1.2761 0.9736
2.4599 5.6699 -1.2014 0.9751
0.2707 5.6833 -1.1060 0.9771
-0.4159 5.6875 -1.1085 0.9770
-1.1158 5.6918 -1.1274 0.9766
-1.8509 5.6964 -1.1642 0.9759
-2.6249 5.6524 -1.2114 0.9749
-4.4242 5.5168 -1.3746 0.9716
-5.5034 5.3824 -1.4963 0.9691
-7.4812 5.7309 -1.8318 0.9623
-11.0720 4.8454 -2.3493 0.9519
-9.4986 2.8545 -1.9279 0.9604
-12.8523 0.6529 -2.5015 0.9489
-12.8375 -0.8979 -2.5015 0.9489
-10.3308 -1.9913 -2.0451 0.9580
-10.9564 -6.7503 -2.5015 0.9489
-10.0648 -8.0193 -2.5015 0.9489
-9.0270 -9.1718 -2.5015 0.9489
-5.1966 -11.7730 -2.5015 0.9489
-3.7427 -12.3126 -2.5015 0.9489
-2.2344 -12.6734 -2.5015 0.9489
-0.6936 -12.8502 -2.5015 0.9489
0.8573 -12.8403 -2.5015 0.9489
6.7156 -10.9777 -2.5015 0.9489
7.9873 -10.0901 -2.5015 0.9489
9.1431 -9.0560 -2.5015 0.9489
10.1661 -7.8904 -2.5015 0.9489
11.7564 -5.2339 -2.5015 0.9489
12.3007 -3.7817 -2.5015 0.9489
12.6663 -2.2745 -2.5015 0.9489
12.7928 0.8134 -2.4917 0.9491
11.8817 2.2123 -2.3493 0.9519
10.3297 6.2743 -2.3493 0.9519
8.5428 8.5706 -2.3522 0.9519
4.9597 6.3486 -1.5660 0.9677
3.4152 5.6640 -1.2856 0.9734
1.7641 5.6741 -1.1550 0.9761
0.3428 5.6829 -1.1066 0.9771
-2.5450 5.6672 -1.2076 0.9750
-11.0098 4.9853 -2.3493 0.9519
-9.3464 2.9383 -1.9044 0.9609
-11.8818 2.2114 -2.3493 0.9519
-12.8479 -0.7352 -2.5015 0.9489
-11.0410 -6.6109 -2.5015 0.9489
-7.9866 -10.0907 -2.5015 0.9489
-5.3454 -11.7062 -2.5015 0.9489
-2.3947 -12.6441 -2.5015 0.9489
0.6945 -12.8501 -2.5015 0.9489
2.2353 -12.6733 -2.5015 0.9489
3.7436 -12.3123 -2.5015 0.9489
5.1975 -11.7726 -2.5015 0.9489
7.8589 -10.1905 -2.5015 0.9489
9.0277 -9.1711 -2.5015 0.9489
10.0653 -8.0185 -2.5015 0.9489
11.6892 -5.3824 -2.5015 0.9489
12.8376 -0.8970 -2.5015 0.9489
12.8409 0.6533 -2.4992 0.9490
11.5743 3.4792 -2.3493 0.9519
11.0717 4.8462 -2.3493 0.9519
9.5938 7.3504 -2.3493 0.9519
5.0213 6.2623 -1.5603 0.9678
3.5135 5.6634 -1.2955 0.9732
1.8431 5.6737 -1.1596 0.9760
1.1127 5.6781 -1.1247 0.9767
-0.2712 5.6866 -1.1066 0.9771
-1.6924 5.6954 -1.1549 0.9761
-3.2810 5.5997 -1.2616 0.9739
-4.2112 5.5328 -1.3515 0.9721
-7.0982 5.7286 -1.7730 0.9635
-9.1896 5.7415 -2.1063 0.9568
-11.8529 2.3617 -2.3493 0.9519
-12.8316 0.9783 -2.5015 0.9489
-12.8561 -0.5724 -2.5015 0.9489
-11.8887 -1.9806 -2.3428 0.9521
-8.1138 -9.9887 -2.5015 0.9489
-5.4932 -11.6375 -2.5015 0.9489
-1.0189 -12.8285 -2.5015 0.9489
0.5317 -12.8579 -2.5015 0.9489
5.0479 -11.8375 -2.5015 0.9489
6.4353 -11.1443 -2.5015 0.9489
8.9108 -9.2847 -2.5015 0.9489
12.8252 -1.0595 -2.5015 0.9489
12.8595 0.4910 -2.5015 0.9489
11.6174 3.3323 -2.3493 0.9519
11.1322 4.7056 -2.3493 0.9519
6.1773 5.8910 -1.6592 0.9658
-0.1991 5.6862 -1.1060 0.9771
-0.8925 5.6905 -1.1196 0.9768
-1.6140 5.6949 -1.1506 0.9762
-5.1734 5.4593 -1.4620 0.9698
-6.9157 5.7275 -1.7454 0.9641
-8.9332 5.7399 -2.0640 0.9577
-11.4340 3.9156 -2.3493 0.9519
-11.8220 2.5117 -2.3493 0.9519
-12.8156 1.1405 -2.5009 0.9489
-12.8624 -0.4095 -2.5015 0.9489
-12.7197 -1.9538 -2.5015 0.9489
-8.3387 -3.4627 -1.7551 0.9639
-8.2397 -9.8851 -2.5015 0.9489
-6.9907 -10.8045 -2.5015 0.9489
-5.6402 -11.5670 -2.5015 0.9489
-2.7143 -12.5794 -2.5015 0.9489
-1.1813 -12.8145 -2.5015 0.9489
4.8976 -11.9005 -2.5015 0.9489
6.2936 -11.2249 -2.5015 0.9489
7.5982 -10.3863 -2.5015 0.9489
8.7924 -9.3969 -2.5015 0.9489
10.7823 -7.0249 -2.5015 0.9489
12.5707 -2.7541 -2.5015 0.9489
12.8107 -1.2219 -2.5015 0.9489
12.8647 0.3280 -2.5015 0.9489
11.9571 1.7592 -2.3493 0.9519
9.7769 7.1050 -2.3493 0.9519
5.1432 6.0914 -1.5497 0.9680
3.7146 5.6621 -1.3163 0.9728
2.0030 5.6727 -1.1694 0.9758
1.2627 5.6772 -1.1305 0.9766
0.5601 5.6815 -1.1097 0.9770
-0.1270 5.6858 -1.1055 0.9771
-1.5362 5.6944 -1.1465 0.9763
-4.5538 11.2674 -2.3623 0.9517
-3.1001 5.6122 -1.2463 0.9742
-6.1017 5.1850 -1.5564 0.9679
-8.6868 5.7384 -2.0237 0.9585
-10.8124 5.4000 -2.3493 0.9519
-11.7892 2.6612 -2.3493 0.9519
-12.8665 -0.2465 -2.5015 0.9489
-9.4800 -8.7028 -2.5015 0.9489
-8.3643 -9.7799 -2.5015 0.9489
-7.1270 -10.7151 -2.5015 0.9489
-1.3436 -12.7985 -2.5015 0.9489
1.7522 -12.7490 -2.5015 0.9489
3.2730 -12.4457 -2.5015 0.9489
6.1509 -11.3037 -2.5015 0.9489
7.4660 -10.4817 -2.5015 0.9489
8.6727 -9.5075 -2.5015 0.9489
9.7534 -8.3952 -2.5015 0.9489
11.4763 -5.8226 -2.5015 0.9489
12.5348 -2.9132 -2.5015 0.9489
12.8678 0.1651 -2.5015 0.9489
11.6981 3.0369 -2.3493 0.9519
10.6342 5.7430 -2.3493 0.9519
6.3840 5.7865 -1.6748 0.9655
5.2035 6.0068 -1.5448 0.9681
2.8979 5.6672 -1.2373 0.9744
1.3383 5.6767 -1.1337 0.9765
-0.0549 5.6853 -1.1052 0.9771
-0.7452 5.6896 -1.1154 0.9769
-2.2038 5.6581 -1.1803 0.9756
-3.0112 5.6183 -1.2390 0.9744
-4.9338 5.4780 -1.4330 0.9704
-5.9899 5.2222 -1.5447 0.9681
-8.4500 5.7369 -1.9853 0.9592
-10.7431 5.5365 -2.3493 0.9519
-11.3311 4.2040 -2.3493 0.9519
-11.7546 2.8104 -2.3493 0.9519
-12.7549 1.4617 -2.4955 0.9490
-12.8686 -0.0835 -2.5015 0.9489
-8.3342 -3.2158 -1.7364 0.9643
-11.3617 -6.0432 -2.5015 0.9489
-9.5894 -8.5820 -2.5015 0.9489
-5.9314 -11.4204 -2.5015 0.9489
0.0428 -12.8688 -2.5015 0.9489
7.3326 -10.5754 -2.5015 0.9489
9.6463 -8.5180 -2.5015 0.9489
11.4016 -5.9676 -2.5015 0.9489
12.4969 -3.0717 -2.5015 0.9489
12.7757 -1.5461 -2.5015 0.9489
12.3277 1.4958 -2.4138 0.9507
11.3029 4.2792 -2.3493 0.9519
10.7061 5.6078 -2.3493 0.9519
9.9538 6.8550 -2.3493 0.9519
6.5477 5.7855 -1.6984 0.9650
2.9888 5.6666 -1.2453 0.9742
0.0171 5.6849 -1.1050 0.9771
-0.6720 5.6891 -1.1135 0.9769
-2.9233 5.6242 -1.2321 0.9745
-4.8174 5.4869 -1.4193 0.9707
-5.8798 5.2587 -1.5333 0.9684
-8.2218 5.7355 -1.9486 0.9600
-11.2770 4.3472 -2.3493 0.9519
-11.7180 2.9591 -2.3493 0.9519
-8.3365 -3.0959 -1.7286 0.9644
-11.4373 -5.8988 -2.5015 0.9489
-6.0756 -11.3444 -2.5015 0.9489
-3.1903 -12.4671 -2.5015 0.9489
-1.6674 -12.7604 -2.5015 0.9489
-0.1203 -12.8683 -2.5015 0.9489
2.9568 -12.5246 -2.5015 0.9489
5.8626 -11.4559 -2.5015 0.9489
9.5376 -8.6396 -2.5015 0.9489
11.3251 -6.1115 -2.5015 0.9489
11.9780 -4.7048 -2.5015 0.9489
12.7550 -1.7078 -2.5015 0.9489
12.4961 1.3558 -2.4432 0.9501
11.7713 2.7396 -2.3493 0.9519
11.3562 4.1357 -2.3493 0.9519
10.7763 5.4718 -2.3493 0.9519
6.7161 5.7845 -1.7229 0.9645
4.0290 5.6602 -1.3505 0.9721
3.0809 5.6660 -1.2537 0.9741
2.2483 5.6712 -1.1858 0.9754
0.7788 5.6802 -1.1144 0.9769
-2.0545 5.6976 -1.1773 0.9756
-2.8363 5.6301 -1.2254 0.9746
-3.7071 5.5696 -1.3005 0.9731
-5.7711 5.2946 -1.5224 0.9686
-8.0019 5.7342 -1.9135 0.9607
-10.5994 5.8069 -2.3493 0.9519
-7.0029 2.8020 -1.4661 0.9697
-11.6796 3.1073 -2.3493 0.9519
-11.9686 1.6797 -2.3493 0.9519
-8.7869 -1.9864 -1.7511 0.9640
-8.3411 -2.9779 -1.7216 0.9646
-11.5111 -5.7534 -2.5015 0.9489
-9.8038 -8.3363 -2.5015 0.9489
-8.7298 -9.4551 -2.5015 0.9489
-7.5290 -10.4366 -2.5015 0.9489
-6.2189 -11.2665 -2.5015 0.9489
-3.3479 -12.4257 -2.5015 0.9489
1.2665 -12.8064 -2.5015 0.9489
8.3052 -9.8301 -2.5015 0.9489
10.4127 -7.5620 -2.5015 0.9489
11.2467 -6.2545 -2.5015 0.9489
12.7324 -1.8692 -2.5015 0.9489
11.8050 2.5902 -2.3493 0.9519
9.2566 7.7705 -2.3492 0.9519
5.3824 5.7560 -1.5318 0.9684
4.1376 5.6595 -1.3627 0.9718
2.3317 5.6707 -1.1918 0.9753
1.5637 5.6605 -1.1415 0.9764
0.1612 5.6840 -1.1053 0.9771
-0.5262 5.6882 -1.1104 0.9770
-1.2302 5.6925 -1.1321 0.9765
-1.9732 5.6971 -1.1719 0.9757
-2.7503 5.6358 -1.2190 0.9748
-3.6106 5.5765 -1.2913 0.9733
-4.5909 5.5042 -1.3932 0.9712
-5.6638 5.3299 -1.5118 0.9688
-7.7897 5.7328 -1.8800 0.9614
-12.8625 0.4055 -2.5015 0.9489
-9.4447 -2.0097 -1.8770 0.9614
-10.8244 -6.9598 -2.5015 0.9489
-8.8488 -9.3438 -2.5015 0.9489
-7.6606 -10.3404 -2.5015 0.9489
-6.3611 -11.1868 -2.5015 0.9489
-1.9901 -12.7141 -2.5015 0.9489
-0.4462 -12.8611 -2.5015 0.9489
2.6385 -12.5955 -2.5015 0.9489
5.5705 -11.6008 -2.5015 0.9489
8.1800 -9.9346 -2.5015 0.9489
9.3157 -8.8784 -2.5015 0.9489
11.1666 -6.3964 -2.5015 0.9489
12.3712 -3.5443 -2.5015 0.9489
12.7077 -2.0304 -2.5015 0.9489
12.7153 1.0544 -2.4801 0.9493
10.9114 5.1970 -2.3493 0.9519
10.2070 6.4719 -2.3493 0.9519
3.3862 11.6797 -2.3638 0.9517
0.2332 5.6835 -1.1057 0.9771
-0.4535 5.6878 -1.1091 0.9770
-1.1548 5.6921 -1.1290 0.9766
-1.8925 5.6966 -1.1668 0.9758
-2.6666 5.6447 -1.2135 0.9749
-3.5154 5.5833 -1.2825 0.9735
-5.5579 5.3646 -1.5015 0.9690
-7.5849 5.7316 -1.8480 0.9620
-9.8849 5.7457 -2.2224 0.9545
-11.1037 4.7725 -2.3493 0.9519
-11.5971 3.4021 -2.3493 0.9519
-12.8563 0.5684 -2.5015 0.9489
-12.8313 -0.9823 -2.5015 0.9489
-10.0404 -2.0039 -1.9902 0.9591
-8.3750 -2.7529 -1.7136 0.9647
-10.9117 -6.8222 -2.5015 0.9489
-7.7910 -10.2425 -2.5015 0.9489
-6.5023 -11.1053 -2.5015 0.9489
-5.1191 -11.8069 -2.5015 0.9489
-7.6825 5.7322 -2.2130 0.9614
-6.9011 2.9165 -1.7297 0.9697
-10.1094 1.6177 -2.3636 0.9588
-10.7981 -0.8929 -2.5015 0.9565
-8.1166 -2.7229 -1.9765 0.9655
-8.3879 -6.8586 -2.5015 0.9565
-7.5019 -7.8179 -2.5015 0.9565
-6.5070 -8.6635 -2.5015 0.9565
-5.4175 -9.3834 -2.5015 0.9565
-4.2494 -9.9669 -2.5015 0.9565
-3.0196 -10.4057 -2.5015 0.9565
-1.7459 -10.6934 -2.5015 0.9565
-0.4469 -10.8258 -2.5015 0.9565
3.4135 -10.2832 -2.5015 0.9565
5.7708 -9.1703 -2.5015 0.9565
8.6429 -6.5344 -2.5015 0.9565
9.3662 -5.4472 -2.5015 0.9565
9.9534 -4.2810 -2.5015 0.9565
10.3961 -3.0525 -2.5015 0.9565
10.6878 -1.7798 -2.5015 0.9565
10.7623 0.8213 -2.4919 0.9567
7.9181 6.3913 -2.3493 0.9591
2.4599 5.6699 -1.4269 0.9749
0.2707 5.6833 -1.3136 0.9769
-0.4159 5.6875 -1.3166 0.9769
-1.1158 5.6918 -1.3391 0.9765
-1.8509 5.6964 -1.3828 0.9757
-2.6249 5.6524 -1.4388 0.9747
-3.4337 5.5339 -1.5036 0.9736
-4.3793 5.4608 -1.6160 0.9717
-5.3834 5.2649 -1.7384 0.9696
-8.7637 5.1714 -2.3493 0.9591
-9.3348 2.8052 -2.2503 0.9608
-10.0267 1.7350 -2.3493 0.9591
-10.8210 0.5497 -2.5015 0.9565
-10.6392 -2.0507 -2.5015 0.9565
-8.1275 -2.6125 -1.9709 0.9656
-9.8414 -4.5324 -2.5015 0.9565
-9.2247 -5.6834 -2.5015 0.9565
-8.4741 -6.7518 -2.5015 0.9565
-3.1512 -10.3666 -2.5015 0.9565
-1.8812 -10.6704 -2.5015 0.9565
0.7218 -10.8109 -2.5015 0.9565
3.2830 -10.3257 -2.5015 0.9565
5.6542 -9.2427 -2.5015 0.9565
6.7250 -8.4954 -2.5015 0.9565
8.5594 -6.6433 -2.5015 0.9565
9.2964 -5.5654 -2.5015 0.9565
9.8984 -4.4067 -2.5015 0.9565
10.6644 -1.9150 -2.5015 0.9565
10.8173 -0.6182 -2.5015 0.9565
10.7994 0.6866 -2.4983 0.9565
9.7071 3.0525 -2.3493 0.9591
9.2694 4.1981 -2.3493 0.9591
7.1837 7.2070 -2.3493 0.9591
1.7641 5.6741 -1.3718 0.9759
1.0383 5.6786 -1.3327 0.9766
0.3428 5.6829 -1.3144 0.9769
-0.3435 5.6871 -1.3154 0.9769
-1.7713 5.6959 -1.3771 0.9758
-2.5450 5.6672 -1.4343 0.9748
-3.3415 5.5407 -1.4938 0.9738
-7.2866 5.7298 -2.1400 0.9627
-8.6975 5.2820 -2.3493 0.9591
-10.0040 1.8619 -2.3493 0.9591
-10.8132 0.6867 -2.5015 0.9565
-10.8173 -0.6190 -2.5015 0.9565
-10.6643 -1.9158 -2.5015 0.9565
-8.5589 -6.6440 -2.5015 0.9565
-7.6975 -7.6253 -2.5015 0.9565
-4.5005 -9.8561 -2.5015 0.9565
-3.2822 -10.3259 -2.5015 0.9565
-0.7210 -10.8110 -2.5015 0.9565
0.5848 -10.8192 -2.5015 0.9565
4.3761 -9.9120 -2.5015 0.9565
5.5366 -9.3136 -2.5015 0.9565
6.6168 -8.5799 -2.5015 0.9565
7.6009 -7.7216 -2.5015 0.9565
8.4746 -6.7512 -2.5015 0.9565
9.2251 -5.6828 -2.5015 0.9565
9.8418 -4.5317 -2.5015 0.9565
10.3154 -3.3149 -2.5015 0.9565
10.6393 -2.0500 -2.5015 0.9565
10.8086 -0.7552 -2.5015 0.9565
10.8210 0.5505 -2.5015 0.9565
10.0266 1.7358 -2.3493 0.9591
8.0775 6.1887 -2.3493 0.9591
2.6320 5.6688 -1.4429 0.9747
1.8431 5.6737 -1.3772 0.9758
1.1127 5.6781 -1.3358 0.9765
-0.2712 5.6866 -1.3144 0.9769
-0.9666 5.6909 -1.3327 0.9766
-3.2504 5.5475 -1.4844 0.9740
-4.1691 5.4775 -1.5892 0.9721
-5.1826 5.3321 -1.7167 0.9699
-7.0982 5.7286 -2.1059 0.9632
-9.9796 1.9885 -2.3493 0.9591
-10.8036 0.8237 -2.5015 0.9565
-8.1733 -2.4005 -1.9667 0.9656
-7.7935 -7.5272 -2.5015 0.9565
-3.4128 -10.2835 -2.5015 0.9565
-2.1509 -10.6194 -2.5015 0.9565
-0.8579 -10.8010 -2.5015 0.9565
1.7467 -10.6933 -2.5015 0.9565
4.2501 -9.9666 -2.5015 0.9565
5.4182 -9.3829 -2.5015 0.9565
9.1524 -5.7991 -2.5015 0.9565
10.6125 -2.1846 -2.5015 0.9565
10.7982 -0.8921 -2.5015 0.9565
10.8271 0.4134 -2.5015 0.9565
10.0997 1.6169 -2.3614 0.9589
9.7813 2.8056 -2.3493 0.9591
9.3728 3.9619 -2.3493 0.9591
8.1553 6.0858 -2.3493 0.9591
6.1773 5.8910 -1.9707 0.9656
2.7196 5.6683 -1.4515 0.9745
1.9227 5.6732 -1.3829 0.9757
1.1875 5.6777 -1.3392 0.9765
-0.1991 5.6862 -1.3136 0.9769
-1.6140 5.6949 -1.3666 0.9760
-2.3707 5.6584 -1.4164 0.9751
-8.2140 -2.2999 -1.9693 0.9656
-8.1387 -3.3796 -2.0345 0.9645
-9.4340 -5.3288 -2.5015 0.9565
-8.7245 -6.4250 -2.5015 0.9565
-6.9374 -8.3228 -2.5015 0.9565
-5.8859 -9.0969 -2.5015 0.9565
-4.7488 -9.7389 -2.5015 0.9565
-0.9946 -10.7893 -2.5015 0.9565
0.3105 -10.8305 -2.5015 0.9565
1.6111 -10.7145 -2.5015 0.9565
4.1235 -10.0197 -2.5015 0.9565
6.3973 -8.7448 -2.5015 0.9565
8.3008 -6.9637 -2.5015 0.9565
9.7238 -4.7796 -2.5015 0.9565
10.2282 -3.5752 -2.5015 0.9565
10.5840 -2.3188 -2.5015 0.9565
10.7860 -1.0288 -2.5015 0.9565
10.3220 1.5187 -2.4087 0.9581
9.8161 2.6815 -2.3493 0.9591
8.8915 4.9484 -2.3493 0.9591
8.2317 5.9821 -2.3493 0.9591
5.1432 6.0914 -1.8406 0.9678
2.8082 5.6677 -1.4603 0.9744
0.5601 5.6815 -1.3180 0.9768
-0.1270 5.6858 -1.3130 0.9769
-0.8188 5.6900 -1.3272 0.9767
-3.0761 5.5687 -1.4688 0.9742
-3.9656 5.4934 -1.5642 0.9726
-9.1035 4.5466 -2.3493 0.9591
-9.5844 3.4184 -2.3493 0.9591
-9.9260 2.2406 -2.3493 0.9591
-10.7793 1.0971 -2.5015 0.9565
-10.8330 -0.2076 -2.5015 0.9565
-10.7294 -1.5092 -2.5015 0.9565
-8.2694 -2.2028 -1.9757 0.9655
-9.5008 -5.2089 -2.5015 0.9565
-8.8052 -6.3140 -2.5015 0.9565
-7.9817 -7.3273 -2.5015 0.9565
-4.8718 -9.6779 -2.5015 0.9565
2.7558 -10.4787 -2.5015 0.9565
5.1788 -9.5172 -2.5015 0.9565
6.2860 -8.8251 -2.5015 0.9565
7.3020 -8.0049 -2.5015 0.9565
8.2119 -7.0683 -2.5015 0.9565
9.6625 -4.9024 -2.5015 0.9565
10.4694 1.4051 -2.4387 0.9576
8.3068 5.8773 -2.3493 0.9591
5.2035 6.0068 -1.8348 0.9679
3.8176 5.6615 -1.5765 0.9724
1.3383 5.6767 -1.3465 0.9763
0.6328 5.6811 -1.3197 0.9768
-0.0549 5.6853 -1.3126 0.9769
-0.7452 5.6896 -1.3248 0.9767
-2.2038 5.6581 -1.4019 0.9754
-2.9929 5.5842 -1.4627 0.9743
-3.8661 5.5011 -1.5523 0.9728
-5.8551 5.1047 -1.7934 0.9686
-8.4188 5.7158 -2.3493 0.9591
-9.0452 4.6615 -2.3493 0.9591
-9.5403 3.5396 -2.3493 0.9591
-9.8968 2.3662 -2.3493 0.9591
-10.7581 1.2328 -2.4999 0.9565
-10.8348 -0.0703 -2.5015 0.9565
-8.1148 -3.1311 -2.0081 0.9649
-6.1144 -8.9449 -2.5015 0.9565
-4.9940 -9.6154 -2.5015 0.9565
-1.2677 -10.7606 -2.5015 0.9565
2.6228 -10.5127 -2.5015 0.9565
3.8684 -10.1209 -2.5015 0.9565
8.1217 -7.1718 -2.5015 0.9565
8.9255 -6.1427 -2.5015 0.9565
10.5218 -2.5862 -2.5015 0.9565
10.8350 0.0017 -2.5015 0.9565
9.8809 2.4319 -2.3493 0.9591
9.0140 4.7215 -2.3493 0.9591
6.5477 5.7855 -2.0172 0.9648
2.1658 5.6717 -1.4016 0.9754
1.4143 5.6763 -1.3505 0.9763
-1.3822 5.6935 -1.3526 0.9762
-2.1367 5.6981 -1.4050 0.9753
-4.7668 5.4294 -1.6680 0.9708
-8.9854 4.7757 -2.3493 0.9591
-6.9940 2.6961 -1.7305 0.9697
-9.8660 2.4914 -2.3493 0.9591
-10.7318 1.3677 -2.4977 0.9566
-10.8348 0.0669 -2.5015 0.9565
-10.7642 -1.2369 -2.5015 0.9565
-8.4576 -2.0249 -2.0078 0.9649
-9.6297 -4.9665 -2.5015 0.9565
-6.2273 -8.8667 -2.5015 0.9565
-5.1154 -9.5514 -2.5015 0.9565
-3.9293 -10.0974 -2.5015 0.9565
-1.4039 -10.7437 -2.5015 0.9565
-0.1012 -10.8345 -2.5015 0.9565
1.2028 -10.7680 -2.5015 0.9565
4.9360 -9.6454 -2.5015 0.9565
8.8469 -6.2553 -2.5015 0.9565
10.4882 -2.7193 -2.5015 0.9565
9.9109 2.3066 -2.3493 0.9591
9.5614 3.4821 -2.3493 0.9591
6.7161 5.7845 -2.0464 0.9643
5.3231 5.8392 -1.8242 0.9681
4.0290 5.6602 -1.6040 0.9719
3.0809 5.6660 -1.4890 0.9739
1.4908 5.6758 -1.3548 0.9762
0.7788 5.6802 -1.3236 0.9767
0.0891 5.6844 -1.3125 0.9769
-4.6542 5.4386 -1.6526 0.9710
-5.6430 5.1771 -1.7680 0.9691
-8.2713 5.9272 -2.3493 0.9591
-8.9242 4.8892 -2.3493 0.9591
-6.9037 2.7623 -1.7167 0.9699
-9.8337 2.6162 -2.3493 0.9591
-10.8331 0.2042 -2.5015 0.9565
-8.7613 -1.9806 -2.0737 0.9638
-8.0996 -2.8917 -1.9855 0.9653
-9.0387 -5.9748 -2.5015 0.9565
-8.2543 -7.0188 -2.5015 0.9565
-6.3391 -8.7871 -2.5015 0.9565
-5.2360 -9.4859 -2.5015 0.9565
-4.0569 -10.0468 -2.5015 0.9565
-1.5399 -10.7250 -2.5015 0.9565
3.6107 -10.2157 -2.5015 0.9565
4.8134 -9.7071 -2.5015 0.9565
6.9926 -8.2765 -2.5015 0.9565
7.9374 -7.3753 -2.5015 0.9565
8.7670 -6.3669 -2.5015 0.9565
9.4692 -5.2660 -2.5015 0.9565
10.0339 -4.0887 -2.5015 0.9565
10.7201 -1.5738 -2.5015 0.9565
9.9393 2.1808 -2.3493 0.9591
7.7937 6.5425 -2.3493 0.9591
3.1742 5.6655 -1.4993 0.9737
-1.2302 5.6925 -1.3446 0.9764
-1.9732 5.6971 -1.3919 0.9756
-2.7473 5.6297 -1.4462 0.9746
-3.5761 5.5232 -1.5191 0.9733
-5.5390 5.2124 -1.7560 0.9693
-7.7883 5.7318 -2.2325 0.9611
-8.8616 5.0018 -2.3493 0.9591
-9.7998 2.7405 -2.3493 0.9591
-10.4583 1.6031 -2.4427 0.9575
-8.1108 -2.7804 -1.9795 0.9654
-8.3426 -6.9137 -2.5015 0.9565
-7.4503 -7.8670 -2.5015 0.9565
-6.4499 -8.7061 -2.5015 0.9565
-5.3557 -9.4188 -2.5015 0.9565
-4.1838 -9.9946 -2.5015 0.9565
-2.9511 -10.4253 -2.5015 0.9565
-1.6756 -10.7046 -2.5015 0.9565
-0.3757 -10.8285 -2.5015 0.9565
0.9297 -10.7950 -2.5015 0.9565
3.4810 -10.2606 -2.5015 0.9565
4.6901 -9.7673 -2.5015 0.9565
5.8310 -9.1322 -2.5015 0.9565
6.8872 -8.3645 -2.5015 0.9565
9.4018 -5.3855 -2.5015 0.9565
9.9814 -4.2154 -2.5015 0.9565
10.4159 -2.9841 -2.5015 0.9565
10.8272 -0.4100 -2.5015 0.9565
10.7425 0.8908 -2.4886 0.9567
9.1869 4.3756 -2.3493 0.9591
5.4188 5.6498 -1.8073 0.9684
4.2223 5.6246 -1.6237 0.9715
3.2688 5.6649 -1.5100 0.9735
2.4159 5.6701 -1.4229 0.9750
2.8426 9.8047 -2.3568 0.9590
0.9258 5.6793 -1.3285 0.9767
-1.1548 5.6921 -1.3409 0.9764
-2.6666 5.6447 -1.4413 0.9747
-3.4820 5.5303 -1.5088 0.9735
-4.4350 5.4563 -1.6233 0.9715
-7.5849 5.7316 -2.1948 0.9617
-8.7975 5.1137 -2.3493 0.9591
-9.5803 2.8105 -2.3050 0.9598
-10.0379 1.6691 -2.3493 0.9591
-10.8244 0.4786 -2.5015 0.9565
-10.6254 -2.1206 -2.5015 0.9565
-8.1219 -2.6697 -1.9738 0.9655
-8.4295 -6.8074 -2.5015 0.9565
-7.5494 -7.7720 -2.5015 0.9565
-6.5596 -8.6237 -2.5015 0.9565
-5.4746 -9.3502 -2.5015 0.9565
-4.3101 -9.9408 -2.5015 0.9565
-5.3657 5.1163 -1.9866 0.9698
-7.0271 5.2431 -2.3493 0.9643
-6.8660 2.9017 -1.9973 0.9696
-8.4279 2.4168 -2.3493 0.9643
-9.1978 1.4718 -2.4959 0.9622
-9.3038 -0.7693 -2.5015 0.9621
-8.8508 -2.9692 -2.5015 0.9621
-7.8855 -4.9972 -2.5015 0.9621
-7.2271 -5.9095 -2.5015 0.9621
-6.4637 -6.7359 -2.5015 0.9621
-5.6065 -7.4646 -2.5015 0.9621
-4.6678 -8.0848 -2.5015 0.9621
-3.6614 -8.5876 -2.5015 0.9621
-2.6017 -8.9657 -2.5015 0.9621
-1.5043 -9.2136 -2.5015 0.9621
2.9411 -8.8601 -2.5015 0.9621
4.9722 -7.9013 -2.5015 0.9621
6.7154 -6.4850 -2.5015 0.9621
7.4468 -5.6301 -2.5015 0.9621
9.2087 -1.5335 -2.5015 0.9621
9.2943 0.7093 -2.4976 0.9621
8.5984 1.7139 -2.3493 0.9643
7.4353 4.6461 -2.3493 0.9643
6.8224 5.5068 -2.3493 0.9643
5.4550 5.6132 -2.0973 0.9681
2.4599 5.6699 -1.6561 0.9747
1.6838 5.6682 -1.5844 0.9758
0.9642 5.6790 -1.5435 0.9764
-0.4159 5.6875 -1.5280 0.9767
-2.6249 5.6524 -1.6699 0.9745
-4.3345 5.4049 -1.8564 0.9717
-6.9601 5.3317 -2.3493 0.9643
-7.5509 4.4557 -2.3493 0.9643
-9.1712 1.5870 -2.4939 0.9622
-9.1668 -1.7669 -2.5015 0.9621
-8.8877 -2.8568 -2.5015 0.9621
-7.9481 -4.8969 -2.5015 0.9621
-6.5485 -6.6535 -2.5015 0.9621
-5.7006 -7.3930 -2.5015 0.9621
-3.7698 -8.5406 -2.5015 0.9621
-1.6209 -9.1938 -2.5015 0.9621
0.6219 -9.3148 -2.5015 0.9621
1.7379 -9.1724 -2.5015 0.9621
2.8287 -8.8967 -2.5015 0.9621
5.7943 -7.3197 -2.5015 0.9621
6.6328 -6.5696 -2.5015 0.9621
7.3749 -5.7240 -2.5015 0.9621
8.5286 -3.7969 -2.5015 0.9621
8.9234 -2.7433 -2.5015 0.9621
9.3204 -0.5327 -2.5015 0.9621
9.3167 0.5924 -2.5015 0.9621
8.6807 1.6163 -2.3660 0.9641
8.3637 2.6301 -2.3493 0.9643
3.4152 5.6640 -1.7722 0.9730
1.0383 5.6786 -1.5468 0.9764
-0.3435 5.6871 -1.5266 0.9767
-4.2300 5.4138 -1.8409 0.9720
-5.1686 5.1846 -1.9616 0.9701
-7.4939 4.5510 -2.3493 0.9643
-7.9869 3.6165 -2.3493 0.9643
-8.6877 1.6169 -2.3678 0.9641
-9.1885 -1.6507 -2.5015 0.9621
-8.5283 -3.7975 -2.5015 0.9621
-7.3745 -5.7245 -2.5015 0.9621
-6.6323 -6.5700 -2.5015 0.9621
-5.7938 -7.3202 -2.5015 0.9621
-4.8711 -7.9640 -2.5015 0.9621
-3.8777 -8.4921 -2.5015 0.9621
-2.8280 -8.8969 -2.5015 0.9621
-0.6212 -9.3149 -2.5015 0.9621
0.5038 -9.3220 -2.5015 0.9621
2.7157 -8.9318 -2.5015 0.9621
3.7704 -8.5403 -2.5015 0.9621
8.4798 -3.9046 -2.5015 0.9621
8.8879 -2.8562 -2.5015 0.9621
9.1669 -1.7663 -2.5015 0.9621
9.3129 -0.6507 -2.5015 0.9621
8.8498 1.5320 -2.4066 0.9635
8.3964 2.5239 -2.3493 0.9643
7.5506 4.4563 -2.3493 0.9643
6.1782 6.0432 -2.3157 0.9648
1.8431 5.6737 -1.5985 0.9756
1.1127 5.6781 -1.5504 0.9763
-0.2712 5.6866 -1.5255 0.9767
-0.9666 5.6909 -1.5467 0.9764
-1.6924 5.6954 -1.5920 0.9757
-3.2446 5.5375 -1.7197 0.9738
-5.0716 5.2179 -1.9497 0.9703
-6.8228 5.5063 -2.3493 0.9643
-7.9405 3.7174 -2.3493 0.9643
-8.3300 2.7352 -2.3493 0.9643
-8.5985 1.7133 -2.3493 0.9643
-9.3085 0.7097 -2.5015 0.9621
-9.2086 -1.5341 -2.5015 0.9621
-8.0697 -4.6940 -2.5015 0.9621
-4.9716 -7.9016 -2.5015 0.9621
-3.9850 -8.4423 -2.5015 0.9621
-2.9405 -8.8604 -2.5015 0.9621
2.6024 -8.9655 -2.5015 0.9621
3.6620 -8.5874 -2.5015 0.9621
4.6684 -8.0845 -2.5015 0.9621
7.2275 -5.9090 -2.5015 0.9621
7.8858 -4.9966 -2.5015 0.9621
9.3288 0.3562 -2.5015 0.9621
8.9766 1.4371 -2.4359 0.9631
8.4277 2.4174 -2.3493 0.9643
7.6064 4.3603 -2.3493 0.9643
6.1773 5.8910 -2.2872 0.9653
5.0825 6.1766 -2.1433 0.9674
3.6132 5.6628 -1.7999 0.9726
1.9227 5.6732 -1.6050 0.9755
-0.1991 5.6862 -1.5245 0.9767
-1.6140 5.6949 -1.5860 0.9758
-4.0260 5.4308 -1.8114 0.9724
-4.9757 5.2506 -1.9383 0.9705
-6.7525 5.5923 -2.3493 0.9643
-7.3762 4.7394 -2.3493 0.9643
-7.8927 3.8177 -2.3493 0.9643
-8.2947 2.8405 -2.3493 0.9643
-8.5761 1.8221 -2.3493 0.9643
-9.2988 0.8275 -2.5015 0.9621
-8.6218 -3.5802 -2.5015 0.9621
-7.5171 -5.5358 -2.5015 0.9621
-6.7966 -6.3999 -2.5015 0.9621
-3.0525 -8.8224 -2.5015 0.9621
1.3881 -9.2318 -2.5015 0.9621
2.4886 -8.9978 -2.5015 0.9621
4.5656 -8.1430 -2.5015 0.9621
5.5120 -7.5346 -2.5015 0.9621
6.3784 -6.8168 -2.5015 0.9621
7.1521 -6.0000 -2.5015 0.9621
7.8219 -5.0961 -2.5015 0.9621
8.3781 -4.1182 -2.5015 0.9621
8.8127 -3.0804 -2.5015 0.9621
9.3325 0.2380 -2.5015 0.9621
8.4577 2.3104 -2.3493 0.9643
8.1183 3.3110 -2.3493 0.9643
6.2248 5.7875 -2.2775 0.9654
2.8082 5.6677 -1.6949 0.9741
2.0030 5.6727 -1.6120 0.9754
1.2627 5.6772 -1.5584 0.9762
0.5601 5.6815 -1.5297 0.9766
-0.8188 5.6900 -1.5403 0.9765
-6.6811 5.6774 -2.3493 0.9643
-7.8437 3.9174 -2.3493 0.9643
-8.2580 2.9454 -2.3493 0.9643
-8.5523 1.9306 -2.3493 0.9643
-9.3339 -0.1788 -2.5015 0.9621
-9.0210 -2.4030 -2.5015 0.9621
-8.6664 -3.4707 -2.5015 0.9621
-8.1860 -4.4880 -2.5015 0.9621
-6.8771 -6.3133 -2.5015 0.9621
-5.1702 -7.7731 -2.5015 0.9621
-4.1976 -8.3386 -2.5015 0.9621
-3.1640 -8.7830 -2.5015 0.9621
1.2711 -9.2486 -2.5015 0.9621
2.3744 -9.0286 -2.5015 0.9621
3.4432 -8.6774 -2.5015 0.9621
6.2915 -6.8971 -2.5015 0.9621
7.0755 -6.0902 -2.5015 0.9621
7.7567 -5.1948 -2.5015 0.9621
8.3253 -4.2240 -2.5015 0.9621
8.7730 -3.1918 -2.5015 0.9621
9.2814 -1.0041 -2.5015 0.9621
9.3348 0.1197 -2.5015 0.9621
9.1074 1.2223 -2.4622 0.9627
8.1596 3.2079 -2.3493 0.9643
7.7144 4.1662 -2.3493 0.9643
7.1572 5.0640 -2.3493 0.9643
6.3840 5.7865 -2.3087 0.9649
5.2035 6.0068 -2.1295 0.9676
3.8176 5.6615 -1.8297 0.9721
2.0840 5.6722 -1.6192 0.9753
1.3383 5.6767 -1.5628 0.9761
0.6328 5.6811 -1.5317 0.9766
-2.9929 5.5842 -1.6976 0.9741
-4.7867 5.3147 -1.9165 0.9708
-6.6086 5.7616 -2.3493 0.9643
-7.2537 4.9248 -2.3493 0.9643
-7.7935 4.0164 -2.3493 0.9643
-7.1581 2.6558 -2.0458 0.9689
-9.3354 -0.0606 -2.5015 0.9621
-9.2603 -1.1831 -2.5015 0.9621
-8.6064 -2.1762 -2.3787 0.9639
-8.7097 -3.3607 -2.5015 0.9621
-8.2422 -4.3840 -2.5015 0.9621
-5.2683 -7.7070 -2.5015 0.9621
-3.2750 -8.7423 -2.5015 0.9621
-1.0922 -9.2715 -2.5015 0.9621
1.1538 -9.2640 -2.5015 0.9621
2.2598 -9.0579 -2.5015 0.9621
3.3330 -8.7203 -2.5015 0.9621
4.3579 -8.2560 -2.5015 0.9621
6.9978 -6.1793 -2.5015 0.9621
8.2711 -4.3291 -2.5015 0.9621
4.6302 0.5618 -1.2498 0.9809
8.1996 3.1043 -2.3493 0.9643
6.5477 5.7855 -2.3412 0.9645
5.2635 5.9228 -2.1231 0.9677
3.9224 5.6609 -1.8454 0.9719
2.9888 5.6666 -1.7166 0.9738
2.1658 5.6717 -1.6267 0.9752
-0.6720 5.6891 -1.5350 0.9766
-1.3822 5.6935 -1.5699 0.9760
-2.1367 5.6981 -1.6306 0.9751
-2.9104 5.5995 -1.6909 0.9742
-4.6936 5.3460 -1.9062 0.9710
-6.5351 5.8448 -2.3493 0.9643
-7.1907 5.0163 -2.3493 0.9643
-7.7420 4.1148 -2.3493 0.9643
-8.5007 2.1466 -2.3493 0.9643
-9.2584 1.1800 -2.5008 0.9621
-8.6003 -2.0591 -2.3696 0.9640
-8.2971 -4.2792 -2.5015 0.9621
-7.7220 -5.2462 -2.5015 0.9621
-7.0348 -6.1371 -2.5015 0.9621
-6.2455 -6.9388 -2.5015 0.9621
-4.4075 -8.2296 -2.5015 0.9621
-1.2096 -9.2569 -2.5015 0.9621
2.1449 -9.0858 -2.5015 0.9621
5.2218 -7.7386 -2.5015 0.9621
6.1147 -7.0543 -2.5015 0.9621
7.6226 -5.3896 -2.5015 0.9621
8.6893 -3.4130 -2.5015 0.9621
9.0368 -2.3430 -2.5015 0.9621
9.2530 -1.2389 -2.5015 0.9621
9.2160 0.9999 -2.4839 0.9623
8.5393 1.9874 -2.3493 0.9643
6.6432 5.7217 -2.3493 0.9643
5.3231 5.8392 -2.1172 0.9678
4.0290 5.6602 -1.8616 0.9716
2.2483 5.6712 -1.6346 0.9751
1.4908 5.6758 -1.5724 0.9760
0.0891 5.6844 -1.5233 0.9767
-3.6372 5.4647 -1.7589 0.9732
-4.6014 5.3768 -1.8963 0.9711
-6.4605 5.9272 -2.3493 0.9643
-9.2354 1.2962 -2.4989 0.9621
-9.2873 -0.9482 -2.5015 0.9621
-8.7920 -3.1389 -2.5015 0.9621
-8.3506 -4.1737 -2.5015 0.9621
-7.7879 -5.1480 -2.5015 0.9621
-5.4618 -7.5711 -2.5015 0.9621
-2.4287 -9.0141 -2.5015 0.9621
-1.3268 -9.2408 -2.5015 0.9621
-0.2055 -9.3333 -2.5015 0.9621
0.9188 -9.2902 -2.5015 0.9621
2.0296 -9.1123 -2.5015 0.9621
3.1110 -8.8019 -2.5015 0.9621
5.1233 -7.8041 -2.5015 0.9621
6.0249 -7.1311 -2.5015 0.9621
7.5537 -5.4858 -2.5015 0.9621
8.1588 -4.5372 -2.5015 0.9621
8.6454 -3.5229 -2.5015 0.9621
9.2365 -1.3560 -2.5015 0.9621
9.3326 -0.2350 -2.5015 0.9621
8.2756 2.8956 -2.3493 0.9643
6.7151 5.6371 -2.3493 0.9643
5.3824 5.7560 -2.1116 0.9679
4.1376 5.6595 -1.8785 0.9714
3.1742 5.6655 -1.7401 0.9735
0.8522 5.6797 -1.5389 0.9765
0.1612 5.6840 -1.5236 0.9767
-1.9732 5.6971 -1.6155 0.9753
-2.7473 5.6297 -1.6785 0.9744
-3.5488 5.4811 -1.7496 0.9733
-7.0614 5.1968 -2.3493 0.9643
-7.6352 4.3096 -2.3493 0.9643
-6.8670 2.8490 -1.9921 0.9697
-9.3309 0.2942 -2.5015 0.9621
-9.1311 -1.9430 -2.5015 0.9621
-8.4028 -4.0676 -2.5015 0.9621
-7.1881 -5.9569 -2.5015 0.9621
-6.4193 -6.7783 -2.5015 0.9621
-5.5573 -7.5013 -2.5015 0.9621
-4.6146 -8.1153 -2.5015 0.9621
-3.6048 -8.6115 -2.5015 0.9621
2.9993 -8.8406 -2.5015 0.9621
5.9341 -7.2069 -2.5015 0.9621
6.7579 -6.4407 -2.5015 0.9621
8.1007 -4.6402 -2.5015 0.9621
8.6000 -3.6321 -2.5015 0.9621
8.9745 -2.5712 -2.5015 0.9621
9.2186 -1.4729 -2.5015 0.9621
8.3116 2.7905 -2.3493 0.9643
7.9156 3.7701 -2.3493 0.9643
6.7860 5.5516 -2.3493 0.9643
