ply
format ascii 1.0
element vertex 1556
property float32 x
property float32 y
property float32 z
property float32 I
end_header
2.9543 5.6668 0.1115 0.9748
1.3848 5.6765 0.1020 0.9769
0.6772 5.6808 0.0999 0.9774
-1.4071 5.6692 0.1020 0.9769
-2.1564 5.6614 0.1057 0.9761
-2.9771 5.6553 0.1116 0.9748
-17.0799 24.6886 0.5240 0.8868
-6.4708 5.7247 0.1508 0.9660
-8.2912 5.7170 0.1758 0.9605
-15.2424 5.7787 0.2845 0.9369
-23.7623 5.8587 0.4272 0.9067
-29.3467 0.0132 0.5122 0.8892
-45.9746 -11.2916 0.8263 0.8275
-13.0549 -34.1824 0.6387 0.8638
-8.6378 -69.5638 1.2236 0.7555
26.5092 -38.7222 0.8191 0.8288
26.5614 -30.2260 0.7024 0.8513
71.8826 -27.6552 1.3444 0.7348
46.0308 17.1467 0.8574 0.8216
2.1979 5.6715 0.1062 0.9760
0.4756 61.0276 1.0653 0.7834
-0.6420 5.6643 0.0995 0.9775
-2.0942 5.6643 0.1054 0.9761
-16.7233 24.6864 0.5205 0.8876
-6.3436 5.7240 0.1491 0.9664
-14.7965 5.7759 0.2773 0.9384
-22.6334 5.8160 0.4079 0.9107
-79.0609 -53.2766 1.6641 0.6829
-25.4655 -35.9817 0.7694 0.8383
-18.6691 -34.5621 0.6857 0.8546
-11.2747 -43.4347 0.7833 0.8357
-8.9137 -66.4573 1.1704 0.7647
23.2025 -45.6909 0.8945 0.8146
38.4100 -27.3255 0.8228 0.8281
82.7563 -21.6981 1.4933 0.7102
24.0654 5.5371 0.4310 0.9059
46.9585 16.9706 0.8715 0.8189
34.1167 17.2200 0.6671 0.8582
6.5437 5.6099 0.1504 0.9661
5.1768 5.6532 0.1338 0.9698
4.0270 5.6313 0.1208 0.9727
2.2619 5.6711 0.1066 0.9759
-1.2896 5.6685 0.1015 0.9770
-2.0324 5.6672 0.1051 0.9762
-2.8366 5.6543 0.1104 0.9750
-3.7546 5.6610 0.1186 0.9732
-4.8752 5.7149 0.1311 0.9704
-7.9281 5.6989 0.1704 0.9617
-10.3946 5.7137 0.2070 0.9537
22.4418 -45.2859 0.8822 0.8169
26.5540 -31.4382 0.7183 0.8482
29.3438 -27.2698 0.6992 0.8519
42.8463 -23.8258 0.8557 0.8219
47.4871 16.6378 0.8783 0.8177
26.8363 13.2172 0.5222 0.8872
27.2316 17.7746 0.5676 0.8780
5.2789 5.6525 0.1350 0.9695
4.1316 5.6596 0.1223 0.9724
3.1686 5.6655 0.1133 0.9744
2.3263 5.6707 0.1070 0.9758
1.5625 5.6754 0.1027 0.9767
0.8469 5.6798 0.1002 0.9773
-0.5298 5.6636 0.0993 0.9775
-1.2313 5.6681 0.1012 0.9771
-4.7788 5.7143 0.1300 0.9706
-26.2271 19.2448 0.5678 0.8780
-25.4643 -34.5256 0.7488 0.8423
-11.4361 -40.7572 0.7389 0.8442
30.9426 -90.4386 1.6684 0.6822
27.0693 -42.1447 0.8743 0.8184
26.5501 -32.0655 0.7267 0.8466
28.7698 -27.2663 0.6919 0.8534
36.8227 -27.2979 0.8001 0.8325
65.8186 -27.5679 1.2456 0.7517
48.9928 16.6285 0.9031 0.8130
3.2416 5.6650 0.1139 0.9742
2.3913 5.6703 0.1074 0.9757
0.9038 5.6794 0.1004 0.9773
0.2114 5.6837 0.0993 0.9775
-1.1732 5.6677 0.1010 0.9771
-1.9098 5.6725 0.1045 0.9763
-3.5963 5.6599 0.1170 0.9735
-4.6840 5.7137 0.1290 0.9709
-5.9783 5.7217 0.1444 0.9674
-7.6534 5.7320 0.1669 0.9625
-20.1079 5.8017 0.3653 0.9197
-55.2486 -26.2095 1.0674 0.7830
-25.9876 -34.5224 0.7542 0.8412
-11.4268 -39.2428 0.7134 0.8492
-10.9075 -66.4451 1.1753 0.7639
26.5462 -32.7075 0.7353 0.8449
36.0843 -27.3020 0.7898 0.8344
47.0422 -27.3786 0.9501 0.8043
64.0256 -27.5568 1.2167 0.7566
82.9285 6.3256 1.4517 0.7170
53.1626 10.5980 0.9462 0.8050
36.7287 17.2040 0.7079 0.8502
3.3154 5.6646 0.1146 0.9741
2.4568 5.6699 0.1079 0.9756
1.6825 5.6746 0.1033 0.9766
0.9608 5.6791 0.1005 0.9772
-2.6310 5.6528 0.1088 0.9754
-7.4980 5.7311 0.1647 0.9629
-4.7068 2.7703 0.0953 0.9784
-13.2186 5.7662 0.2517 0.9439
-70.8670 -32.7727 1.3628 0.7317
-26.5188 -34.5191 0.7598 0.8402
-15.0055 -34.1705 0.6514 0.8613
-11.4182 -37.8291 0.6897 0.8538
22.4204 -48.7948 0.9373 0.8067
25.9112 -42.1339 0.8634 0.8205
26.5421 -33.3649 0.7442 0.8432
35.3656 -27.3068 0.7799 0.8363
45.9892 -27.3721 0.9342 0.8073
62.4288 -27.5970 1.1914 0.7610
82.9235 5.5089 1.4506 0.7171
55.9281 10.5810 0.9935 0.7964
52.2805 16.6100 0.9575 0.8030
36.9999 16.8913 0.7099 0.8498
27.4057 16.7613 0.5607 0.8794
3.3900 5.6641 0.1152 0.9739
2.5228 5.6695 0.1083 0.9755
1.7430 5.6743 0.1036 0.9765
0.3229 5.6830 0.0994 0.9775
-1.0578 5.6670 0.1006 0.9772
-2.5637 5.6523 0.1083 0.9755
-4.4990 5.7126 0.1269 0.9713
-12.8685 5.7641 0.2461 0.9452
-18.7176 5.8000 0.3420 0.9246
-64.8328 -20.2490 1.1856 0.7621
-65.7136 -65.7003 1.6220 0.6895
-28.5674 -36.4419 0.8082 0.8309
-23.1865 -38.3136 0.7817 0.8360
-15.4052 -34.1680 0.6542 0.8608
-9.5638 -51.8814 0.9208 0.8097
22.4123 -50.0638 0.9574 0.8030
25.3428 -42.1286 0.8582 0.8214
26.5380 -34.0385 0.7534 0.8414
60.7892 -27.5869 1.1652 0.7656
82.9185 4.6936 1.4497 0.7173
7.5960 5.8923 0.1678 0.9623
3.4655 5.6637 0.1159 0.9738
1.8039 5.6739 0.1039 0.9765
-0.3072 5.6732 0.0992 0.9775
-1.0004 5.6666 0.1004 0.9772
-1.7257 5.6713 0.1035 0.9766
-2.4971 5.6519 0.1079 0.9756
-3.3661 5.6582 0.1149 0.9740
-4.6579 2.8658 0.0955 0.9784
-64.8642 -19.5639 1.1826 0.7626
-29.1452 -36.4384 0.8145 0.8297
27.0296 -90.4178 1.6473 0.6855
22.5748 -51.7803 0.9860 0.7977
33.9583 -27.2982 0.7605 0.8400
43.9851 -27.3598 0.9042 0.8128
45.8879 -21.3690 0.8837 0.8167
62.3976 10.5438 1.1046 0.7763
52.2736 15.4875 0.9517 0.8040
39.6031 17.1507 0.7533 0.8414
28.7571 16.8231 0.5815 0.8752
7.6506 5.8156 0.1677 0.9623
5.8188 5.6492 0.1416 0.9681
4.5702 5.6569 0.1269 0.9713
-1.6651 5.6709 0.1032 0.9766
-2.4310 5.6514 0.1074 0.9757
-4.3196 5.7115 0.1250 0.9718
-5.5251 5.7189 0.1388 0.9687
-7.0549 5.7283 0.1586 0.9643
-9.0997 5.7222 0.1876 0.9579
-27.8683 -34.1510 0.7694 0.8383
-12.2044 -36.5201 0.6721 0.8572
26.0662 -90.4119 1.6424 0.6863
22.3956 -52.7739 1.0007 0.7950
24.2261 -42.1182 0.8481 0.8233
26.5765 -27.7799 0.6711 0.8574
33.2804 -27.2940 0.7513 0.8418
46.4196 -22.1723 0.8979 0.8140
82.2670 -27.7165 1.5154 0.7066
19.4291 5.5501 0.3527 0.9223
29.4072 16.8191 0.5913 0.8733
7.7053 5.7390 0.1677 0.9623
5.9333 5.6485 0.1430 0.9678
4.6621 5.6563 0.1279 0.9711
1.1910 5.6777 0.1013 0.9771
0.4906 5.6820 0.0995 0.9774
-0.1961 5.6784 0.0992 0.9775
-0.8862 5.6659 0.1001 0.9773
-3.2171 5.6571 0.1136 0.9743
-4.2319 5.7110 0.1241 0.9720
-5.4172 5.7183 0.1375 0.9690
-6.9144 5.7275 0.1567 0.9647
-8.9028 5.7208 0.1847 0.9585
-11.8711 5.7418 0.2302 0.9486
-16.9083 5.7889 0.3120 0.9310
-27.4912 5.8371 0.4906 0.8937
-28.4271 -34.1476 0.7755 0.8371
-15.2261 -31.2845 0.6073 0.8701
-8.0831 -88.5554 1.5522 0.7006
25.1084 -90.4060 1.6378 0.6870
22.3867 -54.2234 1.0240 0.7908
23.6774 -42.1131 0.8433 0.8243
42.1051 -27.3483 0.8764 0.8180
46.4161 -22.7315 0.9021 0.8132
20.1646 5.5472 0.3650 0.9197
41.8834 17.1723 0.7901 0.8344
7.7722 5.6713 0.1679 0.9622
4.7554 5.6558 0.1290 0.9709
3.6975 5.6622 0.1180 0.9733
2.7929 5.6678 0.1103 0.9750
1.9888 5.6727 0.1049 0.9762
1.2491 5.6773 0.1015 0.9770
-0.1405 5.6810 0.0992 0.9775
-0.8294 5.6655 0.0999 0.9774
-1.5449 5.6701 0.1026 0.9768
-2.3022 5.6545 0.1066 0.9759
-5.3113 5.7176 0.1362 0.9693
-8.7119 5.7194 0.1819 0.9592
44.6029 17.1140 -0.8339 0.8260
31.6026 16.7355 -0.6242 0.8667
27.1685 18.8941 -0.5776 0.8760
6.3306 5.6461 -0.1481 0.9666
2.9543 5.6668 -0.1115 0.9748
2.1344 5.6718 -0.1058 0.9760
0.6772 5.6808 -0.0999 0.9774
-2.1511 5.6475 -0.1055 0.9761
-2.9613 5.6252 -0.1110 0.9749
-17.0799 24.6886 -0.5240 0.8868
-5.0730 5.7161 -0.1334 0.9699
-10.7916 5.6597 -0.2127 0.9524
-80.8326 -9.7627 -1.4212 0.7220
-65.2610 -34.1517 -1.2857 0.7448
-20.5205 -23.0807 -0.5391 0.8838
-12.5393 -18.0905 -0.3842 0.9157
-9.3637 -24.5175 -0.4581 0.9003
-6.8555 -27.5152 -0.4950 0.8928
-5.6218 -45.2745 -0.7963 0.8332
22.8491 -94.0254 -1.6889 0.6790
22.0497 -42.3874 -0.8340 0.8260
26.5092 -38.7222 -0.8191 0.8288
43.9577 -23.3288 -0.8686 0.8195
71.8826 -27.6552 -1.3444 0.7348
89.5535 -22.5454 -1.6119 0.6911
69.3059 -0.3704 -1.2097 0.7578
33.3116 17.2250 -0.6546 0.8607
27.1661 18.5004 -0.5737 0.8768
5.0764 5.6538 -0.1326 0.9701
3.0250 5.6664 -0.1121 0.9746
0.7336 5.6805 -0.1000 0.9773
0.4810 61.7275 -1.0775 0.7812
-0.6412 5.6575 -0.0994 0.9775
-16.7233 24.6864 -0.5205 0.8876
-6.3436 5.7240 -0.1491 0.9664
-14.7965 5.7759 -0.2773 0.9384
-22.2865 5.7269 -0.4016 0.9121
-62.3796 0.6388 -1.0889 0.7791
-68.0593 -7.5445 -1.1952 0.7604
-55.2742 -13.0030 -0.9911 0.7968
-80.8820 -29.6789 -1.5038 0.7085
-65.1496 -33.2849 -1.2770 0.7463
-68.8749 -46.4126 -1.4497 0.7173
-29.3343 -25.3986 -0.6773 0.8562
-12.3924 -22.9421 -0.4551 0.9009
-6.9736 -26.8652 -0.4845 0.8949
24.5658 -67.4577 -1.2531 0.7504
21.8437 -43.0150 -0.8421 0.8245
43.7462 -23.7684 -0.8690 0.8194
41.9899 4.4467 -0.7370 0.8446
46.9585 16.9706 -0.8715 0.8189
6.5437 5.6099 -0.1504 0.9661
4.0270 5.6313 -0.1208 0.9727
3.0964 5.6659 -0.1127 0.9745
0.7902 5.6801 -0.1001 0.9773
0.0996 5.6616 -0.0988 0.9776
-0.5854 5.6601 -0.0993 0.9775
-1.2865 5.6549 -0.1012 0.9771
-2.0275 5.6534 -0.1048 0.9763
-2.8217 5.6245 -0.1098 0.9751
-3.7334 5.6291 -0.1179 0.9733
-6.2193 5.7232 -0.1475 0.9668
-7.9281 5.6989 -0.1704 0.9617
-10.3252 5.6756 -0.2057 0.9540
-14.3727 5.7733 -0.2704 0.9399
-21.5386 5.7602 -0.3892 0.9147
-62.5815 1.2538 -1.0926 0.7785
-73.7828 -7.4484 -1.2944 0.7433
-64.6394 -32.2301 -1.2608 0.7490
-66.2199 -56.2101 -1.5162 0.7065
-21.8039 -23.5777 -0.5606 0.8794
-7.2216 -26.7412 -0.4835 0.8951
-5.7201 -39.6930 -0.7000 0.8518
18.0151 -36.3532 -0.7082 0.8502
26.5540 -31.4382 -0.7183 0.8482
29.3438 -27.2698 -0.6992 0.8519
37.6178 -27.3207 -0.8115 0.8303
52.4492 -29.1658 -1.0475 0.7866
25.1612 5.5303 -0.4497 0.9021
26.8363 13.2172 -0.5222 0.8872
27.1613 17.7287 -0.5662 0.8783
5.2789 5.6525 -0.1350 0.9695
4.1316 5.6596 -0.1223 0.9724
2.3263 5.6707 -0.1070 0.9758
1.5625 5.6754 -0.1027 0.9767
0.8469 5.6798 -0.1002 0.9773
-1.2283 5.6546 -0.1010 0.9771
-3.6543 5.6287 -0.1171 0.9735
-10.1085 5.6861 -0.2024 0.9547
-7.1284 2.9448 -0.1346 0.9696
-20.7212 5.7595 -0.3754 0.9176
-94.8736 14.3841 -1.6749 0.6812
-62.5777 1.8668 -1.0928 0.7784
-79.4572 -7.2361 -1.3927 0.7267
-80.9329 -27.9118 -1.4943 0.7100
-57.9127 -28.1712 -1.1241 0.7729
-22.9680 -24.3536 -0.5843 0.8747
-12.8005 -22.6265 -0.4538 0.9012
-10.0300 -24.1123 -0.4558 0.9008
-7.2792 -25.9423 -0.4703 0.8978
-5.7587 -37.3657 -0.6599 0.8596
26.9310 -41.9294 -0.8698 0.8193
26.5501 -32.0655 -0.7267 0.8466
28.7698 -27.2663 -0.6919 0.8534
36.8470 -27.3159 -0.8006 0.8324
41.8165 -23.7922 -0.8398 0.8249
48.9928 16.6285 -0.9031 0.8130
35.8231 17.2096 -0.6937 0.8530
7.4316 6.1227 -0.1681 0.9622
5.3828 5.6519 -0.1362 0.9693
2.3913 5.6703 -0.1074 0.9757
1.6224 5.6750 -0.1030 0.9767
0.9038 5.6794 -0.1004 0.9773
0.2114 5.6837 -0.0993 0.9775
-0.4740 5.6654 -0.0992 0.9775
-1.9051 5.6585 -0.1042 0.9764
-2.6848 5.6238 -0.1088 0.9754
-3.5762 5.6283 -0.1164 0.9737
-4.6840 5.7137 -0.1290 0.9709
-9.8985 5.6962 -0.1993 0.9553
-7.1490 3.0355 -0.1356 0.9694
-31.8475 5.1480 -0.5631 0.8789
-80.8670 -16.5330 -1.4407 0.7188
-80.7658 -26.9722 -1.4863 0.7113
-68.2132 -43.1087 -1.4085 0.7241
-23.5870 -24.5244 -0.5939 0.8727
-12.9877 -22.4419 -0.4526 0.9015
-8.1868 -19.1503 -0.3635 0.9201
-7.4199 -25.4820 -0.4633 0.8993
26.3513 -41.9240 -0.8643 0.8203
26.5462 -32.7075 -0.7353 0.8449
36.0966 -27.3113 -0.7901 0.8344
89.7341 6.8447 -1.5709 0.6977
36.7287 17.2040 -0.7079 0.8502
7.4865 6.0458 -0.1680 0.9622
3.3154 5.6646 -0.1146 0.9741
1.6825 5.6746 -0.1033 0.9766
0.9608 5.6791 -0.1005 0.9772
0.2671 5.6833 -0.0993 0.9775
-0.4184 5.6680 -0.0992 0.9775
-1.1127 5.6539 -0.1006 0.9772
-2.6181 5.6252 -0.1083 0.9755
-3.4991 5.6279 -0.1157 0.9738
-4.5908 5.7132 -0.1279 0.9711
-5.8616 5.7210 -0.1430 0.9678
-4.7067 2.7703 -0.0953 0.9784
-13.2186 5.7662 -0.2517 0.9439
-19.4015 5.8042 -0.3535 0.9222
-62.3646 3.0840 -1.0899 0.7790
-80.8626 -15.7088 -1.4378 0.7192
-68.0981 -42.1083 -1.3975 0.7259
-17.3727 -22.6140 -0.4978 0.8922
-13.2446 -22.3775 -0.4539 0.9012
-10.5058 -23.9239 -0.4561 0.9007
-7.6706 -25.4132 -0.4634 0.8992
18.2998 -57.1147 -1.0469 0.7867
25.7788 -41.9187 -0.8590 0.8213
26.5421 -33.3649 -0.7442 0.8432
27.6570 -27.2595 -0.6778 0.8561
45.9892 -27.3721 -0.9342 0.8073
52.4809 16.6736 -0.9612 0.8023
27.4057 16.7614 -0.5607 0.8794
5.5967 5.6506 -0.1388 0.9687
4.3908 5.6580 -0.1250 0.9718
2.5228 5.6695 -0.1083 0.9755
1.7430 5.6743 -0.1036 0.9765
0.3229 5.6830 -0.0994 0.9775
-0.3628 5.6706 -0.0992 0.9775
-2.5528 5.6283 -0.1079 0.9756
-3.4229 5.6275 -0.1150 0.9740
-5.7472 5.7203 -0.1415 0.9681
-4.6678 2.8093 -0.0951 0.9784
-12.8685 5.7641 -0.2461 0.9452
-18.7176 5.8000 -0.3420 0.9246
-32.3633 5.8839 -0.5742 0.8767
-87.7952 -5.4010 -1.5354 0.7034
-80.9371 -14.9024 -1.4365 0.7195
-65.1859 -20.3593 -1.1920 0.7609
-25.8778 -25.8725 -0.6387 0.8638
-7.8530 -25.1255 -0.4595 0.9000
-5.7327 -31.0987 -0.5520 0.8812
27.9709 -90.3336 -1.6506 0.6850
25.2133 -41.9134 -0.8538 0.8223
26.5380 -34.0385 -0.7534 0.8414
34.6531 -27.3025 -0.7701 0.8382
89.7233 5.0787 -1.5686 0.6980
52.3772 16.0778 -0.9563 0.8032
35.3658 15.7287 -0.6756 0.8565
28.0123 16.7577 -0.5698 0.8776
4.4799 5.6574 -0.1260 0.9715
3.4655 5.6637 -0.1159 0.9738
2.5895 5.6691 -0.1088 0.9754
1.8039 5.6739 -0.1039 0.9765
1.0755 5.6784 -0.1009 0.9771
0.3787 5.6826 -0.0994 0.9775
-0.3072 5.6732 -0.0992 0.9775
-0.9980 5.6532 -0.1002 0.9773
-5.6350 5.7196 -0.1401 0.9684
-18.0769 5.7961 -0.3314 0.9269
-80.6262 -14.0304 -1.4285 0.7208
-80.7053 -35.4209 -1.5384 0.7029
-67.5953 -39.9892 -1.3709 0.7304
-18.1862 -22.7371 -0.5082 0.8900
-17.4915 -28.2742 -0.5803 0.8755
-8.0751 -24.9746 -0.4582 0.9003
-5.9926 -30.8133 -0.5479 0.8820
27.0027 -90.3277 -1.6456 0.6858
17.2641 -39.5991 -0.7540 0.8413
24.6546 -41.9082 -0.8487 0.8232
43.9851 -27.3598 -0.9042 0.8128
60.1987 -28.0333 -1.1591 0.7667
28.6387 16.7538 -0.5791 0.8757
5.8188 5.6492 -0.1416 0.9681
3.5419 5.6632 -0.1166 0.9736
2.6567 5.6686 -0.1093 0.9753
1.1331 5.6780 -0.1011 0.9771
-0.2516 5.6758 -0.0992 0.9775
-1.6610 5.6571 -0.1029 0.9767
-2.4237 5.6345 -0.1071 0.9758
-3.2733 5.6268 -0.1136 0.9743
-4.3196 5.7115 -0.1250 0.9718
-5.5251 5.7189 -0.1388 0.9687
-9.0596 5.6970 -0.1868 0.9581
-12.2125 5.7600 -0.2357 0.9474
-94.9758 -3.9777 -1.6593 0.6837
-80.7421 -34.4981 -1.5326 0.7038
-67.2132 -38.8797 -1.3553 0.7330
-18.5682 -22.7542 -0.5126 0.8891
-11.1800 -23.5545 -0.4551 0.9009
-6.1707 -30.1501 -0.5372 0.8842
-3.3904 -41.6448 -0.7293 0.8461
26.0402 -90.3218 -1.6408 0.6866
16.7835 -39.5492 -0.7499 0.8421
24.1024 -41.9030 -0.8438 0.8242
26.5765 -27.7799 -0.6711 0.8574
33.2804 -27.2940 -0.7513 0.8418
43.0305 -27.3539 -0.8900 0.8155
57.7160 -27.5680 -1.1165 0.7742
43.5206 6.9164 -0.7692 0.8384
19.1062 5.4579 -0.3468 0.9236
5.9333 5.6485 -0.1430 0.9678
4.6621 5.6563 -0.1279 0.9711
3.6192 5.6627 -0.1173 0.9735
2.7245 5.6682 -0.1098 0.9752
1.9268 5.6731 -0.1046 0.9763
1.1910 5.6777 -0.1013 0.9771
-0.1961 5.6784 -0.0992 0.9775
-0.8841 5.6525 -0.0999 0.9774
-1.6009 5.6567 -0.1026 0.9768
-2.3599 5.6375 -0.1067 0.9758
-4.2319 5.7110 -0.1241 0.9720
-11.8711 5.7418 -0.2302 0.9486
-16.9083 5.7889 -0.3120 0.9310
-26.9532 5.7229 -0.4810 0.8956
-61.1138 5.4274 -1.0709 0.7823
-64.1044 -17.9729 -1.1621 0.7662
-80.7239 -33.5595 -1.5259 0.7049
-8.4607 -24.5164 -0.4527 0.9014
22.0687 -53.4532 -1.0094 0.7935
23.5565 -41.8980 -0.8390 0.8251
32.6188 -27.2900 -0.7423 0.8435
37.9888 15.5754 -0.7167 0.8485
29.9557 16.7457 -0.5990 0.8717
6.0500 5.6478 -0.1445 0.9674
4.7554 5.6558 -0.1290 0.9709
2.7929 5.6678 -0.1103 0.9750
-0.1405 5.6810 -0.0992 0.9775
-0.8275 5.6522 -0.0997 0.9774
-2.2965 5.6406 -0.1063 0.9759
-3.1270 5.6261 -0.1124 0.9746
-4.1455 5.7104 -0.1232 0.9722
-5.3113 5.7176 -0.1362 0.9693
-6.7772 5.7266 -0.1549 0.9651
-8.6804 5.6987 -0.1812 0.9593
21.4939 8.2472 -1.2065 0.9119
21.5450 11.4094 -1.2777 0.9070
6.3306 5.6461 -0.4446 0.9666
3.8559 5.6216 -0.3573 0.9731
2.9543 5.6668 -0.3349 0.9747
0.6772 5.6808 -0.2998 0.9773
-0.0114 5.6821 -0.2978 0.9775
-0.6970 5.6549 -0.2986 0.9774
-1.4004 5.6420 -0.3047 0.9770
-2.1458 5.6337 -0.3159 0.9761
-16.8113 24.3004 -1.5486 0.8884
-5.0730 5.7161 -0.4005 0.9699
-6.4708 5.7247 -0.4528 0.9660
-10.7306 5.6277 -0.6350 0.9526
-15.2424 5.7787 -0.8543 0.9368
-35.0204 4.2615 -1.8489 0.8682
-29.4015 0.0132 -1.5409 0.8889
-44.5040 -5.3750 -2.3493 0.8356
-42.2909 -22.1312 -2.5015 0.8260
-39.3200 -27.0600 -2.5015 0.8260
-33.6007 -29.6731 -2.3493 0.8356
-12.0729 -22.8838 -1.3560 0.9016
-9.2781 -24.2935 -1.3629 0.9011
-6.7743 -27.1894 -1.4685 0.8938
-5.5068 -44.3482 -2.3420 0.8361
-0.1383 -47.7314 -2.5015 0.8260
20.6873 -39.7685 -2.3493 0.8356
25.3231 -36.9897 -2.3493 0.8356
26.4573 -30.1075 -2.1005 0.8517
29.4907 -26.3492 -2.0726 0.8535
39.5967 -21.0143 -2.3493 0.8356
40.1064 -15.4300 -2.2521 0.8419
46.2873 -11.6530 -2.5015 0.8260
47.7309 -0.2551 -2.5015 0.8260
42.2611 4.8943 -2.2296 0.8433
21.5403 11.1382 -1.2709 0.9074
6.4560 5.6453 -0.4495 0.9662
5.0764 5.6538 -0.3982 0.9700
23.4360 33.4602 -2.1409 0.8491
2.1979 5.6715 -0.3188 0.9759
0.7336 5.6805 -0.3002 0.9773
-2.0840 5.6367 -0.3150 0.9762
-10.5013 5.6392 -0.6247 0.9534
-14.7964 5.7759 -0.8324 0.9384
-22.0124 5.6564 -1.1911 0.9130
-45.1043 0.4620 -2.3639 0.8347
-42.5055 -21.7160 -2.5015 0.8260
-20.8054 -22.9446 -1.6232 0.8833
-12.3246 -22.8167 -1.3591 0.9013
-6.9310 -26.7009 -1.4457 0.8954
-0.6056 -47.7277 -2.5015 0.8260
5.1428 -47.4537 -2.5015 0.8260
10.8165 -46.4899 -2.5015 0.8260
16.2890 -44.7295 -2.4948 0.8264
24.1289 -35.9964 -2.2711 0.8407
24.7807 -28.7627 -1.9897 0.8589
29.8142 -27.1679 -2.1139 0.8508
39.3890 -21.4011 -2.3493 0.8356
47.2923 -6.4610 -2.5015 0.8260
47.7261 -0.7225 -2.5015 0.8260
24.0654 5.5371 -1.2942 0.9058
21.4869 7.7653 -1.1974 0.9125
21.6003 14.4025 -1.3606 0.9012
5.1768 5.6532 -0.4017 0.9698
4.0270 5.6313 -0.3628 0.9727
2.2619 5.6711 -0.3200 0.9758
1.5030 5.6757 -0.3077 0.9768
0.0996 5.6616 -0.2968 0.9776
-1.2835 5.6414 -0.3032 0.9771
-2.8101 5.6014 -0.3284 0.9752
-3.7124 5.5974 -0.3520 0.9735
-6.2193 5.7232 -0.4429 0.9667
-7.9281 5.6989 -0.5117 0.9616
-21.3102 5.6991 -1.1561 0.9154
-30.1821 4.2741 -1.5976 0.8851
-45.1221 0.9041 -2.3652 0.8346
-44.6140 -4.5038 -2.3500 0.8356
-21.7136 -23.4800 -1.6761 0.8798
-12.5310 -22.6651 -1.3573 0.9015
-5.3473 -37.1060 -1.9647 0.8606
-1.0730 -47.7195 -2.5015 0.8260
15.8926 -45.0070 -2.5014 0.8260
18.0151 -36.3532 -2.1263 0.8500
26.4499 -31.3150 -2.1482 0.8486
47.2267 -6.9238 -2.5015 0.8260
47.7168 -1.1897 -2.5015 0.8260
25.1612 5.5303 -1.3501 0.9020
21.4835 7.5270 -1.1930 0.9129
7.3767 6.1997 -0.5050 0.9621
0.1555 5.6795 -0.2978 0.9775
-0.5297 5.6628 -0.2981 0.9775
-1.2254 5.6411 -0.3025 0.9771
-4.7788 5.7143 -0.3904 0.9706
-6.0975 5.7225 -0.4382 0.9671
-23.7263 17.4097 -1.5423 0.8888
-7.1272 2.9443 -0.4042 0.9696
-20.6482 5.7392 -1.1231 0.9177
-29.9954 4.5477 -1.5900 0.8856
-45.1355 1.3465 -2.3665 0.8345
-44.6762 -4.0686 -2.3511 0.8355
-45.1235 -15.5620 -2.5015 0.8260
-22.3687 -23.7182 -1.7086 0.8776
-16.4896 -22.3575 -1.4559 0.8947
-12.6812 -22.4157 -1.3497 0.9020
-7.2476 -25.8296 -1.4059 0.8981
-5.4261 -35.2074 -1.8669 0.8670
15.4515 -45.1614 -2.5015 0.8260
18.0591 -37.3571 -2.1746 0.8469
24.2258 -37.7175 -2.3493 0.8356
26.4460 -31.9398 -2.1732 0.8470
34.8524 -25.8373 -2.2737 0.8405
45.9250 -13.0075 -2.5015 0.8260
47.1567 -7.3859 -2.5015 0.8260
47.7028 -1.6570 -2.5015 0.8260
44.6621 3.8469 -2.3493 0.8356
21.5886 13.7917 -1.3426 0.9025
5.3828 5.6519 -0.4090 0.9692
4.2168 5.6591 -0.3699 0.9721
2.3913 5.6703 -0.3225 0.9757
1.6224 5.6750 -0.3093 0.9766
0.9038 5.6794 -0.3014 0.9772
0.2114 5.6837 -0.2981 0.9775
-1.1676 5.6408 -0.3019 0.9772
-1.9004 5.6446 -0.3121 0.9764
-2.6772 5.6079 -0.3257 0.9754
-5.9783 5.7217 -0.4337 0.9674
-7.6534 5.7320 -0.5011 0.9624
-9.8559 5.6717 -0.5959 0.9555
-20.0226 5.7771 -1.0921 0.9199
-45.1446 1.7896 -2.3678 0.8345
-36.9873 -30.1703 -2.5015 0.8260
-23.3474 -24.2753 -1.7651 0.8738
-16.8211 -22.3455 -1.4658 0.8940
-5.6098 -34.1731 -1.8149 0.8705
3.7468 -47.5843 -2.5015 0.8260
9.4463 -46.7875 -2.5015 0.8260
17.1342 -36.3478 -2.1059 0.8513
23.8553 -37.9529 -2.3493 0.8356
24.7655 -30.5136 -2.0596 0.8544
28.0986 -27.1573 -2.0480 0.8551
38.7434 -22.5487 -2.3493 0.8356
45.7955 -13.4565 -2.5015 0.8260
47.6843 -2.1240 -2.5015 0.8260
44.0328 8.7780 -2.3531 0.8354
21.5226 10.0813 -1.2456 0.9092
7.4865 6.0458 -0.5043 0.9622
5.4887 5.6512 -0.4129 0.9689
3.3154 5.6646 -0.3440 0.9741
1.6825 5.6746 -0.3102 0.9766
0.2671 5.6833 -0.2982 0.9775
-0.4184 5.6680 -0.2979 0.9775
-1.8390 5.6443 -0.3111 0.9765
-2.6115 5.6111 -0.3244 0.9755
-4.5908 5.7132 -0.3841 0.9711
-5.8616 5.7210 -0.4293 0.9677
-7.4980 5.7311 -0.4946 0.9629
-4.7067 2.7703 -0.2862 0.9784
-13.2185 5.7662 -0.7558 0.9439
-19.4014 5.8042 -1.0613 0.9221
-29.9917 5.1499 -1.5948 0.8852
-41.5635 2.0554 -2.1809 0.8465
-45.4196 -14.6754 -2.5015 0.8260
-43.3233 -20.0350 -2.5015 0.8260
-37.2810 -29.8066 -2.5015 0.8260
-13.0983 -22.1303 -1.3477 0.9021
-2.4685 -47.5595 -2.4958 0.8263
23.4825 -38.1847 -2.3493 0.8356
27.7006 -27.3024 -2.0383 0.8557
38.5208 -22.9270 -2.3493 0.8356
45.6615 -13.9044 -2.5015 0.8260
47.0030 -8.3079 -2.5015 0.8260
44.7288 2.9715 -2.3493 0.8356
21.4737 6.8224 -1.1808 0.9137
21.5184 9.8236 -1.2397 0.9096
21.5773 13.1967 -1.3255 0.9037
7.5412 5.9690 -0.5040 0.9622
3.3900 5.6641 -0.3459 0.9739
0.3229 5.6830 -0.2983 0.9775
-0.3628 5.6706 -0.2978 0.9775
-2.5464 5.6143 -0.3231 0.9756
-4.4990 5.7126 -0.3811 0.9713
-5.7472 5.7203 -0.4250 0.9680
-7.3466 5.7301 -0.4883 0.9634
-12.8684 5.7641 -0.7390 0.9451
-18.7176 5.8000 -1.0270 0.9245
-45.4816 -14.2051 -2.4971 0.8263
-43.5173 -19.6098 -2.5015 0.8260
-13.3315 -22.0290 -1.3494 0.9020
-7.8446 -25.0984 -1.3781 0.9000
-5.7293 -31.0804 -1.6563 0.8811
-2.7618 -44.7423 -2.3493 0.8356
8.5284 -46.9635 -2.5015 0.8260
18.3165 -40.9146 -2.3493 0.8356
27.2223 -27.3617 -2.0228 0.8568
29.7800 -18.1219 -1.8270 0.8697
33.6105 -15.2529 -1.9343 0.8626
46.9194 -8.7678 -2.5015 0.8260
44.7558 2.5334 -2.3493 0.8356
44.1352 7.9031 -2.3498 0.8356
21.4706 6.5906 -1.1770 0.9140
21.5536 9.5858 -1.2363 0.9098
7.5960 5.8923 -0.5038 0.9622
4.4799 5.6574 -0.3782 0.9715
3.4655 5.6637 -0.3480 0.9738
2.5895 5.6691 -0.3266 0.9753
1.0755 5.6784 -0.3029 0.9771
-1.7173 5.6437 -0.3092 0.9766
-2.4818 5.6174 -0.3218 0.9757
-3.3294 5.5965 -0.3413 0.9743
-5.6350 5.7196 -0.4208 0.9684
-7.1989 5.7292 -0.4822 0.9638
-4.6578 2.8658 -0.2866 0.9783
-12.5333 5.7620 -0.7229 0.9462
-18.0769 5.7961 -0.9949 0.9268
-27.4930 5.2770 -1.4671 0.8939
-44.1638 -7.6852 -2.3493 0.8356
-45.1935 -13.6309 -2.4739 0.8277
-43.7073 -19.1828 -2.5015 0.8260
-37.8575 -29.0709 -2.5015 0.8260
-27.3655 -26.8294 -2.0084 0.8577
-18.1200 -22.6543 -1.5203 0.8903
-13.6072 -21.9955 -1.3555 0.9016
-7.9957 -24.7289 -1.3620 0.9011
2.3476 -47.6738 -2.5015 0.8260
26.4297 -34.5929 -2.2815 0.8400
33.8268 -27.1925 -2.2746 0.8404
38.0644 -23.6770 -2.3493 0.8356
46.8313 -9.2268 -2.5015 0.8260
44.2008 7.4689 -2.3493 0.8356
7.6506 5.8156 -0.5036 0.9622
5.8188 5.6492 -0.4250 0.9680
4.5702 5.6569 -0.3811 0.9713
2.6567 5.6686 -0.3281 0.9752
1.8652 5.6735 -0.3130 0.9764
0.4346 5.6823 -0.2987 0.9774
-0.2516 5.6758 -0.2977 0.9775
-0.9394 5.6435 -0.2998 0.9773
-1.6570 5.6434 -0.3082 0.9767
-2.4177 5.6205 -0.3207 0.9758
-3.2555 5.5963 -0.3393 0.9744
-4.3196 5.7115 -0.3753 0.9717
-5.5251 5.7189 -0.4167 0.9687
-7.0549 5.7283 -0.4763 0.9643
-45.1337 3.5631 -2.3727 0.8341
-44.2369 -7.2525 -2.3493 0.8356
-41.3170 -23.9000 -2.5015 0.8260
-32.3156 -31.0677 -2.3493 0.8356
-18.4030 -22.5519 -1.5255 0.8899
-13.9377 -22.0443 -1.3668 0.9008
-6.1140 -29.8734 -1.5980 0.8850
-3.3812 -41.5315 -2.1838 0.8463
7.6070 -47.1215 -2.5015 0.8260
16.7835 -39.5492 -2.2516 0.8419
26.4254 -35.2984 -2.3109 0.8381
26.6806 -27.8888 -2.0227 0.8568
37.8308 -24.0486 -2.3493 0.8356
45.2334 -15.2396 -2.5015 0.8260
46.7387 -9.6849 -2.5015 0.8260
44.7968 1.6565 -2.3493 0.8356
22.6775 9.5582 -1.2897 0.9061
22.7045 12.9855 -1.3708 0.9005
1.9268 5.6731 -0.3140 0.9763
0.4906 5.6820 -0.2989 0.9774
-0.1961 5.6784 -0.2978 0.9775
-0.8831 5.6462 -0.2995 0.9774
-1.5970 5.6431 -0.3074 0.9768
-2.3541 5.6236 -0.3195 0.9759
-3.1825 5.5961 -0.3374 0.9745
-5.4172 5.7183 -0.4128 0.9689
-6.9144 5.7275 -0.4705 0.9647
-8.8557 5.6905 -0.5517 0.9587
-11.5828 5.6023 -0.6743 0.9498
-16.9083 5.7889 -0.9366 0.9309
-45.1185 4.0068 -2.3739 0.8341
-41.8445 -1.3422 -2.1941 0.8456
-44.3058 -6.8189 -2.3493 0.8356
-43.8330 -12.2895 -2.3858 0.8333
-41.5491 -23.4943 -2.5015 0.8260
-18.9747 -22.7931 -1.5543 0.8880
-14.1693 -21.9322 -1.3684 0.9007
-11.2758 -23.1680 -1.3504 0.9019
-6.2636 -29.1484 -1.5625 0.8874
1.4135 -47.7107 -2.5015 0.8260
12.7730 -45.9908 -2.5015 0.8260
21.9693 -39.0749 -2.3493 0.8356
26.6102 -28.3661 -2.0383 0.8557
33.3878 -16.3511 -1.9483 0.8616
43.6800 -15.1941 -2.4237 0.8309
46.6416 -10.1421 -2.5015 0.8260
47.5232 -4.4550 -2.5015 0.8260
47.6605 1.2952 -2.4987 0.8262
42.2697 6.2939 -2.2397 0.8427
19.5793 5.3862 -1.0642 0.9219
21.5271 8.8261 -1.2193 0.9110
6.0500 5.6478 -0.4338 0.9674
3.6975 5.6622 -0.3544 0.9733
1.2491 5.6773 -0.3047 0.9770
0.5467 5.6816 -0.2991 0.9774
-0.1405 5.6810 -0.2978 0.9775
-0.8270 5.6488 -0.2992 0.9774
-1.5374 5.6428 -0.3065 0.9768
-3.1103 5.5959 -0.3355 0.9747
21.8700 8.3915 -2.0494 0.9102
4.9778 5.6544 -0.6591 0.9702
2.1344 5.6718 -0.5302 0.9760
1.3848 5.6765 -0.5112 0.9768
0.6772 5.6808 -0.5005 0.9773
-0.0114 5.6821 -0.4971 0.9774
-0.6970 5.6549 -0.4985 0.9774
-1.3970 5.6285 -0.5074 0.9770
-2.1406 5.6199 -0.5261 0.9761
-2.9377 5.5804 -0.5517 0.9750
-5.0730 5.7161 -0.6686 0.9698
-8.2912 5.7170 -0.8811 0.9604
-10.6689 5.5953 -1.0540 0.9528
-15.2424 5.7787 -1.4262 0.9366
-26.6560 3.2437 -2.3493 0.8978
-26.8527 0.0120 -2.3493 0.8978
-28.3860 -3.4284 -2.5015 0.8915
-27.7671 -6.8197 -2.5015 0.8915
-26.7445 -10.1119 -2.5015 0.8915
-12.4621 -17.9791 -1.9139 0.9159
-11.8766 -22.5117 -2.2268 0.9028
-6.4920 -26.0561 -2.3493 0.8978
-0.0828 -28.5922 -2.5015 0.8915
6.7517 -27.7837 -2.5015 0.8915
10.0464 -26.7692 -2.5015 0.8915
16.1519 -23.5932 -2.5015 0.8915
17.9863 -20.4678 -2.3839 0.8964
20.3998 -18.2267 -2.3934 0.8960
25.2560 -13.4036 -2.5015 0.8915
26.6855 -10.2667 -2.5015 0.8915
27.7271 -6.9804 -2.5015 0.8915
28.5919 -0.1528 -2.5015 0.8915
22.7134 2.6305 -2.0004 0.9123
21.9377 11.3437 -2.1607 0.9056
15.7647 22.5077 -2.4041 0.8955
3.0250 5.6664 -0.5620 0.9745
2.1979 5.6715 -0.5321 0.9759
1.4438 5.6761 -0.5124 0.9768
0.2159 27.7019 -2.4237 0.8947
-0.6412 5.6575 -0.4981 0.9774
-1.3386 5.6282 -0.5061 0.9770
-3.7706 5.5659 -0.5882 0.9734
-4.9732 5.7155 -0.6628 0.9700
-10.4471 5.6101 -1.0374 0.9535
-14.7965 5.7759 -1.3897 0.9382
-21.4247 5.5054 -1.9353 0.9150
-26.6230 3.5045 -2.3493 0.8978
-26.8423 -9.8495 -2.5015 0.8915
-25.4618 -13.0084 -2.5015 0.8915
-18.0377 -19.8924 -2.3493 0.8978
-15.5126 -21.9186 -2.3493 0.8978
-9.3732 -23.8394 -2.2411 0.9023
-6.7468 -25.9913 -2.3493 0.8978
3.0807 -28.4259 -2.5015 0.8915
6.4793 -27.8485 -2.5015 0.8915
9.7838 -26.8663 -2.5015 0.8915
12.9460 -25.4936 -2.5015 0.8915
15.9201 -23.7502 -2.5015 0.8915
17.8314 -20.6967 -2.3901 0.8961
20.1640 -18.3742 -2.3867 0.8962
23.2981 -16.5747 -2.5015 0.8915
25.1235 -13.6503 -2.5015 0.8915
26.5837 -10.5275 -2.5015 0.8915
27.6575 -7.2516 -2.5015 0.8915
28.3292 -3.8703 -2.5015 0.8915
21.8599 7.9001 -2.0336 0.9109
5.1768 5.6532 -0.6706 0.9697
4.0270 5.6313 -0.6057 0.9726
3.0964 5.6659 -0.5649 0.9744
1.5030 5.6757 -0.5137 0.9767
0.7902 5.6801 -0.5017 0.9772
-1.2804 5.6279 -0.5050 0.9771
-2.0176 5.6260 -0.5229 0.9763
-2.8029 5.5871 -0.5469 0.9752
-3.6916 5.5660 -0.5843 0.9735
-10.2320 5.6244 -1.0215 0.9542
-14.3727 5.7733 -1.3551 0.9397
-26.8473 0.5379 -2.3493 0.8978
-25.5879 -12.7585 -2.5015 0.8915
-15.7265 -21.7657 -2.3493 0.8978
-12.3171 -22.2781 -2.2271 0.9028
-9.5960 -23.7212 -2.2387 0.9024
-3.8301 -26.5781 -2.3493 0.8978
2.8022 -28.4547 -2.5015 0.8915
6.2063 -27.9106 -2.5015 0.8915
17.6857 -20.9387 -2.3979 0.8958
24.9887 -13.8956 -2.5015 0.8915
26.4794 -10.7872 -2.5015 0.8915
27.5851 -7.5220 -2.5015 0.8915
28.2899 -4.1475 -2.5015 0.8915
28.5834 -0.7127 -2.5015 0.8915
26.7298 2.5662 -2.3493 0.8978
21.8551 7.6572 -2.0260 0.9112
21.9243 10.7980 -2.1381 0.9065
5.2789 5.6525 -0.6767 0.9694
4.1316 5.6596 -0.6131 0.9723
3.1686 5.6655 -0.5679 0.9743
1.5625 5.6754 -0.5150 0.9766
0.1555 5.6795 -0.4971 0.9774
-0.5297 5.6628 -0.4976 0.9774
-26.8407 0.8007 -2.3493 0.8978
-28.4263 -2.5888 -2.4973 0.8917
-27.9555 -6.0012 -2.5015 0.8915
-27.0300 -9.3220 -2.5015 0.8915
-24.0195 -15.5108 -2.5015 0.8915
-21.9782 -18.2888 -2.5015 0.8915
-18.4238 -19.5353 -2.3493 0.8978
-9.8183 -23.6033 -2.2366 0.9024
-7.1518 -25.4882 -2.3160 0.8992
-4.0902 -26.5393 -2.3493 0.8978
2.5234 -28.4808 -2.5015 0.8915
9.2558 -27.0528 -2.5015 0.8915
15.4519 -24.0574 -2.5015 0.8915
19.7063 -18.6764 -2.3754 0.8967
22.9542 -17.0167 -2.4999 0.8916
24.8514 -14.1396 -2.5015 0.8915
26.3725 -11.0460 -2.5015 0.8915
28.2479 -4.4243 -2.5015 0.8915
28.5751 -0.9926 -2.5015 0.8915
26.2818 5.5074 -2.3493 0.8978
21.8504 7.4162 -2.0188 0.9115
9.0313 5.7696 -0.9376 0.9579
5.3828 5.6519 -0.6829 0.9691
2.3913 5.6703 -0.5384 0.9756
1.6224 5.6750 -0.5164 0.9766
0.9038 5.6794 -0.5031 0.9772
-1.1660 5.6329 -0.5033 0.9772
-1.8957 5.6307 -0.5198 0.9764
-5.9783 5.7217 -0.7240 0.9673
-7.6534 5.7320 -0.8366 0.9623
-9.8136 5.6474 -0.9906 0.9556
-7.1374 3.0306 -0.6786 0.9693
-19.9678 5.7613 -1.8182 0.9199
-26.5086 4.2850 -2.3493 0.8978
-26.8316 1.0636 -2.3493 0.8978
-28.0129 -5.7272 -2.5015 0.8915
-27.1200 -9.0569 -2.5015 0.8915
-25.8329 -12.2549 -2.5015 0.8915
-18.6142 -19.3540 -2.3493 0.8978
-1.2024 -28.5670 -2.5015 0.8915
5.6585 -28.0268 -2.5015 0.8915
8.9905 -27.1421 -2.5015 0.8915
12.1916 -25.8628 -2.5015 0.8915
15.2156 -24.2075 -2.5015 0.8915
19.4978 -18.8447 -2.3724 0.8968
28.2033 -4.7007 -2.5015 0.8915
21.8458 7.1768 -2.0118 0.9118
21.9775 13.7390 -2.2676 0.9012
7.4865 6.0458 -0.8419 0.9621
3.3154 5.6646 -0.5742 0.9740
2.4568 5.6699 -0.5406 0.9755
1.6825 5.6746 -0.5178 0.9765
0.9608 5.6791 -0.5039 0.9771
-0.4184 5.6680 -0.4972 0.9774
-1.1091 5.6356 -0.5025 0.9772
-1.8345 5.6305 -0.5181 0.9765
-3.4606 5.5660 -0.5734 0.9740
-4.5908 5.7132 -0.6412 0.9710
-5.8616 5.7210 -0.7166 0.9676
-7.4980 5.7311 -0.8257 0.9628
-4.7067 2.7703 -0.4778 0.9783
-13.2186 5.7662 -1.2617 0.9437
-19.4014 5.8042 -1.7717 0.9219
-27.4450 -1.9584 -2.4072 0.8954
-22.3322 -17.8549 -2.5015 0.8915
-18.8028 -19.1708 -2.3493 0.8978
-8.3467 -19.0070 -1.8162 0.9200
-1.4821 -28.5539 -2.5015 0.8915
1.9652 -28.5247 -2.5015 0.8915
14.9779 -24.3554 -2.5015 0.8915
17.2731 -21.7132 -2.4274 0.8946
24.5697 -14.6236 -2.5015 0.8915
27.3523 -8.3291 -2.5015 0.8915
28.5502 -1.5519 -2.5015 0.8915
26.3846 4.9917 -2.3493 0.8978
12.3300 5.6289 -1.1858 0.9470
4.3908 5.6580 -0.6266 0.9717
3.3900 5.6641 -0.5775 0.9738
0.3229 5.6830 -0.4980 0.9774
-0.3628 5.6706 -0.4971 0.9774
-2.5401 5.6002 -0.5380 0.9756
-5.7472 5.7203 -0.7094 0.9680
-7.3466 5.7301 -0.8151 0.9633
-4.6677 2.8092 -0.4766 0.9784
-12.8684 5.7641 -1.2336 0.9450
-18.7176 5.8000 -1.7144 0.9243
-26.4196 4.8033 -2.3493 0.8978
-26.8056 1.5887 -2.3493 0.8978
-28.1197 -5.1775 -2.5015 0.8915
-22.5059 -17.6353 -2.5015 0.8915
-19.0653 -19.0614 -2.3587 0.8974
-16.5667 -21.1332 -2.3493 0.8978
-10.4830 -23.2508 -2.2314 0.9027
-7.7244 -24.7139 -2.2653 0.9013
-4.8680 -26.4077 -2.3493 0.8978
5.1087 -28.1322 -2.5015 0.8915
17.1461 -21.9922 -2.4397 0.8941
24.4254 -14.8634 -2.5015 0.8915
28.5336 -1.8314 -2.5015 0.8915
28.0254 1.5864 -2.4558 0.8934
12.6465 5.6244 -1.2109 0.9459
21.9738 13.1453 -2.2402 0.9023
7.5960 5.8923 -0.8411 0.9621
5.7067 5.6499 -0.7026 0.9683
3.4655 5.6637 -0.5809 0.9737
2.5895 5.6691 -0.5453 0.9753
1.8039 5.6739 -0.5209 0.9764
-2.4756 5.6034 -0.5359 0.9757
-3.3113 5.5660 -0.5666 0.9743
-4.4086 5.7121 -0.6313 0.9714
-5.6350 5.7196 -0.7025 0.9683
-7.1989 5.7292 -0.8049 0.9637
-4.6577 2.8657 -0.4785 0.9783
-18.0769 5.7961 -1.6608 0.9266
-26.7888 1.8511 -2.3493 0.8978
-26.8169 -1.3863 -2.3493 0.8978
-27.3743 -8.2564 -2.5015 0.8915
-26.1817 -11.4909 -2.5015 0.8915
-22.6775 -17.4141 -2.5015 0.8915
-19.6368 -19.2520 -2.4059 0.8955
-16.7728 -20.9700 -2.3493 0.8978
-10.7040 -23.1336 -2.2301 0.9027
1.4062 -28.5577 -2.5015 0.8915
4.8330 -28.1809 -2.5015 0.8915
11.4267 -26.2098 -2.5015 0.8915
14.4981 -24.6440 -2.5015 0.8915
17.0326 -22.2934 -2.4545 0.8935
18.9024 -19.3750 -2.3682 0.8970
21.8887 -17.5958 -2.4571 0.8934
25.9197 -12.0703 -2.5015 0.8915
28.5143 -2.1107 -2.5015 0.8915
12.9864 5.6240 -1.2381 0.9448
5.8188 5.6492 -0.7095 0.9680
0.4346 5.6823 -0.4986 0.9774
-0.2516 5.6758 -0.4971 0.9774
-0.9394 5.6435 -0.5005 0.9773
-1.6530 5.6297 -0.5133 0.9767
-3.2379 5.5660 -0.5634 0.9745
-4.3196 5.7115 -0.6265 0.9717
-5.5251 5.7189 -0.6957 0.9686
-9.0358 5.6821 -0.9338 0.9580
-11.6425 5.4912 -1.1262 0.9496
-26.8292 -1.1236 -2.3493 0.8978
-26.2929 -11.2340 -2.5015 0.8915
-24.7499 -14.3166 -2.5015 0.8915
-22.8469 -17.1912 -2.5015 0.8915
-20.2408 -19.4591 -2.4565 0.8934
-16.9773 -20.8047 -2.3493 0.8978
-13.8407 -21.8909 -2.2659 0.9012
-10.9247 -23.0166 -2.2290 0.9028
-8.1785 -24.4730 -2.2575 0.9016
-5.3842 -26.3074 -2.3493 0.8978
1.1265 -28.5701 -2.5015 0.8915
4.5568 -28.2269 -2.5015 0.8915
7.9207 -27.4733 -2.5015 0.8915
11.1695 -26.3204 -2.5015 0.8915
18.7143 -19.5617 -2.3685 0.8970
21.5744 -17.6937 -2.4411 0.8940
24.1296 -15.3389 -2.5015 0.8915
27.0958 -9.1288 -2.5015 0.8915
27.9976 -5.8015 -2.5015 0.8915
26.5199 4.2146 -2.3493 0.8978
22.7045 12.9855 -2.2883 0.9003
7.7053 5.7390 -0.8406 0.9622
5.9333 5.6485 -0.7167 0.9676
4.6621 5.6563 -0.6413 0.9710
3.6192 5.6627 -0.5880 0.9734
2.7245 5.6682 -0.5502 0.9751
0.4906 5.6820 -0.4990 0.9774
-0.8831 5.6462 -0.5000 0.9773
-1.5932 5.6294 -0.5119 0.9768
-2.3482 5.6097 -0.5320 0.9759
-4.2319 5.7110 -0.6219 0.9719
-5.4172 5.7183 -0.6891 0.9689
-8.8557 5.6905 -0.9209 0.9586
-11.4590 5.5425 -1.1136 0.9502
-16.9083 5.7889 -1.5636 0.9308
-26.7474 2.3754 -2.3493 0.8978
-26.8389 -0.8609 -2.3493 0.8978
-26.4017 -10.9760 -2.5015 0.8915
-24.8888 -14.0736 -2.5015 0.8915
-23.0142 -16.9667 -2.5015 0.8915
-20.7538 -19.5650 -2.4954 0.8918
-17.1802 -20.6375 -2.3493 0.8978
-14.1694 -21.9323 -2.2844 0.9005
-11.1452 -22.8996 -2.2281 0.9028
-5.6415 -26.2534 -2.3493 0.8978
-2.4409 -26.7415 -2.3493 0.8978
0.8467 -28.5798 -2.5015 0.8915
7.6513 -27.5496 -2.5015 0.8915
14.0127 -24.9232 -2.5015 0.8915
18.5373 -19.7605 -2.3705 0.8969
21.2820 -17.8053 -2.4276 0.8946
23.9783 -15.5745 -2.5015 0.8915
25.6783 -12.5755 -2.5015 0.8915
27.0052 -9.3937 -2.5015 0.8915
27.9394 -6.0754 -2.5015 0.8915
28.4675 -2.6687 -2.5015 0.8915
28.5818 0.7767 -2.5015 0.8915
23.2236 12.9823 -2.3277 0.8987
6.0500 5.6478 -0.7241 0.9673
3.6975 5.6622 -0.5917 0.9732
2.7929 5.6678 -0.5528 0.9749
-0.1405 5.6810 -0.4972 0.9774
-1.5337 5.6291 -0.5104 0.9768
-2.2852 5.6128 -0.5302 0.9760
-5.3113 5.7176 -0.6828 0.9692
-6.7771 5.7266 -0.7763 0.9650
-8.6804 5.6987 -0.9085 0.9592
8.4984 5.9101 -1.2710 0.9591
6.3306 5.6461 -1.0415 0.9664
4.9778 5.6544 -0.9250 0.9701
2.9543 5.6668 -0.7847 0.9746
0.6772 5.6808 -0.7025 0.9772
-0.6970 5.6549 -0.6996 0.9773
-2.1353 5.6061 -0.7366 0.9761
-2.9301 5.5660 -0.7723 0.9750
-6.4708 5.7247 -1.0608 0.9658
-15.2424 5.7787 -2.0015 0.9364
-18.5772 4.5803 -2.3493 0.9258
-20.3410 0.0091 -2.4976 0.9213
-19.7851 -4.8593 -2.5015 0.9212
-19.0565 -7.2051 -2.5015 0.9212
-16.7828 -11.5500 -2.5015 0.9212
-13.5368 -15.2256 -2.5015 0.9212
-9.4389 -17.8911 -2.4837 0.9217
-7.1823 -18.8058 -2.4717 0.9221
-4.9255 -19.7688 -2.5015 0.9212
2.3933 -20.2321 -2.5015 0.9212
4.8108 -19.7970 -2.5015 0.9212
7.1584 -19.0741 -2.5015 0.9212
11.5088 -16.8110 -2.5015 0.9212
13.4484 -15.3038 -2.5015 0.9212
16.7156 -11.6470 -2.5015 0.9212
17.9959 -9.5506 -2.5015 0.9212
19.0145 -7.3154 -2.5015 0.9212
19.7567 -4.9738 -2.5015 0.9212
17.0238 8.8028 -2.3532 0.9257
5.0764 5.6538 -0.9330 0.9698
3.0250 5.6664 -0.7887 0.9744
-0.6412 5.6575 -0.6991 0.9773
-1.3378 5.6248 -0.7099 0.9770
-2.8627 5.5695 -0.7689 0.9751
-3.7492 5.5345 -0.8208 0.9734
-6.3436 5.7240 -1.0491 0.9662
-14.7965 5.7759 -1.9503 0.9380
-18.9699 2.4971 -2.3493 0.9258
-20.2491 -2.2447 -2.5015 0.9212
-19.8318 -4.6653 -2.5015 0.9212
-19.1262 -7.0182 -2.5015 0.9212
-18.1425 -9.2690 -2.5015 0.9212
-16.8951 -11.3851 -2.5015 0.9212
-15.4021 -13.3356 -2.5015 0.9212
-11.7694 -16.6297 -2.5015 0.9212
-9.6359 -17.8390 -2.4895 0.9215
-5.1187 -19.7191 -2.5014 0.9212
-2.7083 -20.1923 -2.5015 0.9212
11.3437 -16.9229 -2.5015 0.9212
13.2979 -15.4347 -2.5015 0.9212
15.0588 -13.7221 -2.5015 0.9212
16.6008 -11.8101 -2.5015 0.9212
18.9419 -7.5012 -2.5015 0.9212
19.7070 -5.1670 -2.5015 0.9212
20.3708 -0.3084 -2.5015 0.9212
18.6464 4.2902 -2.3493 0.9258
6.5437 5.6099 -1.0583 0.9659
5.1768 5.6532 -0.9412 0.9696
3.0964 5.6659 -0.7928 0.9743
2.2619 5.6711 -0.7497 0.9757
1.5030 5.6757 -0.7209 0.9766
0.0996 5.6616 -0.6953 0.9774
-1.2803 5.6275 -0.7086 0.9770
-2.0127 5.6122 -0.7321 0.9763
-3.6709 5.5347 -0.8155 0.9736
-4.8752 5.7149 -0.9223 0.9702
-6.2193 5.7232 -1.0378 0.9665
-7.9281 5.6989 -1.1988 0.9614
-14.3727 5.7733 -1.9018 0.9395
-19.6956 0.3946 -2.4188 0.9237
-18.2324 -9.0909 -2.5015 0.9212
-17.0058 -11.2191 -2.5015 0.9212
-15.5320 -13.1842 -2.5015 0.9212
-5.3087 -19.6576 -2.5001 0.9212
-2.9059 -20.1648 -2.5015 0.9212
-0.4580 -20.3679 -2.5015 0.9212
6.7835 -19.2106 -2.5015 0.9212
9.0462 -18.2546 -2.5015 0.9212
17.8054 -9.9012 -2.5015 0.9212
18.8676 -7.6863 -2.5015 0.9212
19.6555 -5.3597 -2.5015 0.9212
20.3668 -0.5078 -2.5015 0.9212
18.6875 4.1074 -2.3493 0.9258
18.0573 6.3266 -2.3493 0.9258
17.1836 8.4632 -2.3519 0.9257
7.3767 6.1997 -1.1831 0.9619
3.1686 5.6655 -0.7970 0.9742
1.5625 5.6754 -0.7228 0.9766
-0.5297 5.6628 -0.6983 0.9773
-1.2231 5.6302 -0.7074 0.9770
-1.9520 5.6153 -0.7299 0.9763
-2.7294 5.5762 -0.7623 0.9753
-3.5935 5.5349 -0.8103 0.9738
-4.7788 5.7143 -0.9146 0.9704
-6.0975 5.7225 -1.0267 0.9669
-15.5235 11.3907 -2.3641 0.9253
-18.9174 2.8681 -2.3493 0.9258
-20.2892 -1.8477 -2.5015 0.9212
-19.9193 -4.2761 -2.5015 0.9212
-15.6603 -13.0315 -2.5015 0.9212
-7.7091 -18.5329 -2.4646 0.9223
-5.4980 -19.5945 -2.4988 0.9213
-0.6574 -20.3625 -2.5015 0.9212
1.7980 -20.2936 -2.5015 0.9212
4.2273 -19.9297 -2.5015 0.9212
6.5951 -19.2761 -2.5015 0.9212
8.8670 -18.3423 -2.5015 0.9212
11.0101 -17.1418 -2.5015 0.9212
12.9931 -15.6922 -2.5015 0.9212
17.7076 -10.0750 -2.5015 0.9212
19.6020 -5.5520 -2.5015 0.9212
20.1277 -3.1525 -2.5015 0.9212
18.7268 3.9243 -2.3493 0.9258
8.8377 5.6459 -1.2877 0.9586
7.4316 6.1227 -1.1823 0.9619
5.3828 5.6519 -0.9583 0.9690
4.2168 5.6591 -0.8665 0.9720
2.3913 5.6703 -0.7556 0.9755
-1.8911 5.6168 -0.7277 0.9764
-3.5176 5.5360 -0.8053 0.9739
-4.6840 5.7137 -0.9072 0.9707
-5.9783 5.7217 -1.0161 0.9672
-9.6744 5.5673 -1.3705 0.9560
-18.3836 5.3042 -2.3493 0.9258
-18.8884 3.0532 -2.3493 0.9258
-19.1185 0.7578 -2.3493 0.9258
-19.9602 -4.0808 -2.5015 0.9212
-18.4069 -8.7321 -2.5015 0.9212
-17.2222 -10.8839 -2.5015 0.9212
-15.7872 -12.8775 -2.5015 0.9212
-7.8889 -18.4534 -2.4642 0.9223
-5.6870 -19.5308 -2.4977 0.9213
-3.3002 -20.1041 -2.5015 0.9212
4.0319 -19.9702 -2.5015 0.9212
6.4060 -19.3398 -2.5015 0.9212
8.6870 -18.4283 -2.5015 0.9212
10.8417 -17.2488 -2.5015 0.9212
12.8388 -15.8187 -2.5015 0.9212
16.2467 -12.2926 -2.5015 0.9212
17.6081 -10.2479 -2.5015 0.9212
18.7134 -8.0543 -2.5015 0.9212
20.0959 -3.3495 -2.5015 0.9212
20.3529 -0.9066 -2.5015 0.9212
20.2569 1.5451 -2.4945 0.9214
18.7643 3.7407 -2.3493 0.9258
18.1777 5.9718 -2.3493 0.9258
17.3367 8.1206 -2.3506 0.9257
7.4865 6.0458 -1.1815 0.9620
5.4887 5.6512 -0.9673 0.9688
4.3032 5.6585 -0.8729 0.9718
0.2671 5.6833 -0.6986 0.9773
-1.1091 5.6356 -0.7052 0.9771
-1.8300 5.6166 -0.7253 0.9765
-2.5984 5.5829 -0.7561 0.9755
-3.4443 5.5397 -0.8009 0.9741
-4.5908 5.7132 -0.8999 0.9709
-4.7066 2.7702 -0.6706 0.9782
-13.2185 5.7662 -1.7707 0.9435
-18.3308 5.4839 -2.3493 0.9258
-18.8576 3.2380 -2.3493 0.9258
-19.1102 0.9450 -2.3493 0.9258
-18.4915 -8.5515 -2.5015 0.9212
-15.9125 -12.7223 -2.5015 0.9212
-12.4116 -16.1560 -2.5015 0.9212
-8.0686 -18.3739 -2.4640 0.9223
-5.8754 -19.4656 -2.4966 0.9213
-3.4969 -20.0708 -2.5015 0.9212
-1.0560 -20.3457 -2.5015 0.9212
6.2163 -19.4016 -2.5015 0.9212
10.6723 -17.3542 -2.5015 0.9212
18.6337 -8.2371 -2.5015 0.9212
20.0621 -3.5461 -2.5015 0.9212
18.8001 3.5568 -2.3493 0.9258
18.2354 5.7935 -2.3493 0.9258
17.4106 7.9484 -2.3500 0.9258
9.2420 5.6524 -1.3302 0.9573
7.5412 5.9690 -1.1809 0.9620
2.5228 5.6695 -0.7619 0.9753
1.7430 5.6743 -0.7288 0.9764
1.0181 5.6787 -0.7084 0.9770
0.3229 5.6830 -0.6989 0.9773
-1.0524 5.6382 -0.7042 0.9772
-1.7692 5.6164 -0.7230 0.9765
-2.5337 5.5861 -0.7531 0.9756
-3.3718 5.5435 -0.7967 0.9742
-5.7472 5.7203 -0.9956 0.9678
-7.3466 5.7301 -1.1440 0.9631
-18.2762 5.6632 -2.3493 0.9258
-19.1000 1.1320 -2.3493 0.9258
-20.3347 -1.2509 -2.5015 0.9212
-20.0363 -3.6892 -2.5015 0.9212
-19.4467 -6.0738 -2.5015 0.9212
-17.4321 -10.5445 -2.5015 0.9212
-12.5691 -16.0338 -2.5015 0.9212
-6.0633 -19.3994 -2.4956 0.9214
1.2012 -20.3377 -2.5015 0.9212
3.6401 -20.0453 -2.5015 0.9212
8.3245 -18.5948 -2.5015 0.9212
12.5266 -16.0670 -2.5015 0.9212
14.3692 -14.4427 -2.5015 0.9212
16.0029 -12.6084 -2.5015 0.9212
18.5521 -8.4192 -2.5015 0.9212
19.4305 -6.1253 -2.5015 0.9212
18.8340 3.3725 -2.3493 0.9258
18.2912 5.6147 -2.3493 0.9258
17.4828 7.7754 -2.3493 0.9258
7.5960 5.8923 -1.1804 0.9620
5.7067 5.6499 -0.9860 0.9682
3.4655 5.6637 -0.8153 0.9736
-0.3072 5.6732 -0.6976 0.9774
-0.9959 5.6409 -0.7033 0.9772
-1.7089 5.6162 -0.7208 0.9766
-7.1989 5.7292 -1.1297 0.9636
-11.4729 5.2745 -1.5504 0.9504
-18.7906 3.6067 -2.3493 0.9258
-19.0880 1.3190 -2.3493 0.9258
-20.3460 -1.0518 -2.5015 0.9212
-18.6555 -8.1877 -2.5015 0.9212
-14.5478 -14.2627 -2.5015 0.9212
-12.7255 -15.9099 -2.5015 0.9212
-10.7086 -17.3101 -2.4992 0.9212
-8.4306 -18.2204 -2.4651 0.9223
-6.2508 -19.3323 -2.4947 0.9214
-3.8893 -19.9984 -2.5015 0.9212
1.0020 -20.3485 -2.5015 0.9212
3.4437 -20.0800 -2.5015 0.9212
8.1420 -18.6755 -2.5015 0.9212
10.3304 -17.5598 -2.5015 0.9212
12.3687 -16.1889 -2.5015 0.9212
15.8787 -12.7645 -2.5015 0.9212
17.2995 -10.7607 -2.5015 0.9212
19.9889 -3.9382 -2.5015 0.9212
18.8661 3.1879 -2.3493 0.9258
18.3453 5.4353 -2.3493 0.9258
17.5578 7.6037 -2.3493 0.9258
9.6893 5.6683 -1.3783 0.9558
4.5702 5.6569 -0.8929 0.9711
3.5419 5.6632 -0.8202 0.9734
1.1331 5.6780 -0.7109 0.9769
0.4346 5.6823 -0.6997 0.9773
-0.2516 5.6758 -0.6976 0.9774
-2.4057 5.5926 -0.7475 0.9758
-3.2291 5.5508 -0.7885 0.9745
-4.3196 5.7115 -0.8793 0.9716
-8.9387 5.6209 -1.2965 0.9583
-17.4317 5.7780 -2.2549 0.9287
-19.0742 1.5058 -2.3493 0.9258
-20.1047 -3.2961 -2.5015 0.9212
-19.5619 -5.6918 -2.5015 0.9212
-18.7347 -8.0047 -2.5015 0.9212
-17.6352 -10.2012 -2.5015 0.9212
-16.2793 -12.2495 -2.5015 0.9212
-4.0850 -19.9594 -2.5015 0.9212
3.2469 -20.1127 -2.5015 0.9212
5.6438 -19.5758 -2.5015 0.9212
10.1580 -17.6601 -2.5015 0.9212
12.2096 -16.3092 -2.5015 0.9212
14.0836 -14.7213 -2.5015 0.9212
15.7529 -12.9193 -2.5015 0.9212
19.9493 -4.1338 -2.5015 0.9212
20.3018 -1.7028 -2.5015 0.9212
18.8964 3.0030 -2.3493 0.9258
17.6314 7.4314 -2.3493 0.9258
5.9333 5.6485 -1.0059 0.9675
4.6621 5.6563 -0.9000 0.9709
3.6192 5.6627 -0.8252 0.9733
0.4906 5.6820 -0.7003 0.9773
-0.8831 5.6462 -0.7017 0.9772
-2.3424 5.5957 -0.7448 0.9758
-3.1588 5.5544 -0.7846 0.9746
-4.2319 5.7110 -0.8728 0.9718
-6.9144 5.7275 -1.1024 0.9645
-8.7668 5.6334 -1.2795 0.9589
-16.9083 5.7889 -2.1944 0.9305
-18.7163 3.9740 -2.3493 0.9258
-19.0585 1.6925 -2.3493 0.9258
-20.1361 -3.0991 -2.5015 0.9212
-19.6167 -5.4999 -2.5015 0.9212
-18.8122 -7.8208 -2.5015 0.9212
-17.7343 -10.0280 -2.5015 0.9212
-14.8243 -13.9751 -2.5015 0.9212
-13.0346 -15.6577 -2.5015 0.9212
-11.0556 -17.1125 -2.5015 0.9212
-8.8040 -18.0891 -2.4702 0.9221
-4.2802 -19.9184 -2.5015 0.9212
-1.8519 -20.2888 -2.5015 0.9212
3.0498 -20.1436 -2.5015 0.9212
5.4518 -19.6301 -2.5015 0.9212
12.0493 -16.4280 -2.5015 0.9212
13.9388 -14.8585 -2.5015 0.9212
17.0854 -11.0974 -2.5015 0.9212
18.2968 -8.9606 -2.5015 0.9212
19.2422 -6.6934 -2.5015 0.9212
19.9079 -4.3289 -2.5015 0.9212
20.2842 -1.9015 -2.5015 0.9212
18.9249 2.8179 -2.3493 0.9258
17.7034 7.2584 -2.3493 0.9258
16.7433 9.3598 -2.3552 0.9256
3.6975 5.6622 -0.8303 0.9731
2.7929 5.6678 -0.7758 0.9749
1.9888 5.6727 -0.7381 0.9761
1.2491 5.6773 -0.7138 0.9768
-0.8270 5.6488 -0.7010 0.9773
-4.1455 5.7104 -0.8664 0.9720
-5.3113 5.7176 -0.9582 0.9690
-8.5993 5.6455 -1.2631 0.9594
13.8485 5.3136 -2.3493 0.9417
8.4984 5.9101 -1.6395 0.9589
4.9779 5.6544 -1.1932 0.9700
3.8559 5.6216 -1.0797 0.9728
-0.0114 5.6821 -0.9000 0.9773
-0.6970 5.6549 -0.9024 0.9772
-6.4708 5.7247 -1.3684 0.9656
-8.2348 5.6781 -1.5843 0.9603
-10.3072 5.4056 -1.8434 0.9540
-13.8696 5.2582 -2.3493 0.9417
-14.4017 3.5508 -2.3493 0.9417
-15.7939 0.0071 -2.5015 0.9380
-15.6799 -1.8938 -2.5015 0.9380
-15.3380 -3.7671 -2.5015 0.9380
-6.2812 -2.3749 -1.0636 0.9732
-11.8384 -10.4546 -2.5015 0.9380
-10.4941 -11.8034 -2.5015 0.9380
-8.9973 -12.9805 -2.5015 0.9380
-7.3697 -13.9690 -2.5015 0.9380
-3.8184 -15.3254 -2.5015 0.9380
-1.9462 -15.6735 -2.5015 0.9380
-0.0457 -15.7938 -2.5015 0.9380
3.7295 -15.3472 -2.5015 0.9380
5.5494 -14.7868 -2.5015 0.9380
7.2887 -14.0115 -2.5015 0.9380
8.9220 -13.0324 -2.5015 0.9380
10.4256 -11.8639 -2.5015 0.9380
11.7776 -10.5230 -2.5015 0.9380
12.9585 -9.0291 -2.5015 0.9380
13.9509 -7.4039 -2.5015 0.9380
15.3160 -3.8558 -2.5015 0.9380
15.7936 -0.0844 -2.5015 0.9380
14.4220 3.4673 -2.3493 0.9417
8.5164 5.7998 -1.6319 0.9591
6.8924 9.8405 -1.9029 0.9525
3.0250 5.6664 -1.0173 0.9743
2.1979 5.6715 -0.9634 0.9757
-0.6412 5.6575 -0.9018 0.9772
-1.3378 5.6248 -0.9157 0.9769
-2.0687 5.5954 -0.9448 0.9761
-2.8553 5.5551 -0.9893 0.9750
-3.7243 5.4977 -1.0517 0.9735
-6.3436 5.7240 -1.3533 0.9660
-8.1001 5.7030 -1.5690 0.9607
-10.1245 5.4369 -1.8202 0.9545
-14.3662 3.6916 -2.3493 0.9417
-14.7061 1.9358 -2.3493 0.9417
-15.7930 0.1617 -2.5015 0.9380
-15.6977 -1.7401 -2.5015 0.9380
-15.3742 -3.6167 -2.5015 0.9380
-11.9402 -10.3382 -2.5015 0.9380
-7.5062 -13.8962 -2.5015 0.9380
-5.7792 -14.6985 -2.5015 0.9380
-3.9682 -15.2872 -2.5015 0.9380
-0.2004 -15.7926 -2.5015 0.9380
3.5791 -15.3830 -2.5015 0.9380
5.4044 -14.8405 -2.5015 0.9380
7.1511 -14.0822 -2.5015 0.9380
14.6843 -5.8152 -2.5015 0.9380
15.6485 -2.1379 -2.5015 0.9380
15.7921 -0.2391 -2.5015 0.9380
14.8671 1.5744 -2.3679 0.9412
14.4552 3.3259 -2.3493 0.9417
8.6575 5.7726 -1.6481 0.9587
6.5437 5.6099 -1.3651 0.9657
5.1768 5.6532 -1.2141 0.9694
1.5030 5.6757 -0.9299 0.9765
0.7902 5.6801 -0.9083 0.9770
-6.2193 5.7232 -1.3386 0.9664
-7.9281 5.6989 -1.5464 0.9612
-13.7640 5.5288 -2.3493 0.9417
-14.3293 3.8321 -2.3493 0.9417
-15.7907 0.3163 -2.5015 0.9380
-15.7140 -1.5864 -2.5015 0.9380
-15.4089 -3.4660 -2.5015 0.9380
-13.1834 -8.6974 -2.5015 0.9380
-12.0409 -10.2208 -2.5015 0.9380
-9.2498 -12.8019 -2.5015 0.9380
-7.6419 -13.8220 -2.5015 0.9380
-5.9229 -14.6412 -2.5015 0.9380
-2.2528 -15.6324 -2.5015 0.9380
-0.3550 -15.7899 -2.5015 0.9380
1.5479 -15.7178 -2.5015 0.9380
5.2588 -14.8926 -2.5015 0.9380
7.0129 -14.1515 -2.5015 0.9380
8.6651 -13.2047 -2.5015 0.9380
12.7792 -9.2811 -2.5015 0.9380
14.6267 -5.9587 -2.5015 0.9380
15.2375 -4.1550 -2.5015 0.9380
15.7890 -0.3937 -2.5015 0.9380
13.3066 6.5537 -2.3493 0.9417
5.2789 5.6525 -1.2250 0.9692
3.1686 5.6655 -1.0281 0.9741
-1.2231 5.6302 -0.9125 0.9769
-2.7224 5.5620 -0.9808 0.9752
-3.5782 5.5114 -1.0408 0.9737
-6.0975 5.7225 -1.3244 0.9667
-11.9803 8.7909 -2.3535 0.9416
-7.1235 2.9428 -1.2207 0.9693
-14.2911 3.9722 -2.3493 0.9417
-14.6653 2.2234 -2.3493 0.9417
-15.7869 0.4709 -2.5015 0.9380
-15.7288 -1.4324 -2.5015 0.9380
-12.1404 -10.1024 -2.5015 0.9380
-7.7768 -13.7465 -2.5015 0.9380
-0.5096 -15.7856 -2.5015 0.9380
3.2771 -15.4501 -2.5015 0.9380
6.8740 -14.2195 -2.5015 0.9380
12.6877 -9.4058 -2.5015 0.9380
14.5677 -6.1016 -2.5015 0.9380
15.3797 1.3247 -2.4449 0.9394
14.5176 3.0422 -2.3493 0.9417
13.3701 6.4230 -2.3493 0.9417
7.4316 6.1227 -1.5251 0.9618
3.2416 5.6650 -1.0338 0.9739
1.6224 5.6750 -0.9348 0.9764
0.2114 5.6837 -0.9008 0.9772
-0.4740 5.6654 -0.9004 0.9772
-1.8864 5.6029 -0.9363 0.9763
-3.5051 5.5163 -1.0352 0.9739
-5.9783 5.7217 -1.3107 0.9670
-9.5309 5.4847 -1.7417 0.9564
-15.7815 0.6255 -2.5015 0.9380
-6.9219 -2.3116 -1.1558 0.9709
-6.0200 -2.8558 -1.0553 0.9734
-13.3512 -8.4376 -2.5015 0.9380
-12.2387 -9.9830 -2.5015 0.9380
-10.9483 -11.3834 -2.5015 0.9380
-7.9111 -13.6697 -2.5015 0.9380
-4.4155 -15.1641 -2.5015 0.9380
1.2398 -15.7451 -2.5015 0.9380
3.1257 -15.4815 -2.5015 0.9380
11.3566 -10.9761 -2.5015 0.9380
12.5950 -9.5296 -2.5015 0.9380
13.6503 -7.9445 -2.5015 0.9380
15.7782 -0.7028 -2.5015 0.9380
15.5014 1.1824 -2.4623 0.9390
13.4324 6.2918 -2.3493 0.9417
7.4865 6.0458 -1.5241 0.9618
4.3032 5.6585 -1.1259 0.9716
1.6825 5.6746 -0.9374 0.9763
0.9608 5.6791 -0.9123 0.9769
-3.4327 5.5212 -1.0297 0.9740
-5.8616 5.7210 -1.2973 0.9674
-7.4980 5.7311 -1.4947 0.9625
-13.5957 5.9307 -2.3493 0.9417
-15.7589 0.7793 -2.4990 0.9381
-15.7538 -1.1242 -2.5015 0.9380
