ply
format ascii 1.0
element vertex 1584
property float32 x
property float32 y
property float32 z
property float32 I
end_header
-19.0271 -33.7938 8.9536 0.8528
-18.4200 -44.5503 11.1297 0.8204
-12.0814 -43.4297 10.4073 0.8311
50.8907 -47.9337 16.1402 0.7505
50.9699 -28.7792 13.5135 0.7864
48.3758 16.6322 11.8101 0.8106
26.0124 16.7699 7.1453 0.8807
5.3036 5.6171 1.7835 0.9688
3.2078 5.6653 1.5030 0.9736
1.5935 5.6752 1.3609 0.9761
-0.5045 5.6881 1.3184 0.9768
-2.7591 5.7019 1.4624 0.9743
-3.6698 5.7075 1.5666 0.9725
-4.7368 5.7141 1.7135 0.9700
-6.0376 5.7144 1.9192 0.9664
-27.3619 20.2518 7.8591 0.8696
-67.7374 -14.2958 15.9829 0.7526
-58.7837 -28.3573 15.0679 0.7650
-26.7061 -35.9910 10.3468 0.8319
-19.2204 -33.7539 8.9675 0.8526
-18.6354 -44.4606 11.1297 0.8204
-12.3078 -43.4283 10.4211 0.8309
22.0521 -45.8550 11.7470 0.8115
30.1764 -47.1836 12.9305 0.7946
50.9555 -29.0973 13.5469 0.7859
21.5630 1.8338 4.9962 0.9150
51.0032 10.6352 12.0283 0.8074
49.1344 16.6275 11.9755 0.8082
35.7172 17.1236 9.1446 0.8499
26.2886 16.7682 7.1987 0.8798
4.2204 5.6590 1.6298 0.9714
1.6232 5.6750 1.3627 0.9761
0.2110 5.6837 1.3131 0.9769
-1.9202 5.6968 1.3879 0.9756
-4.6901 5.7138 1.7066 0.9701
-5.9694 5.7049 1.9063 0.9667
-27.0842 20.2501 7.8074 0.8704
-65.7398 -22.0698 16.0097 0.7523
-58.2985 -27.7761 14.9088 0.7671
-17.9401 -31.1535 8.2997 0.8628
-12.5348 -43.4269 10.4352 0.8306
21.7720 -45.8393 11.7159 0.8119
29.8321 -47.1465 12.8806 0.7953
50.8344 -48.8180 16.2714 0.7488
52.1170 10.6045 12.2787 0.8039
49.9147 16.6228 12.1459 0.8058
25.9418 21.1366 7.7254 0.8716
5.4405 5.6515 1.8111 0.9683
3.2804 5.6648 1.5113 0.9735
0.2386 5.6835 1.3133 0.9769
-0.4490 5.6877 1.3172 0.9769
-1.1478 5.6762 1.3370 0.9765
-1.8894 5.6966 1.3856 0.9757
-4.6437 5.7135 1.6998 0.9702
-67.6144 -22.3355 16.4397 0.7465
-57.6782 -27.1388 14.7164 0.7698
-26.7016 -35.2661 10.2123 0.8339
-18.1457 -31.1608 8.3249 0.8624
-13.1654 -44.7960 10.7794 0.8256
50.8524 -49.3107 16.3534 0.7477
50.9264 -29.7384 13.6151 0.7850
53.3999 10.5966 12.5687 0.7997
35.8054 16.7415 9.1253 0.8502
25.9405 20.9274 7.6948 0.8721
3.3170 5.6646 1.5155 0.9734
2.4576 5.6699 1.4267 0.9750
1.6827 5.6746 1.3665 0.9760
-1.1155 5.6570 1.3312 0.9766
-2.6574 5.7013 1.4522 0.9745
-5.8690 5.7187 1.8918 0.9669
-26.5401 20.2468 7.7067 0.8719
-44.5628 -14.4819 10.8178 0.8250
-26.6995 -34.9108 10.1467 0.8349
-13.4009 -44.7945 10.7945 0.8254
50.9117 -30.0612 13.6499 0.7845
51.0389 16.4497 12.3801 0.8024
27.3021 16.8620 7.4084 0.8766
25.9392 20.7199 7.6645 0.8726
3.3538 5.6644 1.5198 0.9733
2.4902 5.6697 1.4296 0.9749
1.7126 5.6744 1.3684 0.9760
0.9887 5.6789 1.3308 0.9766
0.2937 5.6832 1.3138 0.9769
-0.3936 5.6874 1.3162 0.9769
-1.0916 5.6807 1.3355 0.9765
-2.6237 5.7011 1.4489 0.9746
-3.5149 5.7066 1.5473 0.9729
-4.5521 5.7130 1.6864 0.9705
-5.8145 5.7207 1.8832 0.9671
-26.2732 20.2451 7.6575 0.8727
-47.2883 -15.1148 11.4615 0.8156
-57.3135 -26.2923 14.5577 0.7719
-26.6973 -34.5600 10.0822 0.8359
-18.5414 -31.1429 8.3677 0.8617
-14.2281 -32.1828 8.1237 0.8655
-13.6370 -44.7931 10.8099 0.8251
21.1946 -46.3492 11.7663 0.8112
28.8155 -47.0383 12.7353 0.7974
-5.0081 5.6962 1.4743 0.9696
-27.2810 -3.1874 5.3390 0.8941
-47.6258 -11.5059 9.5238 0.8190
-72.8131 -37.7704 15.9443 0.7159
-65.0945 -44.4627 15.3231 0.7253
-24.1261 -34.5687 8.1941 0.8422
-10.0382 -18.8838 4.1570 0.9165
-11.9579 -94.1160 18.4414 0.6794
22.4810 -93.5511 18.7022 0.6757
40.8022 -46.6356 12.0450 0.7769
50.8547 -45.6277 13.2807 0.7570
50.7223 -35.4914 12.0334 0.7770
51.6395 -27.5306 11.3751 0.7878
21.5620 2.4663 4.2186 0.9154
33.3627 17.2039 7.2965 0.8582
6.4681 5.6452 1.6688 0.9656
5.0850 5.6537 1.4781 0.9695
3.9710 5.6606 1.3441 0.9722
3.0297 5.6664 1.2490 0.9742
2.2015 5.6714 1.1826 0.9755
0.7357 5.6804 1.1134 0.9769
-1.3536 5.6933 1.1375 0.9764
-2.1067 5.6979 1.1808 0.9755
-2.9321 5.7030 1.2465 0.9742
-3.8690 5.7088 1.3405 0.9723
-4.9763 5.7156 1.4731 0.9696
-8.1542 5.7351 1.9378 0.9602
-60.6495 -31.0890 13.2477 0.7575
-24.3748 -34.5672 8.2217 0.8417
-16.6289 -30.9200 6.8243 0.8667
-14.2731 -36.5074 7.6194 0.8524
-11.1814 -43.4352 8.7182 0.8330
13.3524 -56.7723 11.3365 0.7885
15.9784 -43.5389 9.0150 0.8278
40.9295 -47.2405 12.1498 0.7751
50.8519 -46.0716 13.3381 0.7561
51.0357 -27.5269 11.2713 0.7896
51.4618 12.0376 10.2732 0.8063
33.7985 17.2220 7.3735 0.8568
6.5130 5.6292 1.6733 0.9655
5.1344 5.6534 1.4845 0.9694
4.0119 5.6603 1.3486 0.9721
2.2331 5.6712 1.1848 0.9755
1.4758 5.6759 1.1400 0.9764
0.7637 5.6803 1.1141 0.9769
-1.3221 5.6832 1.1342 0.9765
-2.0754 5.6977 1.1787 0.9756
-3.8287 5.7085 1.3361 0.9724
-24.6251 -34.5657 8.2496 0.8412
-18.7348 -34.4350 7.6200 0.8524
-14.4768 -36.5061 7.6337 0.8521
-11.4056 -43.4338 8.7289 0.8328
-12.4904 -91.2336 17.8994 0.6871
15.7811 -43.6537 9.0229 0.8277
22.7366 -45.0246 9.8045 0.8142
40.9267 -47.7019 12.2173 0.7741
50.8090 -46.4825 13.3857 0.7553
50.7177 -36.2247 12.1149 0.7757
51.2099 11.7175 10.2114 0.8073
25.9178 17.2467 6.0514 0.8809
26.4510 22.6385 6.7676 0.8677
5.1843 5.6531 1.4910 0.9692
4.0530 5.6601 1.3532 0.9720
2.2648 5.6711 1.1870 0.9754
1.5051 5.6757 1.1414 0.9764
0.7917 5.6801 1.1148 0.9769
0.1009 5.6844 1.1051 0.9771
-1.2868 5.6552 1.1274 0.9766
-2.0441 5.6975 1.1766 0.9756
-2.8624 5.7026 1.2403 0.9743
-4.8793 5.7150 1.4607 0.9698
-7.9644 5.7177 1.9058 0.9608
-67.5834 -15.2920 13.4690 0.7540
-58.2861 -29.1683 12.6692 0.7668
-65.7452 -43.5202 15.3258 0.7252
-24.8771 -34.5641 8.2778 0.8407
-14.7391 -36.6489 7.6784 0.8513
-11.6303 -43.4324 8.7399 0.8326
22.4709 -45.0388 9.7838 0.8146
40.9239 -48.1687 12.2860 0.7729
50.8962 -47.0170 13.4685 0.7540
50.7155 -36.5951 12.1566 0.7750
50.7657 -28.0191 11.2711 0.7896
34.6132 17.2170 7.5145 0.8543
4.0944 5.6598 1.3579 0.9719
3.1360 5.6657 1.2588 0.9740
0.8197 5.6799 1.1155 0.9769
0.1284 5.6842 1.1052 0.9771
-1.2632 5.6785 1.1308 0.9766
-2.0130 5.6973 1.1745 0.9757
-3.7487 5.7080 1.3274 0.9726
-7.8963 5.7269 1.8961 0.9610
-66.0804 -43.2836 15.3549 0.7248
-25.1056 -34.5277 8.2981 0.8403
-19.3262 -34.7170 7.7235 0.8505
-14.9451 -36.6477 7.6932 0.8511
-11.8555 -43.4311 8.7510 0.8324
22.1983 -45.0372 9.7600 0.8150
50.7132 -36.9682 12.1988 0.7744
51.1065 11.1742 10.1687 0.8080
25.9156 16.8856 6.0124 0.8816
25.9457 21.7744 6.5839 0.8711
4.1361 5.6596 1.3626 0.9718
3.1718 5.6655 1.2621 0.9739
1.5640 5.6754 1.1443 0.9763
0.8478 5.6798 1.1163 0.9769
0.1559 5.6840 1.1053 0.9771
-0.5323 5.6883 1.1105 0.9770
-4.7839 5.7144 1.4486 0.9701
-6.1051 5.7225 1.6265 0.9665
-59.3610 -28.9908 12.8412 0.7640
-66.2816 -70.5419 18.8152 0.6741
-19.6102 -34.8293 7.7695 0.8497
-12.0814 -43.4297 8.7624 0.8322
15.1161 -43.7937 9.0055 0.8280
21.8772 -44.9330 9.7143 0.8158
40.9181 -49.1181 12.4265 0.7707
50.8907 -47.9337 13.5893 0.7521
51.0048 10.8935 10.1379 0.8085
48.3758 16.6322 9.9435 0.8118
26.0124 16.7699 6.0160 0.8815
5.3036 5.6171 1.5016 0.9690
3.2078 5.6653 1.2655 0.9738
2.3606 5.6705 1.1939 0.9753
1.5935 5.6752 1.1458 0.9763
0.1835 5.6838 1.1054 0.9771
-0.5045 5.6881 1.1100 0.9770
-2.7591 5.7019 1.2313 0.9745
-3.6698 5.7075 1.3190 0.9727
-4.7368 5.7141 1.4427 0.9702
-6.0458 5.7221 1.6181 0.9666
-88.0031 2.9474 17.1157 0.6985
-59.7383 -28.8178 12.8924 0.7632
-66.5218 -70.1144 18.7868 0.6745
-25.6438 -34.5594 8.3650 0.8392
-18.9371 -33.2562 7.4389 0.8556
-12.3078 -43.4283 8.7741 0.8320
14.9098 -43.8835 9.0090 0.8279
50.8878 -48.3980 13.6509 0.7511
50.7085 -37.7220 12.2849 0.7730
50.7598 -28.9855 11.3620 0.7881
4.2204 5.6590 1.3722 0.9716
1.6232 5.6750 1.1473 0.9762
-0.4768 5.6879 1.1095 0.9770
-3.6307 5.7073 1.3148 0.9728
-58.6733 -27.9547 12.6333 0.7673
-12.5348 -43.4269 8.7859 0.8318
15.7623 -47.1404 9.6618 0.8167
21.4126 -45.0826 9.7014 0.8160
28.7494 -45.4353 10.4513 0.8032
40.9121 -50.0891 12.5713 0.7683
50.7062 -38.1032 12.3289 0.7722
50.1248 16.6927 10.2693 0.8063
35.7510 16.9274 7.6889 0.8511
26.5687 16.7665 6.1068 0.8798
25.9418 21.1366 6.5044 0.8725
5.4405 5.6515 1.5249 0.9685
3.2804 5.6648 1.2724 0.9737
2.4252 5.6701 1.1987 0.9752
1.6529 5.6748 1.1489 0.9762
0.2386 5.6835 1.1057 0.9771
-0.4490 5.6877 1.1090 0.9770
-1.8894 5.6966 1.1666 0.9758
-2.6911 5.7015 1.2255 0.9746
-3.5919 5.7071 1.3108 0.9729
-7.5891 5.7316 1.8486 0.9620
-65.5458 -21.6522 13.4180 0.7548
-58.8726 -27.7008 12.6472 0.7671
-26.1642 -34.5562 8.4252 0.8381
-20.1212 -34.5532 7.7723 0.8496
-15.7775 -36.6426 7.7548 0.8500
-12.7632 -43.4273 8.7984 0.8316
21.2011 -45.2006 9.7046 0.8159
28.4242 -45.4064 10.4128 0.8039
50.7038 -38.4869 12.3735 0.7715
50.7175 16.6178 10.3742 0.8045
5.4932 5.6512 1.5319 0.9684
0.2661 5.6833 1.1059 0.9771
-0.4213 5.6876 1.1086 0.9770
-1.1155 5.6570 1.1208 0.9768
-2.6573 5.7013 1.2227 0.9747
-7.5126 5.7312 1.8367 0.9622
-59.2127 -27.5115 12.6915 0.7664
-20.3450 -34.5518 7.7940 0.8493
-15.9876 -36.6413 7.7708 0.8497
-13.0019 -43.4609 8.8179 0.8312
29.2667 -90.4316 18.4758 0.6789
21.1235 -45.6081 9.7700 0.8148
40.9060 -51.0832 12.7208 0.7659
50.8791 -49.8166 13.8411 0.7481
50.7537 -29.9679 11.4569 0.7865
55.0033 10.6381 10.8897 0.7959
35.9139 16.5807 7.6890 0.8511
25.9392 20.7199 6.4532 0.8735
4.3491 5.6582 1.3872 0.9713
3.3538 5.6644 1.2796 0.9735
1.7126 5.6744 1.1521 0.9761
0.9887 5.6789 1.1205 0.9768
-1.0916 5.6807 1.1244 0.9767
-1.8283 5.6962 1.1629 0.9759
-2.6237 5.7011 1.2199 0.9748
-3.5149 5.7066 1.3028 0.9731
-65.5154 -20.9406 13.3696 0.7556
-73.3209 -33.6356 15.6802 0.7199
-26.6650 -34.5182 8.4785 0.8372
-16.1986 -36.6400 7.7871 0.8494
19.9381 -43.6014 9.3193 0.8225
-5.0081 5.6962 1.2013 0.9697
-6.4113 5.7244 1.3613 0.9658
-71.3302 -37.0011 12.7271 0.7222
-64.8776 -44.3145 12.4439 0.7275
-13.3460 -34.6296 5.8780 0.8605
-10.9578 -43.4366 7.0952 0.8341
-12.0329 -94.7062 15.1207 0.6793
13.7525 -57.2289 9.3222 0.7879
16.4024 -44.0341 7.4425 0.8267
23.1776 -44.8141 7.9910 0.8152
30.7527 -45.1399 8.6509 0.8016
50.9044 -45.6723 10.8320 0.7581
55.6913 -14.1211 9.0998 0.7924
55.1921 -7.0803 8.8132 0.7982
55.2333 -0.3784 8.7483 0.7996
50.9627 12.1815 8.2991 0.8088
45.7210 16.9678 7.7241 0.8208
5.0850 5.6537 1.2044 0.9697
3.9710 5.6606 1.0952 0.9724
3.0297 5.6664 1.0177 0.9743
2.2015 5.6714 0.9636 0.9757
0.7357 5.6804 0.9072 0.9771
-1.3536 5.6933 0.9269 0.9766
-2.1067 5.6979 0.9622 0.9757
-2.9321 5.7030 1.0157 0.9744
-3.8690 5.7088 1.0923 0.9725
-10.7244 5.7509 1.9274 0.9519
-88.6837 22.7152 14.4996 0.6902
-67.2576 -15.9044 10.9463 0.7559
-89.3814 -32.9250 15.0866 0.6799
-72.6899 -37.2610 12.9374 0.7183
-33.0428 -36.5601 7.8051 0.8191
-25.8043 -36.5944 7.0920 0.8342
-11.1814 -43.4352 7.1038 0.8339
13.4768 -57.3013 9.3233 0.7879
23.0346 -45.0709 8.0168 0.8147
70.4616 -27.6464 11.9883 0.7360
55.6871 -14.4072 9.1104 0.7922
55.1904 -7.3519 8.8185 0.7981
45.7874 16.7407 7.7215 0.8208
25.9190 17.4292 4.9470 0.8812
6.5130 5.6292 1.3635 0.9657
4.0119 5.6603 1.0989 0.9723
3.0650 5.6661 1.0203 0.9742
2.2331 5.6712 0.9654 0.9756
1.4758 5.6759 0.9289 0.9765
0.0733 5.6845 0.9004 0.9772
-1.3221 5.6832 0.9242 0.9766
-2.8971 5.7028 1.0131 0.9744
-4.9276 5.7153 1.1952 0.9699
-8.0701 5.7346 1.5680 0.9607
-88.6730 23.1705 14.5160 0.6899
-88.5354 1.2496 14.0240 0.6987
-67.0987 -15.5241 10.9081 0.7566
-72.3958 -36.6686 12.8533 0.7199
-65.6633 -43.9248 12.5124 0.7262
-33.2317 -36.4133 7.8080 0.8190
-26.0693 -36.5928 7.1161 0.8336
-13.7317 -34.6272 5.8999 0.8600
-11.4056 -43.4338 7.1125 0.8337
15.9076 -44.0037 7.4109 0.8274
22.7699 -45.0906 8.0006 0.8150
51.1975 -46.8379 10.9903 0.7550
50.9301 -36.3764 9.9128 0.7761
69.3271 -27.5894 11.8179 0.7392
55.2300 -0.9132 8.7488 0.7996
34.2021 17.2195 6.0649 0.8563
3.1004 5.6659 1.0230 0.9742
1.5051 5.6757 0.9300 0.9765
0.1009 5.6844 0.9005 0.9772
-1.2868 5.6552 0.9186 0.9768
-2.0441 5.6975 0.9587 0.9758
-3.7885 5.7083 1.0851 0.9726
-6.2256 5.7232 1.3394 0.9663
-7.9872 5.7341 1.5573 0.9610
-10.4721 5.7469 1.8920 0.9528
-88.4988 1.6776 14.0194 0.6987
-71.9823 -36.0224 12.7488 0.7218
-65.5619 -43.3989 12.4529 0.7273
-26.3060 -36.5493 7.1323 0.8333
-13.9256 -34.6260 5.9111 0.8597
-11.6303 -43.4325 7.1214 0.8335
12.6202 -56.0907 9.1060 0.7923
51.1947 -47.2928 11.0387 0.7541
50.7155 -36.5951 9.9054 0.7763
55.2284 -1.1807 8.7493 0.7995
51.0080 11.4118 8.2786 0.8092
46.9189 16.6412 7.8848 0.8174
34.6132 17.2170 6.1229 0.8551
26.4497 22.4165 5.4914 0.8690
4.0944 5.6598 1.1064 0.9721
1.5345 5.6755 0.9312 0.9765
0.1284 5.6842 0.9005 0.9772
-0.5601 5.6884 0.9053 0.9771
-2.0130 5.6973 0.9570 0.9758
-3.7487 5.7080 1.0816 0.9727
-4.8314 5.7147 1.1852 0.9701
-6.1650 5.7229 1.3323 0.9665
-7.9054 5.7336 1.5467 0.9612
-34.0149 -36.5542 7.9085 0.8169
-26.4999 -36.4452 7.1370 0.8332
-19.6126 -35.2315 6.3865 0.8493
-11.8555 -43.4311 7.1305 0.8333
15.5338 -44.3069 7.4363 0.8268
38.0009 -45.1696 9.3492 0.7874
51.1919 -47.7515 11.0878 0.7531
50.8127 -37.0408 9.9593 0.7752
67.5144 -27.6282 11.5539 0.7442
55.0665 -15.1034 9.0438 0.7935
55.1854 -8.1686 8.8357 0.7978
55.2267 -1.4482 8.7501 0.7995
51.0064 11.1523 8.2695 0.8094
25.9156 16.8856 4.8990 0.8823
2.3286 5.6707 0.9709 0.9755
0.8478 5.6798 0.9096 0.9770
0.1559 5.6840 0.9006 0.9772
-1.9819 5.6971 0.9554 0.9759
-4.7839 5.7144 1.1804 0.9703
-87.3658 24.1898 14.3580 0.6927
-68.2226 -14.7435 11.0548 0.7538
-74.9057 -36.5825 13.2032 0.7135
-66.5155 -43.1096 12.5541 0.7254
-34.3446 -36.5521 7.9439 0.8162
-26.7083 -36.3606 7.1456 0.8330
-19.6102 -34.8293 6.3307 0.8505
-14.3043 -34.5962 5.9293 0.8593
-12.0814 -43.4297 7.1398 0.8331
20.9672 -43.0642 7.5862 0.8237
38.0551 -45.6814 9.4169 0.7860
51.2102 -28.9149 9.3145 0.7881
55.0621 -15.3892 9.0552 0.7933
55.1837 -8.4416 8.8419 0.7976
55.2251 -1.7158 8.7510 0.7995
48.3758 16.6322 8.1022 0.8129
35.4599 17.2118 6.2429 0.8525
25.9444 21.5602 5.3429 0.8723
4.1781 5.6593 1.1142 0.9719
2.3606 5.6705 0.9728 0.9754
1.5935 5.6752 0.9336 0.9764
0.1835 5.6838 0.9007 0.9772
-13.2934 62.6123 10.1379 0.7717
-1.9510 5.6970 0.9538 0.9759
-3.6698 5.7075 1.0747 0.9729
-7.7452 5.7326 1.5262 0.9617
-10.1213 5.7472 1.8435 0.9540
-73.1441 -35.2848 12.8624 0.7197
-66.9158 -42.9104 12.5904 0.7247
-34.6773 -36.5501 7.9799 0.8154
-26.7061 -35.9910 7.0983 0.8340
-19.6771 -34.5559 6.2982 0.8513
-12.3078 -43.4283 7.1493 0.8329
-13.7384 -87.6790 14.0564 0.6981
20.6609 -42.9622 7.5505 0.8244
28.8618 -45.1281 8.4844 0.8050
38.1102 -46.2005 9.4857 0.7846
51.1861 -48.6817 11.1882 0.7512
51.2082 -29.2416 9.3398 0.7876
55.1820 -8.7149 8.8483 0.7975
55.2234 -1.9833 8.7522 0.7995
55.2645 4.6998 8.7846 0.7988
49.1345 16.6275 8.2157 0.8105
26.2886 16.7682 4.9386 0.8814
5.3884 5.6519 1.2368 0.9689
3.2440 5.6650 1.0340 0.9739
1.6232 5.6750 0.9349 0.9764
-0.4768 5.6879 0.9040 0.9771
-12.8728 62.1098 10.0463 0.7735
-1.9202 5.6968 0.9522 0.9759
-2.7250 5.7017 1.0009 0.9747
-3.6307 5.7073 1.0714 0.9730
-4.6900 5.7138 1.1708 0.9705
-5.9870 5.7218 1.3117 0.9670
-7.6666 5.7321 1.5161 0.9620
-87.5788 25.1642 14.4324 0.6914
-87.8573 3.3684 13.9255 0.7004
-66.4883 -22.3211 11.1083 0.7527
-59.2611 -28.2348 10.3969 0.7666
-34.8747 -36.4032 7.9846 0.8153
-19.8987 -34.5546 6.3155 0.8509
28.5537 -45.1261 8.4579 0.8055
50.8057 -38.1780 10.0656 0.7731
51.2062 -29.5703 9.3654 0.7870
64.7728 -27.6114 11.1522 0.7519
55.2674 -16.0250 9.1140 0.7921
55.1804 -8.9886 8.8549 0.7974
55.2218 -2.2510 8.7535 0.7995
55.2629 4.4303 8.7809 0.7989
52.0029 10.5813 8.4052 0.8066
35.7511 16.9274 6.2651 0.8520
25.9418 21.1366 5.2999 0.8733
5.4405 5.6515 1.2425 0.9687
4.2630 5.6588 1.1221 0.9717
2.4252 5.6701 0.9767 0.9753
1.6529 5.6748 0.9362 0.9763
0.9322 5.6792 0.9115 0.9770
0.2386 5.6835 0.9010 0.9772
-0.4490 5.6877 0.9037 0.9772
-4.6437 5.7135 1.1661 0.9706
-5.9289 5.7214 1.3050 0.9672
-9.8945 5.7458 1.8122 0.9547
-86.9389 25.4369 14.3471 0.6929
-88.0872 3.8042 13.9647 0.6997
-66.3661 -21.9232 11.0700 0.7535
-73.5759 -34.6190 12.8788 0.7194
-66.4747 -68.7193 15.1431 0.6790
-26.7017 -35.2661 7.0060 0.8360
-20.1213 -34.5532 6.3330 0.8505
-10.7508 -36.5800 6.0387 0.8569
-14.5870 -87.5418 14.0564 0.6981
37.6285 -46.5269 9.4775 0.7848
50.9103 -49.3668 11.2318 0.7504
50.7038 -38.4869 10.0822 0.7728
51.2041 -29.9006 9.3914 0.7865
55.4647 -16.3739 9.1596 0.7912
55.1787 -9.2630 8.8617 0.7972
55.2202 -2.5190 8.7551 0.7994
50.7175 16.6178 8.4531 0.8056
35.8054 16.7415 6.2603 0.8521
5.4932 5.6512 1.2482 0.9686
4.3059 5.6585 1.1262 0.9716
3.3170 5.6646 1.0397 0.9738
2.4576 5.6699 0.9787 0.9753
-0.4213 5.6876 0.9033 0.9772
-1.1155 5.6570 0.9132 0.9769
-3.5532 5.7068 1.0648 0.9731
-4.5977 5.7132 1.1615 0.9707
-7.5126 5.7312 1.4966 0.9625
-9.7839 5.7451 1.7970 0.9551
-88.7348 -17.3850 14.3214 0.6934
-66.2447 -21.5280 11.0323 0.7542
-59.3380 -27.5697 10.3631 0.7672
-66.7723 -68.3617 15.1353 0.6791
-26.6995 -34.9108 6.9610 0.8369
-20.3451 -34.5518 6.3507 0.8501
-15.1051 -34.6188 5.9823 0.8582
27.9323 -45.1046 8.4028 0.8067
37.2407 -46.5060 9.4364 0.7856
50.8791 -49.8167 11.2780 0.7495
51.2021 -30.2327 9.4178 0.7860
63.8679 -27.9594 11.0425 0.7540
55.2185 -2.7868 8.7569 0.7994
55.2596 3.8918 8.7739 0.7990
54.7461 10.5883 8.8316 0.7979
51.0390 16.4497 8.4933 0.8048
5.5463 5.6509 1.2541 0.9684
4.3491 5.6582 1.1303 0.9715
1.7126 5.6744 0.9388 0.9763
-1.0916 5.6807 0.9162 0.9768
-4.5521 5.7130 1.1570 0.9708
-5.8145 5.7207 1.2919 0.9675
-7.4370 5.7307 1.4870 0.9627
-88.6955 4.6916 14.0676 0.6979
-59.6707 -27.3737 10.3979 0.7665
-67.4221 -68.3619 15.2074 0.6778
-26.6973 -34.5600 6.9168 0.8379
-20.5701 -34.5505 6.3687 0.8497
-15.3045 -34.6176 5.9948 0.8579
-10.7429 -35.2867 5.8421 0.8612
-13.7776 -78.0179 12.5480 0.7255
27.7318 -45.2694 8.4084 0.8065
-5.0081 5.6962 0.9313 0.9699
-6.4113 5.7244 1.0553 0.9660
-10.8517 5.7517 1.5080 0.9517
-10.7887 -42.7661 5.4155 0.8372
-11.0750 -87.1670 10.7888 0.7018
15.7475 -42.2758 5.5392 0.8338
23.1626 -44.7850 6.1908 0.8161
30.7525 -45.1397 6.7064 0.8024
50.9214 -35.6307 7.6310 0.7784
51.6395 -27.5306 7.1853 0.7899
55.2358 -21.3644 7.2717 0.7877
55.1921 -7.0803 6.8323 0.7991
51.4165 5.8811 6.3543 0.8118
45.7210 16.9678 5.9880 0.8216
26.0205 17.6810 3.8627 0.8809
6.4681 5.6452 1.0541 0.9660
5.0850 5.6537 0.9337 0.9698
3.9710 5.6606 0.8490 0.9725
2.2015 5.6714 0.7470 0.9758
1.4465 5.6761 0.7192 0.9767
0.0458 5.6847 0.6980 0.9774
-0.6437 5.6889 0.7030 0.9772
-2.1068 5.6979 0.7459 0.9758
-3.8690 5.7088 0.8468 0.9726
-8.1542 5.7351 1.2240 0.9606
-10.7244 5.7509 1.4942 0.9521
-14.8268 5.7761 1.9538 0.9379
-66.1886 -44.7415 9.8095 0.7247
-31.2040 -34.5255 5.7140 0.8290
-24.3748 -34.5672 5.1934 0.8433
-19.1649 -35.6355 4.9681 0.8495
-14.2731 -36.5074 4.8130 0.8539
-10.7833 -41.8887 5.3110 0.8400
12.7532 -54.2249 6.8396 0.7989
30.4323 -45.1378 6.6842 0.8030
55.3034 -14.3080 7.0140 0.7944
55.2317 -0.6458 6.7821 0.8004
51.2964 5.6159 6.3360 0.8122
51.4618 12.0376 6.4893 0.8082
45.7874 16.7407 5.9860 0.8216
25.9190 17.4292 3.8351 0.8817
2.2331 5.6712 0.7484 0.9757
-0.6158 5.6888 0.7026 0.9772
-2.0754 5.6977 0.7446 0.9759
-2.8971 5.7028 0.7854 0.9746
-6.2868 5.7236 1.0439 0.9663
-8.0701 5.7346 1.2156 0.9609
-10.5994 5.7501 1.4806 0.9526
-14.6138 5.7748 1.9294 0.9386
-72.4504 -36.6963 9.9718 0.7209
-67.5281 -45.1723 9.9755 0.7208
-31.5072 -34.5237 5.7389 0.8283
-24.6251 -34.5657 5.2110 0.8428
-9.4659 -17.3985 2.4320 0.9233
-12.1208 -88.5335 10.9719 0.6976
22.6581 -44.8690 6.1718 0.8166
30.1141 -45.1358 6.6622 0.8036
50.9169 -36.3670 7.6827 0.7771
55.3255 -14.5999 7.0257 0.7941
55.1887 -7.6238 6.8407 0.7989
46.2197 16.6455 6.0319 0.8204
34.2021 17.2195 4.7017 0.8570
5.1843 5.6531 0.9418 0.9696
3.1004 5.6659 0.7930 0.9743
1.5051 5.6757 0.7210 0.9766
0.1009 5.6844 0.6981 0.9773
-1.2868 5.6552 0.7121 0.9769
-4.8793 5.7150 0.9227 0.9702
-6.2256 5.7232 1.0383 0.9665
-31.8132 -34.5218 5.7641 0.8276
-24.8772 -34.5641 5.2289 0.8423
-19.5091 -35.4483 4.9681 0.8495
-14.7392 -36.6490 4.8502 0.8528
-10.7372 -40.0974 5.0968 0.8460
21.4019 -42.8964 5.8862 0.8243
29.7980 -45.1339 6.6406 0.8042
28.2539 -33.2557 5.3580 0.8387
50.7155 -36.5951 7.6789 0.7772
50.8654 -28.0742 7.1336 0.7913
52.8244 -21.3187 6.9943 0.7949
55.2284 -1.1807 6.7827 0.8004
34.6132 17.2170 4.7467 0.8557
5.2347 5.6528 0.9460 0.9694
1.5345 5.6755 0.7219 0.9766
0.8197 5.6799 0.7046 0.9771
-1.2632 5.6785 0.7143 0.9768
-2.0130 5.6973 0.7419 0.9759
-2.8278 5.7023 0.7815 0.9747
-3.7487 5.7080 0.8385 0.9729
-6.1650 5.7229 1.0328 0.9667
-7.9054 5.7336 1.1991 0.9614
-10.3561 5.7486 1.4543 0.9534
-89.4748 -19.7903 11.2516 0.6912
-32.1220 -34.5199 5.7897 0.8269
-19.6126 -35.2315 4.9510 0.8500
-10.7343 -39.3238 5.0050 0.8485
-12.9838 -88.4554 10.9773 0.6975
12.1680 -55.3307 6.9561 0.7959
15.9045 -32.2678 4.4171 0.8650
29.4841 -45.1320 6.6192 0.8047
27.9704 -33.2468 5.3347 0.8394
50.8127 -37.0408 7.7208 0.7761
55.3206 -8.1886 6.8665 0.7982
55.2267 -1.4482 6.7833 0.8004
51.1065 11.1742 6.4233 0.8099
47.6375 16.6368 6.1956 0.8160
35.0324 17.2144 4.7927 0.8544
25.9156 16.8856 3.7979 0.8828
25.9409 21.7704 4.1582 0.8724
4.1361 5.6596 0.8607 0.9721
1.5640 5.6754 0.7228 0.9766
-13.6108 62.6143 7.8676 0.7724
-3.7091 5.7078 0.8358 0.9729
-74.1409 -36.2090 10.1310 0.7171
-32.4334 -34.5180 5.8157 0.8262
-25.3865 -34.5610 5.2653 0.8413
-13.4120 -88.3915 10.9773 0.6975
17.9715 -83.6493 10.5052 0.7084
14.8397 -42.9928 5.5845 0.8325
20.9918 -43.1146 5.8879 0.8243
29.1718 -45.1300 6.5981 0.8053
27.7503 -33.3115 5.3234 0.8397
48.1361 -45.3392 8.1193 0.7661
50.7109 -37.3438 7.7327 0.7758
51.1305 -28.8699 7.2097 0.7893
52.5444 -21.7997 6.9849 0.7951
55.3190 -8.4623 6.8713 0.7981
55.2251 -1.7158 6.7841 0.8004
51.9602 4.6722 6.4056 0.8104
51.0048 10.8934 6.4038 0.8104
26.0124 16.7699 3.8001 0.8827
25.9444 21.5602 4.1420 0.8729
5.3036 5.6171 0.9485 0.9693
3.2078 5.6653 0.7994 0.9741
2.3606 5.6705 0.7542 0.9756
0.1835 5.6838 0.6983 0.9773
-1.9510 5.6970 0.7394 0.9760
-2.7591 5.7019 0.7778 0.9748
-3.6698 5.7075 0.8332 0.9730
-4.7368 5.7141 0.9113 0.9705
-6.0458 5.7221 1.0221 0.9670
-7.7452 5.7326 1.1831 0.9619
-88.1102 24.8558 11.2408 0.6915
-72.9948 -35.2127 9.9510 0.7214
-32.7475 -34.5161 5.8420 0.8255
-25.6438 -34.5595 5.2840 0.8408
-19.6772 -34.5559 4.8826 0.8519
-11.0176 -38.8757 4.9613 0.8497
-13.8397 -88.3255 10.9773 0.6975
18.9020 -90.1021 11.3040 0.6900
15.1040 -44.4550 5.7648 0.8276
20.7482 -43.1436 5.8781 0.8245
28.8618 -45.1281 6.5773 0.8058
37.3947 -45.3331 7.2156 0.7891
47.6687 -45.3363 8.0774 0.7671
50.7086 -37.7220 7.7600 0.7751
52.4050 -22.0399 6.9804 0.7952
55.1391 -15.6988 7.0393 0.7937
55.3173 -8.7363 6.8763 0.7980
52.1124 4.4317 6.4217 0.8100
49.1345 16.6275 6.3690 0.8114
26.2886 16.7682 3.8286 0.8819
25.9431 21.3475 4.1252 0.8734
5.3884 5.6519 0.9588 0.9690
4.2204 5.6590 0.8668 0.9720
3.2440 5.6650 0.8016 0.9740
2.3928 5.6703 0.7557 0.9755
1.6232 5.6750 0.7247 0.9765
0.9040 5.6794 0.7061 0.9771
-1.9202 5.6968 0.7381 0.9761
-3.6307 5.7073 0.8305 0.9731
-5.9870 5.7218 1.0168 0.9672
-7.6666 5.7321 1.1754 0.9622
-33.0649 -34.5141 5.8687 0.8248
-15.5680 -36.6439 4.8885 0.8518
-11.2210 -38.8751 4.9681 0.8495
-14.2671 -88.2575 10.9773 0.6975
20.1909 -42.5105 5.7785 0.8272
36.8735 -45.1447 7.1571 0.7906
50.7062 -38.1033 7.7878 0.7744
51.1265 -29.5243 7.2491 0.7883
55.2339 -8.9974 6.8713 0.7981
54.2636 11.0413 6.7993 0.8000
49.9147 16.6227 6.4597 0.8089
26.5687 16.7665 3.8575 0.8811
5.4405 5.6515 0.9632 0.9689
4.2630 5.6588 0.8699 0.9719
2.4252 5.6701 0.7572 0.9755
0.9322 5.6792 0.7067 0.9771
-0.4490 5.6877 0.7005 0.9773
-1.1478 5.6762 0.7111 0.9769
-1.8894 5.6966 0.7369 0.9761
-4.6437 5.7135 0.9040 0.9708
-5.9289 5.7214 1.0117 0.9673
-7.5891 5.7316 1.1677 0.9624
-13.4397 5.7676 1.7957 0.9428
-88.8647 26.0003 11.3686 0.6886
-92.1987 -18.5278 11.5469 0.6846
-20.1213 -34.5532 4.9095 0.8512
-14.6945 -88.1874 10.9773 0.6975
36.7752 -45.4718 7.1806 0.7900
46.8129 -45.3937 8.0065 0.7689
51.2540 -29.9297 7.2876 0.7873
52.0727 -22.4961 6.9649 0.7956
54.8548 10.8853 6.8667 0.7982
35.8054 16.7415 4.8532 0.8527
25.9768 20.9567 4.0981 0.8741
5.4932 5.6512 0.9677 0.9687
4.3059 5.6585 0.8731 0.9718
3.3170 5.6646 0.8060 0.9739
2.4576 5.6699 0.7588 0.9754
1.6827 5.6746 0.7267 0.9764
0.2661 5.6833 0.6986 0.9773
-0.4213 5.6876 0.7003 0.9773
-1.8588 5.6964 0.7357 0.9761
-2.6573 5.7013 0.7723 0.9750
-13.2596 5.7665 1.7754 0.9434
-33.7078 -34.5102 5.9232 0.8233
-11.5970 -38.7646 4.9681 0.8495
-13.5408 -78.9053 9.8300 0.7242
17.8456 -91.6741 11.4674 0.6863
14.4944 -44.7863 5.7799 0.8272
27.9434 -45.1224 6.5167 0.8074
46.8470 -45.8688 8.0502 0.7678
50.7015 -38.8734 7.8445 0.7730
52.1228 -22.8177 6.9863 0.7951
55.3122 -9.5609 6.8922 0.7975
55.2185 -2.7868 6.7886 0.8003
55.0033 10.6381 6.8787 0.7979
27.3022 16.8620 3.9401 0.8787
3.3538 5.6644 0.8083 0.9738
2.4902 5.6697 0.7603 0.9754
1.7126 5.6744 0.7278 0.9764
-1.8283 5.6962 0.7345 0.9762
-2.6237 5.7011 0.7706 0.9750
-3.5149 5.7066 0.8229 0.9734
-7.4370 5.7307 1.1528 0.9629
-9.6752 5.7444 1.3816 0.9557
-89.4852 -17.0826 11.1858 0.6927
-34.0338 -34.5082 5.9511 0.8226
-26.6650 -34.5182 5.3556 0.8388
-20.5701 -34.5505 4.9372 0.8504
-11.7845 -38.7081 4.9681 0.8495
14.3062 -44.9465 5.7915 0.8269
-5.0081 5.6962 0.6636 0.9700
-6.4113 5.7244 0.7520 0.9661
-8.2394 5.7356 0.8783 0.9605
-10.8517 5.7517 1.0745 0.9519
-15.0452 5.7774 1.4100 0.9373
-53.2611 -27.6282 5.2494 0.7859
-32.7243 -36.5621 4.2929 0.8212
-10.9578 -43.4366 3.9193 0.8354
13.0407 -54.2669 4.8829 0.7992
16.5095 -44.3217 4.1379 0.8270
30.7525 -45.1397 4.7786 0.8031
38.4970 -44.0007 5.1150 0.7908
48.9412 -43.9109 5.7526 0.7680
50.9214 -35.6307 5.4374 0.7792
51.6395 -27.5306 5.1198 0.7906
55.2043 -21.3522 5.1784 0.7885
55.2495 -14.0091 4.9867 0.7954
45.8778 5.2476 4.0400 0.8308
43.5496 16.1620 4.0640 0.8298
33.3627 17.2039 3.2841 0.8601
5.0850 5.6537 0.6653 0.9699
2.2015 5.6714 0.5323 0.9759
1.4465 5.6761 0.5125 0.9768
0.7357 5.6804 0.5011 0.9773
0.0458 5.6847 0.4974 0.9774
-1.3536 5.6933 0.5120 0.9768
-8.1542 5.7351 0.8722 0.9608
-14.8268 5.7761 1.3921 0.9381
-53.5632 -27.4566 5.2660 0.7853
-33.0428 -36.5601 4.3114 0.8205
-19.6162 -36.4747 3.6233 0.8468
-14.2731 -36.5074 3.4294 0.8544
-11.1814 -43.4353 3.9240 0.8352
18.8539 -80.1641 7.2048 0.7184
16.2317 -44.2292 4.1219 0.8276
23.0346 -45.0709 4.4283 0.8161
48.5252 -43.9636 5.7286 0.7688
50.9192 -35.9977 5.4557 0.7785
51.0357 -27.5269 5.0731 0.7923
55.2024 -21.6593 5.1880 0.7881
55.2477 -14.2936 4.9927 0.7952
55.2389 -0.6459 4.8331 0.8011
46.0265 5.0389 4.0509 0.8303
51.0112 11.9322 4.5834 0.8103
33.7985 17.2220 3.3187 0.8587
25.9190 17.4292 2.7326 0.8821
6.5130 5.6292 0.7532 0.9660
5.1344 5.6534 0.6681 0.9698
4.0119 5.6603 0.6070 0.9725
3.0650 5.6661 0.5636 0.9745
1.4758 5.6759 0.5131 0.9767
0.7637 5.6803 0.5014 0.9772
0.0733 5.6845 0.4974 0.9774
-3.8287 5.7085 0.6014 0.9728
-6.2868 5.7236 0.7438 0.9664
-8.0701 5.7346 0.8661 0.9610
-10.5994 5.7501 1.0550 0.9527
-14.6138 5.7748 1.3747 0.9389
-72.5497 -36.7466 7.1150 0.7214
-19.6177 -36.0578 3.5913 0.8480
-11.4056 -43.4339 3.9288 0.8350
13.3939 -58.2120 5.2260 0.7868
15.4913 -42.8520 3.9865 0.8328
22.7699 -45.0906 4.4194 0.8164
30.2235 -45.2998 4.7643 0.8036
50.9169 -36.3670 5.4742 0.7778
55.2006 -21.9676 5.1978 0.7878
51.0096 11.6717 4.5781 0.8105
34.2021 17.2195 3.3501 0.8575
5.1843 5.6531 0.6711 0.9697
4.0530 5.6601 0.6091 0.9724
3.1004 5.6659 0.5651 0.9744
2.2648 5.6711 0.5343 0.9758
1.5051 5.6757 0.5137 0.9767
-1.2868 5.6552 0.5074 0.9770
-2.0441 5.6975 0.5296 0.9760
-2.8624 5.7026 0.5582 0.9747
-3.7885 5.7083 0.5994 0.9729
-6.2256 5.7232 0.7399 0.9666
-7.9872 5.7341 0.8602 0.9613
-10.4767 5.7494 1.0455 0.9531
-14.4062 5.7735 1.3578 0.9396
-33.6879 -36.5562 4.3492 0.8191
-26.3060 -36.5493 3.9398 0.8346
-14.7392 -36.6490 3.4559 0.8533
15.7975 -44.3696 4.1205 0.8277
38.1857 -44.9457 5.1599 0.7891
48.1590 -44.4884 5.7360 0.7685
50.7657 -28.0191 5.0730 0.7923
55.2442 -14.8649 5.0052 0.7948
55.2870 -7.9103 4.8862 0.7991
55.2356 -1.1809 4.8336 0.8010
51.0080 11.4118 4.5729 0.8107
45.5333 16.1497 4.2268 0.8237
5.2347 5.6528 0.6740 0.9695
4.0944 5.6598 0.6112 0.9723
3.1360 5.6657 0.5666 0.9743
1.5345 5.6755 0.5144 0.9767
0.8197 5.6799 0.5021 0.9772
-0.5601 5.6884 0.5001 0.9773
-4.8314 5.7147 0.6547 0.9704
-6.1650 5.7229 0.7359 0.9668
-7.9054 5.7336 0.8544 0.9615
-19.6126 -35.2315 3.5278 0.8505
-11.8011 -80.3980 7.1093 0.7216
-1.5425 -61.6735 5.3974 0.7806
12.8249 -58.3180 5.2241 0.7868
15.5479 -44.3471 4.1114 0.8280
15.9032 -32.2652 3.1470 0.8655
37.8905 -45.0384 5.1493 0.7895
47.9953 -44.7698 5.7423 0.7683
50.7638 -28.3396 5.0865 0.7918
55.1967 -22.5876 5.2178 0.7870
55.2425 -15.1515 5.0116 0.7945
55.2340 -1.4483 4.8340 0.8010
48.9842 4.6439 4.3048 0.8207
35.0324 17.2144 3.4150 0.8549
5.2773 5.6438 0.6760 0.9695
4.1361 5.6596 0.6133 0.9722
3.1718 5.6655 0.5681 0.9743
2.3286 5.6707 0.5363 0.9757
0.1559 5.6840 0.4975 0.9774
-0.5323 5.6883 0.4998 0.9773
-2.7934 5.7021 0.5555 0.9748
-3.7091 5.7078 0.5955 0.9730
-4.7839 5.7144 0.6520 0.9705
-10.2377 5.7479 1.0272 0.9540
-14.0057 5.7710 1.3253 0.9410
-20.9404 5.7980 1.9010 0.9165
-34.3447 -36.5522 4.3881 0.8176
-26.7083 -36.3605 3.9471 0.8343
-19.6102 -34.8293 3.4970 0.8517
-15.1520 -36.6464 3.4694 0.8528
-12.0814 -43.4297 3.9439 0.8344
22.0519 -45.2921 4.4073 0.8169
47.8346 -45.0552 5.7491 0.7681
50.7109 -37.3438 5.5098 0.7766
55.1948 -22.8994 5.2280 0.7867
55.1481 -15.4132 5.0097 0.7946
55.2836 -8.4569 4.8930 0.7989
55.2323 -1.7160 4.8345 0.8010
35.4599 17.2118 3.4485 0.8536
26.0124 16.7699 2.7077 0.8831
5.3036 5.6171 0.6759 0.9695
3.2078 5.6653 0.5696 0.9742
0.8759 5.6796 0.5028 0.9772
0.1835 5.6838 0.4975 0.9774
-0.5045 5.6881 0.4996 0.9773
-3.6698 5.7075 0.5937 0.9731
-6.0458 5.7221 0.7283 0.9671
-10.1213 5.7472 1.0183 0.9543
-13.8127 5.7699 1.3096 0.9417
-20.6013 5.8116 1.8727 0.9176
-74.6853 -36.0282 7.2547 0.7168
-34.6774 -36.5501 4.4079 0.8168
-26.7061 -35.9910 3.9210 0.8353
-19.6772 -34.5559 3.4790 0.8524
-15.3596 -36.6452 3.4763 0.8525
-12.5968 -80.3931 7.1193 0.7213
18.6403 -88.8547 7.9430 0.6945
21.7890 -45.3079 4.3985 0.8172
28.8618 -45.1281 4.6866 0.8065
47.5705 -45.2430 5.7436 0.7683
50.7086 -37.7220 5.5293 0.7759
55.1464 -15.7009 5.0164 0.7944
55.2819 -8.7307 4.8965 0.7987
49.2578 4.1890 4.3251 0.8200
51.0032 10.6352 4.5582 0.8112
49.1346 16.6276 4.5382 0.8120
35.7173 17.1236 3.4654 0.8530
26.2886 16.7682 2.7280 0.8823
5.3884 5.6519 0.6832 0.9691
3.2440 5.6650 0.5711 0.9741
2.3928 5.6703 0.5384 0.9756
-0.4768 5.6879 0.4994 0.9773
-12.9765 62.6104 5.5941 0.7736
-1.9202 5.6968 0.5260 0.9762
-2.7250 5.7017 0.5529 0.9749
-5.9870 5.7218 0.7245 0.9673
-20.2179 5.8092 1.8404 0.9190
-59.2885 -28.2478 5.7457 0.7682
-12.9954 -80.3907 7.1246 0.7211
37.0408 -45.3495 5.1228 0.7905
47.1088 -45.2402 5.7142 0.7693
50.8058 -38.1781 5.5600 0.7748
50.7578 -29.3114 5.1280 0.7903
49.6523 -21.1658 4.7222 0.8052
55.2803 -9.0049 4.9001 0.7986
55.3218 -2.2550 4.8440 0.8007
55.1657 4.4225 4.8419 0.8007
52.1168 10.6045 4.6531 0.8077
26.5687 16.7665 2.7486 0.8815
25.9419 21.1366 2.9276 0.8743
5.4405 5.6515 0.6863 0.9690
4.2630 5.6588 0.6198 0.9720
2.4252 5.6701 0.5395 0.9755
1.6529 5.6748 0.5171 0.9765
0.9322 5.6792 0.5035 0.9772
-0.4490 5.6877 0.4992 0.9774
-1.1478 5.6762 0.5067 0.9770
-1.8894 5.6966 0.5251 0.9762
-2.6911 5.7015 0.5516 0.9750
-3.5919 5.7071 0.5900 0.9733
-4.6437 5.7135 0.6441 0.9709
-5.9289 5.7214 0.7208 0.9675
-7.5891 5.7316 0.8320 0.9625
-13.4397 5.7676 1.2795 0.9430
-59.2554 -27.8809 5.7294 0.7688
-26.7017 -35.2661 3.8700 0.8373
-20.1213 -34.5532 3.4982 0.8517
17.6786 -88.5275 7.8981 0.6959
14.6278 -44.4620 4.0950 0.8287
20.4367 -43.5709 4.2105 0.8243
36.6745 -45.3473 5.1025 0.7912
46.6517 -45.2374 5.6853 0.7703
50.7039 -38.4869 5.5692 0.7745
49.5221 -21.3942 4.7196 0.8052
55.1428 -16.2789 5.0302 0.7939
55.2786 -9.2798 4.9039 0.7985
55.3201 -2.5235 4.8449 0.8006
55.2685 4.1616 4.8490 0.8005
26.8531 16.7647 2.7696 0.8806
4.3059 5.6585 0.6221 0.9719
3.3170 5.6646 0.5743 0.9740
2.4576 5.6699 0.5406 0.9755
0.9604 5.6791 0.5039 0.9771
-0.4213 5.6876 0.4990 0.9774
-1.1155 5.6570 0.5045 0.9771
-1.8588 5.6964 0.5242 0.9762
-9.7839 5.7451 0.9926 0.9555
-19.4891 5.8048 1.7791 0.9216
-75.6331 -35.1408 7.2964 0.7154
-15.9876 -36.6413 3.4976 0.8517
-12.8354 -42.9040 3.9180 0.8354
35.1239 -43.8626 4.9163 0.7980
46.1993 -45.2345 5.6568 0.7713
50.7537 -29.9680 5.1567 0.7893
49.3922 -21.6224 4.7172 0.8053
55.2769 -9.5548 4.9078 0.7983
55.3185 -2.7918 4.8459 0.8006
55.2668 3.8923 4.8472 0.8005
35.9139 16.5807 3.4608 0.8531
27.1418 16.7630 2.7910 0.8798
5.5463 5.6509 0.6927 0.9687
4.3491 5.6582 0.6244 0.9718
3.3538 5.6644 0.5759 0.9739
1.7126 5.6744 0.5186 0.9765
0.9887 5.6789 0.5043 0.9771
0.2937 5.6832 0.4979 0.9774
-1.0916 5.6806 0.5061 0.9770
-1.8283 5.6962 0.5234 0.9763
-2.6237 5.7011 0.5491 0.9751
-5.8145 5.7207 0.7136 0.9678
-9.6752 5.7444 0.9844 0.9558
-13.1042 5.7744 1.2528 0.9441
-26.6973 -34.5600 3.8207 0.8392
14.4371 -45.3575 4.1644 0.8260
19.4776 -42.5944 4.0977 0.8286
-5.0081 5.6962 0.3975 0.9701
-6.4102 5.7234 0.4504 0.9662
-10.8517 5.7517 0.6437 0.9520
-15.0452 5.7774 0.8446 0.9375
-23.2193 5.8277 1.2546 0.9086
-24.1262 -34.5688 2.2093 0.8446
-11.0750 -87.1670 4.6049 0.7033
16.8577 -45.2564 2.5310 0.8241
30.4010 -27.2763 2.1405 0.8491
43.8632 -23.3848 2.6051 0.8195
60.0989 -0.4117 3.1497 0.7861
43.5608 4.9825 2.2978 0.8389
25.5682 9.4888 1.4293 0.8965
25.9201 17.6128 1.6423 0.8820
3.9710 5.6606 0.3624 0.9727
2.2015 5.6714 0.3188 0.9759
0.7357 5.6804 0.3002 0.9773
0.0458 5.6847 0.2979 0.9775
-1.3528 5.6900 0.3065 0.9768
-2.9275 5.6941 0.3355 0.9747
-4.9679 5.7059 0.3965 0.9702
-8.1542 5.7351 0.5225 0.9609
-74.2772 -38.0746 4.3743 0.7158
-24.3748 -34.5672 2.2167 0.8442
-13.5208 -34.5831 1.9460 0.8618
25.3270 -29.2322 2.0270 0.8565
30.1045 -27.2745 2.1289 0.8498
51.1681 -36.1736 3.2840 0.7780
60.1491 -8.0124 3.1801 0.7842
60.1008 -0.7027 3.1500 0.7860
25.5662 9.3474 1.4266 0.8967
25.6070 17.2194 1.6172 0.8837
5.1344 5.6534 0.4002 0.9699
2.2331 5.6712 0.3194 0.9759
1.4758 5.6759 0.3074 0.9768
-2.8926 5.6939 0.3347 0.9747
-4.9190 5.7054 0.3948 0.9703
-6.2868 5.7236 0.4456 0.9665
-10.5994 5.7501 0.6320 0.9528
-31.5072 -34.5237 2.4495 0.8293
-24.6252 -34.5657 2.2242 0.8437
-13.7137 -34.5819 1.9497 0.8616
-8.9904 -65.6683 3.4736 0.7668
13.1836 -57.2981 3.0813 0.7902
30.1139 -45.1357 2.8436 0.8047
25.3253 -29.5177 2.0383 0.8557
50.9302 -36.3765 3.2800 0.7783
60.1027 -0.9937 3.1503 0.7860
24.1955 5.5363 1.3008 0.9054
44.8547 16.1539 2.4985 0.8262
34.2021 17.2195 2.0068 0.8578
7.7798 6.6585 0.5367 0.9598
1.5051 5.6757 0.3077 0.9768
-1.2868 5.6552 0.3040 0.9770
-2.0405 5.6874 0.3167 0.9761
-2.8579 5.6936 0.3339 0.9748
-6.2256 5.7232 0.4432 0.9667
-7.9872 5.7341 0.5153 0.9614
-10.4767 5.7494 0.6263 0.9533
-31.8132 -34.5218 2.4603 0.8286
-13.9074 -34.5807 1.9534 0.8613
-10.7731 -40.2316 2.1827 0.8463
-9.3139 -65.6635 3.4757 0.7667
13.1966 -58.6526 3.1507 0.7860
16.4039 -46.0730 2.5631 0.8221
22.4709 -45.0389 2.6379 0.8174
29.7979 -45.1337 2.8344 0.8052
25.3235 -29.8065 2.0497 0.8550
29.5209 -27.2709 2.1062 0.8513
50.7155 -36.5951 3.2776 0.7784
50.8654 -28.0742 3.0448 0.7924
60.1530 -8.6065 3.1846 0.7840
60.1046 -1.2850 3.1507 0.7860
43.9074 4.3771 2.3125 0.8380
45.5333 16.1497 2.5320 0.8241
34.6132 17.2170 2.0260 0.8565
25.9167 17.0656 1.6263 0.8831
7.8559 6.6580 0.5397 0.9596
5.2347 5.6528 0.4038 0.9696
3.1360 5.6657 0.3394 0.9744
1.5345 5.6755 0.3081 0.9767
0.8197 5.6799 0.3008 0.9773
-1.2632 5.6785 0.3049 0.9770
-2.8233 5.6933 0.3330 0.9749
-4.8226 5.7043 0.3915 0.9705
-7.9054 5.7336 0.5118 0.9616
-25.1057 -34.5278 2.2373 0.8428
-19.2381 -34.5586 2.0729 0.8535
-9.6485 -65.7325 3.4818 0.7664
12.9996 -59.1124 3.1720 0.7847
15.7734 -44.9904 2.4986 0.8262
29.4840 -45.1318 2.8252 0.8058
29.2338 -27.2691 2.0951 0.8520
60.2058 -16.5129 3.2718 0.7788
60.1065 -1.5761 3.1511 0.7860
50.3172 4.7702 2.6488 0.8167
47.6376 16.6368 2.6445 0.8170
35.0324 17.2144 2.0457 0.8553
25.9156 16.8856 1.6210 0.8835
4.1361 5.6596 0.3674 0.9723
3.1718 5.6655 0.3403 0.9743
1.5640 5.6754 0.3085 0.9767
0.8478 5.6798 0.3010 0.9773
0.1559 5.6840 0.2980 0.9775
-0.5323 5.6883 0.2994 0.9774
-13.6109 62.6143 3.3581 0.7736
-2.7889 5.6931 0.3322 0.9749
-4.7751 5.7038 0.3898 0.9706
-6.1051 5.7225 0.4385 0.9670
-20.9404 5.7980 1.1387 0.9166
-10.7278 -38.5638 2.0978 0.8519
19.0369 -88.6087 4.7497 0.6956
21.9271 -45.0355 2.6251 0.8182
29.1717 -45.1299 2.8162 0.8063
50.7109 -37.3438 3.3005 0.7770
60.1570 -9.2024 3.1894 0.7837
60.1084 -1.8675 3.1517 0.7859
51.0048 10.8935 2.7333 0.8115
48.3760 16.6323 2.6809 0.8147
35.4599 17.2118 2.0657 0.8540
26.0124 16.7699 1.6220 0.8834
3.2078 5.6653 0.3412 0.9743
2.3606 5.6705 0.3219 0.9757
1.5935 5.6752 0.3089 0.9767
-0.5045 5.6881 0.2993 0.9774
-13.2934 62.6123 3.3545 0.7738
-1.9475 5.6867 0.3150 0.9762
-2.7547 5.6928 0.3314 0.9750
-4.7279 5.7033 0.3882 0.9708
-7.7452 5.7326 0.5050 0.9621
-20.6013 5.8116 1.1218 0.9178
-10.7234 -37.8375 2.0611 0.8543
-12.5968 -80.3931 4.2646 0.7218
28.6683 -27.2657 2.0734 0.8534
51.2082 -29.2416 3.0904 0.7896
60.2654 -25.3457 3.4263 0.7696
51.0032 10.6352 2.7305 0.8116
26.2886 16.7682 1.6341 0.8826
6.3564 6.6672 0.4828 0.9638
4.2204 5.6590 0.3700 0.9721
2.3928 5.6703 0.3225 0.9756
0.9040 5.6794 0.3014 0.9772
-0.4768 5.6879 0.2991 0.9774
-1.9167 5.6865 0.3145 0.9763
-2.7206 5.6925 0.3307 0.9750
-7.6666 5.7321 0.5017 0.9624
-10.0070 5.7465 0.6048 0.9548
-20.2179 5.8092 1.1024 0.9192
-36.6554 5.8800 1.9456 0.8618
-59.2483 -28.2287 3.4395 0.7688
-33.0649 -34.5142 2.5049 0.8258
-25.9032 -34.5579 2.2634 0.8411
-19.8987 -34.5546 2.0897 0.8524
-14.6895 -34.5759 1.9688 0.8603
-10.7210 -37.1427 2.0260 0.8565
-12.9954 -80.3907 4.2678 0.7217
17.8019 -86.9510 4.6514 0.7008
15.2727 -45.6762 2.5241 0.8246
28.3901 -27.2640 2.0628 0.8541
50.8058 -38.1780 3.3306 0.7753
51.2062 -29.5703 3.0989 0.7891
60.1609 -9.7999 3.1945 0.7834
60.1123 -2.4503 3.1530 0.7859
60.0646 4.8153 3.1579 0.7856
35.7511 16.9274 2.0730 0.8535
26.5687 16.7665 1.6465 0.8818
4.2630 5.6588 0.3713 0.9720
3.2804 5.6648 0.3431 0.9741
2.4252 5.6701 0.3232 0.9756
0.2386 5.6835 0.2981 0.9775
-1.1478 5.6762 0.3035 0.9771
-1.8860 5.6863 0.3140 0.9763
-3.5820 5.6914 0.3524 0.9734
-19.8472 5.8070 1.0838 0.9205
-33.3849 -34.5122 2.5165 0.8250
-20.5874 -27.1907 1.7874 0.8723
-20.1213 -34.5532 2.0955 0.8520
14.9856 -45.5496 2.5130 0.8253
21.1799 -45.1555 2.6139 0.8189
25.3143 -31.3007 2.1097 0.8511
28.1147 -27.2623 2.0524 0.8548
51.2042 -29.9006 3.1075 0.7886
49.5336 -21.3992 2.8277 0.8056
60.2143 -17.7760 3.2903 0.7777
60.1629 -10.0997 3.1971 0.7832
54.8548 10.8853 2.9309 0.7993
50.7177 16.6179 2.7970 0.8075
35.8054 16.7415 2.0715 0.8536
26.8530 16.7647 1.6591 0.8809
6.4800 6.6665 0.4872 0.9634
3.3170 5.6646 0.3440 0.9740
2.4576 5.6699 0.3239 0.9756
1.6827 5.6746 0.3102 0.9766
-0.4213 5.6876 0.2989 0.9774
-1.1155 5.6570 0.3022 0.9772
-4.5885 5.7018 0.3836 0.9711
-9.7839 5.7451 0.5946 0.9556
-13.2597 5.7665 0.7578 0.9437
-19.4891 5.8048 1.0657 0.9218
-34.6187 5.8977 1.8404 0.8688
-33.7079 -34.5102 2.5282 0.8243
-26.4005 -34.5199 2.2776 0.8402
-20.3451 -34.5518 2.1014 0.8516
-15.0854 -34.5735 1.9769 0.8598
-10.7109 -35.8028 1.9585 0.8610
-13.5408 -78.9053 4.1957 0.7257
17.3534 -89.1455 4.7596 0.6950
27.8420 -27.2606 2.0421 0.8555
51.1494 -39.2168 3.3778 0.7725
50.4195 -22.0721 2.8845 0.8022
60.2164 -18.0940 3.2952 0.7774
60.1161 -3.0339 3.1546 0.7858
51.0390 16.4498 2.8103 0.8067
27.1418 16.7629 1.6719 0.8800
4.3491 5.6582 0.3740 0.9718
2.4902 5.6697 0.3245 0.9755
1.7126 5.6744 0.3106 0.9765
-4.5429 5.7013 0.3820 0.9712
-5.8145 5.7207 0.4275 0.9679
-13.1042 5.7744 0.7505 0.9443
-19.1428 5.8026 1.0483 0.9230
-89.1328 4.7147 4.6778 0.6994
-20.5701 -34.5505 2.1073 0.8512
-12.1094 -27.3906 1.5695 0.8870
-10.7739 -35.3888 1.9387 0.8623
-4.4198 -81.6837 4.2871 0.7206
14.3348 -45.0363 2.4769 0.8275
20.4535 -44.7286 2.5776 0.8212
27.5852 -45.0299 2.7675 0.8094
-6.4113 5.7244 0.1500 0.9662
-23.1914 5.8207 0.4174 0.9088
-47.1210 -11.3839 0.8462 0.8237
-72.3504 -37.5304 1.4227 0.7218
-30.5516 -34.1346 0.7996 0.8325
-16.6031 -31.2336 0.6174 0.8680
-13.1734 -34.1817 0.6394 0.8637
-11.0750 -87.1670 1.5337 0.7036
22.4810 -93.5512 1.6794 0.6805
17.3426 -46.5582 0.8672 0.8197
25.2758 -37.1008 0.7836 0.8356
30.4010 -27.2763 0.7129 0.8493
41.2073 -21.9689 0.8151 0.8296
23.1876 5.5425 0.4161 0.9090
25.5682 9.4888 0.4760 0.8966
25.6128 13.2076 0.5030 0.8911
26.4539 23.0885 0.6129 0.8689
5.0850 5.6537 0.1327 0.9700
3.9710 5.6606 0.1207 0.9727
3.0297 5.6664 0.1122 0.9746
2.2015 5.6714 0.1062 0.9760
1.4465 5.6761 0.1022 0.9768
0.7357 5.6804 0.1000 0.9773
0.0458 5.6847 0.0992 0.9775
-0.6437 5.6889 0.0999 0.9774
-1.3528 5.6900 0.1021 0.9769
-2.0978 5.6737 0.1056 0.9761
-4.9366 5.6700 0.1312 0.9704
-6.3487 5.7240 0.1492 0.9664
-8.1542 5.7351 0.1740 0.9609
-10.6921 5.7336 0.2118 0.9526
-82.8710 -9.2758 1.4555 0.7163
-30.8611 -34.1462 0.8034 0.8318
-26.7087 -37.8770 0.8090 0.8308
-18.3659 -34.1499 0.6768 0.8563
-13.3634 -34.1805 0.6406 0.8634
-11.3231 -85.7955 1.5105 0.7074
17.1880 -46.8348 0.8708 0.8191
23.0456 -45.0924 0.8839 0.8166
25.2681 -37.4782 0.7890 0.8346
25.3270 -29.2322 0.6751 0.8566
30.1045 -27.2745 0.7091 0.8500
38.6545 -27.3270 0.8263 0.8275
41.0525 -22.1423 0.8142 0.8298
70.4618 -27.6464 1.3212 0.7387
25.5662 9.3474 0.4751 0.8968
25.6070 17.2194 0.5386 0.8839
6.5130 5.6292 0.1503 0.9661
5.1344 5.6534 0.1333 0.9699
2.2331 5.6712 0.1064 0.9759
1.4758 5.6759 0.1024 0.9768
0.7637 5.6803 0.1000 0.9773
-0.6158 5.6888 0.0999 0.9774
-2.0665 5.6735 0.1054 0.9761
-2.8850 5.6789 0.1112 0.9748
-4.8882 5.6696 0.1307 0.9705
-6.2868 5.7236 0.1484 0.9666
-14.6138 5.7748 0.2743 0.9391
-22.2630 5.8174 0.4016 0.9121
-82.8693 -8.8696 1.4547 0.7165
-77.1775 -17.8560 1.3827 0.7284
-31.1831 -34.1685 0.8074 0.8311
-26.7153 -37.4996 0.8037 0.8318
-18.5789 -34.1486 0.6786 0.8560
-10.3737 -39.5044 0.7129 0.8493
-9.8663 -72.0665 1.2697 0.7475
22.7701 -45.0908 0.8817 0.8170
25.2603 -37.8608 0.7944 0.8335
29.8112 -27.2727 0.7053 0.8507
40.9430 -22.3398 0.8141 0.8298
69.3272 -27.5894 1.3024 0.7419
81.5169 -21.5116 1.4716 0.7137
41.6665 4.3576 0.7313 0.8457
24.1955 5.5363 0.4332 0.9055
26.4511 22.6386 0.6077 0.8700
5.1843 5.6531 0.1339 0.9698
4.0530 5.6601 0.1215 0.9725
3.1004 5.6659 0.1127 0.9745
1.5051 5.6757 0.1025 0.9768
0.7916 5.6801 0.1001 0.9773
0.1009 5.6844 0.0992 0.9775
-0.5880 5.6886 0.0998 0.9774
-2.0354 5.6733 0.1052 0.9762
-3.7572 5.6610 0.1186 0.9732
-6.2256 5.7232 0.1476 0.9667
-7.9872 5.7341 0.1716 0.9614
-10.4447 5.7318 0.2080 0.9535
-14.4062 5.7735 0.2709 0.9398
-21.8181 5.8141 0.3941 0.9136
-31.4909 -34.1721 0.8111 0.8304
-13.7455 -34.1782 0.6430 0.8630
-10.3690 -38.7222 0.6997 0.8518
-9.8750 -69.6196 1.2274 0.7548
21.1151 -59.3050 1.0988 0.7774
25.2535 -38.2504 0.8000 0.8325
25.3235 -29.8065 0.6827 0.8552
37.8600 -27.3189 0.8149 0.8296
40.7303 -22.4803 0.8120 0.8302
24.7311 5.5330 0.4424 0.9036
25.5843 9.0742 0.4738 0.8971
34.6132 17.2170 0.6748 0.8567
25.9167 17.0656 0.5416 0.8833
5.2347 5.6528 0.1345 0.9696
4.0944 5.6598 0.1219 0.9724
2.2966 5.6709 0.1068 0.9758
0.1284 5.6842 0.0992 0.9775
-1.2632 5.6785 0.1015 0.9770
-3.7177 5.6607 0.1182 0.9733
-6.1650 5.7229 0.1468 0.9669
-7.9054 5.7336 0.1705 0.9617
-10.3243 5.7310 0.2061 0.9539
-21.3898 5.8110 0.3869 0.9151
-31.7938 -34.1673 0.8147 0.8297
-9.8992 -67.4406 1.1898 0.7613
31.7090 -90.4432 1.6729 0.6815
15.9001 -32.2589 0.6278 0.8660
25.2570 -38.6615 0.8061 0.8313
29.2338 -27.2691 0.6978 0.8522
81.5117 -22.3565 1.4753 0.7131
25.2798 5.5273 0.4517 0.9017
25.5826 8.9344 0.4730 0.8973
25.9457 21.7745 0.5913 0.8733
5.2773 5.6438 0.1349 0.9696
4.1361 5.6596 0.1224 0.9723
3.1718 5.6655 0.1133 0.9744
0.1559 5.6840 0.0993 0.9775
-0.5323 5.6883 0.0997 0.9774
-1.9735 5.6729 0.1048 0.9763
-2.7816 5.6782 0.1104 0.9750
-3.6783 5.6604 0.1178 0.9734
-4.7455 5.6685 0.1290 0.9709
-6.1051 5.7225 0.1461 0.9671
-10.2060 5.7301 0.2043 0.9543
-30.5141 -25.4825 0.6939 0.8530
-26.7083 -36.3605 0.7875 0.8349
-19.6102 -34.8295 0.6977 0.8522
-10.3599 -37.2412 0.6747 0.8567
-10.0828 -66.4501 1.1732 0.7642
25.2606 -39.0791 0.8122 0.8301
25.3199 -30.3940 0.6905 0.8536
39.7307 -22.4332 0.7964 0.8332
25.5810 8.7951 0.4722 0.8974
4.1781 5.6593 0.1228 0.9723
1.5935 5.6752 0.1029 0.9767
0.8759 5.6796 0.1003 0.9773
0.1835 5.6838 0.0993 0.9775
-1.9427 5.6727 0.1047 0.9763
-3.6393 5.6601 0.1175 0.9734
-6.0458 5.7221 0.1453 0.9672
-7.7452 5.7326 0.1682 0.9622
-13.8127 5.7699 0.2613 0.9419
-20.6012 5.8116 0.3736 0.9179
-71.8892 -34.6794 1.3932 0.7266
-26.7061 -35.9911 0.7823 0.8359
-10.4118 -66.4481 1.1740 0.7641
25.3180 -30.6927 0.6945 0.8528
28.6683 -27.2657 0.6906 0.8536
36.6951 -27.2974 0.7983 0.8328
65.6659 -27.6170 1.2434 0.7520
81.5065 -23.2060 1.4792 0.7125
81.6918 6.9472 1.4311 0.7204
51.0032 10.6352 0.9094 0.8119
25.5793 8.6563 0.4714 0.8976
6.0428 6.3383 0.1529 0.9656
4.2204 5.6590 0.1232 0.9722
3.2440 5.6650 0.1139 0.9742
2.3928 5.6703 0.1074 0.9757
0.9040 5.6794 0.1004 0.9773
-0.4768 5.6879 0.0996 0.9774
-1.9120 5.6725 0.1045 0.9763
-2.7136 5.6778 0.1098 0.9751
-3.6007 5.6601 0.1171 0.9735
-4.6523 5.6678 0.1280 0.9711
-9.9756 5.7285 0.2008 0.9550
-72.0756 -34.3402 1.3936 0.7266
-32.7257 -34.1600 0.8257 0.8276
-14.5185 -34.1734 0.6481 0.8620
-12.5349 -43.4270 0.7890 0.8346
-10.7412 -66.4461 1.1749 0.7639
30.2384 -90.4344 1.6644 0.6828
21.4126 -45.0826 0.8712 0.8190
26.6202 -42.0704 0.8690 0.8194
28.3901 -27.2640 0.6871 0.8543
36.3301 -27.3003 0.7932 0.8338
64.6539 -27.5607 1.2268 0.7549
81.6894 6.5489 1.4305 0.7205
25.5776 8.5180 0.4706 0.8978
2.4252 5.6701 0.1076 0.9756
1.6529 5.6748 0.1032 0.9766
0.9322 5.6792 0.1005 0.9772
-2.6798 5.6775 0.1096 0.9752
-5.9289 5.7214 0.1438 0.9676
-7.5891 5.7316 0.1660 0.9627
-19.8472 5.8070 0.3610 0.9206
-35.7008 5.9044 0.6316 0.8652
-59.0478 -27.7832 1.1391 0.7702
-20.1213 -34.5532 0.6979 0.8522
-12.6915 -43.1833 0.7856 0.8352
29.7515 -90.4314 1.6617 0.6833
21.2018 -45.2021 0.8715 0.8189
26.3808 -42.1422 0.8678 0.8196
25.3143 -31.3007 0.7027 0.8513
35.9699 -27.3030 0.7882 0.8347
63.7836 -27.5553 1.2128 0.7573
81.6869 6.1509 1.4299 0.7206
53.3997 10.5966 0.9503 0.8043
26.9642 16.8341 0.5549 0.8806
6.0928 6.2682 0.1526 0.9656
4.3059 5.6585 0.1241 0.9720
1.6827 5.6746 0.1033 0.9766
0.9604 5.6791 0.1005 0.9772
-0.4213 5.6876 0.0995 0.9774
-1.8509 5.6721 0.1041 0.9764
-3.5263 5.6636 0.1165 0.9737
-4.5606 5.6671 0.1270 0.9713
-5.8714 5.7211 0.1431 0.9677
-9.7528 5.7269 0.1974 0.9558
-34.6187 5.8977 0.6130 0.8689
-56.4560 -26.2307 1.0866 0.7795
-33.3696 -34.1639 0.8336 0.8261
-13.8355 -18.0906 0.3975 0.9129
-20.3450 -34.5518 0.6999 0.8518
-14.9098 -34.1710 0.6508 0.8614
28.0692 -86.7312 1.5912 0.6944
21.1984 -45.7698 0.8804 0.8173
26.0961 -42.1395 0.8652 0.8201
25.3124 -31.6100 0.7069 0.8504
27.8420 -27.2606 0.6801 0.8557
35.6142 -27.3058 0.7833 0.8357
62.9330 -27.5501 1.1991 0.7597
54.7459 10.5883 0.9733 0.8001
37.2570 17.2007 0.7163 0.8486
27.2541 16.8323 0.5591 0.8797
6.1178 6.2332 0.1524 0.9657
4.3491 5.6582 0.1246 0.9719
0.9887 5.6789 0.1006 0.9772
0.2937 5.6832 0.0993 0.9775
-0.3936 5.6874 0.0995 0.9775
-1.0916 5.6807 0.1010 0.9771
-5.8145 5.7207 0.1424 0.9679
-13.1042 5.7744 0.2500 0.9443
-33.5987 5.8915 0.5954 0.8724
-89.1632 4.7163 1.5585 0.6996
-72.0936 -33.0726 1.3845 0.7281
-33.7059 -34.1758 0.8379 0.8253
-15.1066 -34.1698 0.6521 0.8612
-12.6821 -41.6564 0.7601 0.8401
-11.7330 -66.4400 1.1777 0.7634
21.1949 -46.3497 0.8896 0.8155
-4.9541 5.6348 -0.1310 0.9704
-6.4113 5.7244 -0.1500 0.9662
-8.2394 5.7356 -0.1752 0.9606
-89.3723 11.2453 -1.5723 0.6974
-47.1000 -11.3788 -0.8458 0.8238
-66.5156 -34.5037 -1.3079 0.7410
-70.2723 -47.9993 -1.4854 0.7114
-15.4648 -22.1586 -0.4717 0.8975
-7.5097 -29.7681 -0.5359 0.8844
-6.9461 -54.6699 -0.9619 0.8021
25.3288 -28.9498 -0.6714 0.8574
88.3139 -22.3929 -1.5903 0.6946
43.2033 4.9417 -0.7590 0.8403
23.1876 5.5425 -0.4161 0.9090
25.5682 9.4888 -0.4760 0.8966
25.9201 17.6128 -0.5470 0.8822
26.4539 23.0885 -0.6129 0.8689
5.0850 5.6537 -0.1327 0.9700
3.0297 5.6664 -0.1122 0.9746
-1.3528 5.6900 -0.1021 0.9769
-2.9122 5.6642 -0.1112 0.9748
-4.9057 5.6346 -0.1304 0.9706
-8.1542 5.7351 -0.1740 0.9609
-10.6389 5.7051 -0.2107 0.9529
-14.8268 5.7761 -0.2777 0.9383
-63.8261 0.5918 -1.1141 0.7746
-47.2861 -11.1818 -0.8481 0.8233
-81.8951 -30.1673 -1.5234 0.7053
-15.6240 -22.1573 -0.4732 0.8972
-7.6850 -29.8530 -0.5381 0.8840
-7.0211 -53.1989 -0.9366 0.8068
17.1110 -46.6250 -0.8669 0.8198
25.3270 -29.2322 -0.6751 0.8566
30.1045 -27.2745 -0.7091 0.8500
38.6545 -27.3270 -0.8263 0.8275
42.6738 -23.0168 -0.8463 0.8237
70.4618 -27.6465 -1.3212 0.7387
25.6070 17.2194 -0.5386 0.8839
3.0650 5.6661 -0.1124 0.9746
