ply
format ascii 1.0
element vertex 1557
property float32 x
property float32 y
property float32 z
property float32 I
end_header
-6.5199 -30.8249 -1.6512 0.8814
12.9217 -45.9500 -2.5015 0.8260
25.7128 -34.8203 -2.2685 0.8408
25.9674 -27.5020 -1.9823 0.8594
30.5555 -25.3961 -2.0822 0.8529
37.6729 -24.2964 -2.3493 0.8356
47.6086 1.4484 -2.4962 0.8263
20.7677 8.5936 -1.1779 0.9139
20.8201 11.7277 -1.2523 0.9087
20.8896 15.3474 -1.3585 0.9014
6.6378 6.2369 -0.4773 0.9642
2.7701 5.6679 -0.3306 0.9750
1.9682 5.6729 -0.3147 0.9762
0.5280 5.6817 -0.2990 0.9774
-0.1591 5.6860 -0.2981 0.9775
-0.8513 5.6857 -0.3013 0.9772
-1.5599 5.6524 -0.3073 0.9768
-4.0920 5.5982 -0.3634 0.9726
-5.3464 5.7178 -0.4102 0.9691
-8.7926 5.7314 -0.5501 0.9588
-11.4484 5.6297 -0.6686 0.9502
-16.5264 5.7789 -0.9175 0.9323
-25.9165 5.6796 -1.3905 0.8992
-27.9943 -0.7154 -1.4676 0.8939
-44.3500 -6.5300 -2.3493 0.8356
-44.3752 -12.1302 -2.4109 0.8317
-44.1937 -18.0357 -2.5015 0.8260
-41.7018 -23.2235 -2.5015 0.8260
-32.8183 -30.5372 -2.3493 0.8356
-19.0244 -22.5524 -1.5463 0.8885
-14.4439 -22.0413 -1.3811 0.8998
-11.5839 -23.4124 -1.3690 0.9007
-8.7102 -24.7167 -1.3734 0.9004
-6.7582 -30.4830 -1.6363 0.8824
-4.0629 -41.5270 -2.1867 0.8461
1.1031 -47.7195 -2.5015 0.8260
12.4738 -46.0736 -2.5015 0.8260
16.0264 -39.5446 -2.2362 0.8429
21.7151 -39.2176 -2.3493 0.8356
37.4346 -24.6620 -2.3493 0.8356
47.4940 -4.7636 -2.5015 0.8260
47.7221 0.9870 -2.5015 0.8260
41.5518 5.9116 -2.1996 0.8453
20.3364 5.4528 -1.1034 0.9191
20.8153 11.4595 -1.2453 0.9092
4.8180 5.6554 -0.3894 0.9707
3.7499 5.6619 -0.3559 0.9732
-3.0797 5.6264 -0.3362 0.9746
-8.6124 5.7341 -0.5422 0.9594
-16.0371 5.7835 -0.8935 0.9340
-45.0566 4.7407 -2.3743 0.8340
-29.9715 -0.4740 -1.5709 0.8869
-33.1140 -30.2163 -2.3493 0.8356
-19.5385 -22.7096 -1.5700 0.8869
-14.7481 -22.0345 -1.3896 0.8992
-11.7802 -23.2374 -1.3654 0.9009
-6.8719 -29.6282 -1.5940 0.8853
-4.7992 -44.5705 -2.3493 0.8356
6.3781 -47.3042 -2.5015 0.8260
21.3324 -39.4271 -2.3493 0.8356
25.7039 -36.2648 -2.3295 0.8369
25.9608 -28.5899 -2.0239 0.8567
31.4337 -27.1778 -2.1777 0.8467
32.9216 -16.7904 -1.9368 0.8624
47.4454 -5.2256 -2.5015 0.8260
20.8106 11.1944 -1.2384 0.9097
20.8770 14.7211 -1.3388 0.9027
3.8293 5.6614 -0.3582 0.9730
2.9077 5.6671 -0.3338 0.9748
2.0925 5.6721 -0.3168 0.9761
1.3458 5.6767 -0.3057 0.9769
0.6397 5.6811 -0.2996 0.9774
-0.7372 5.6763 -0.3000 0.9773
-2.1928 5.6461 -0.3174 0.9760
-3.9269 5.5979 -0.3584 0.9730
-5.1403 5.7166 -0.4029 0.9697
-29.9224 -0.1820 -1.5682 0.8870
-44.5364 -17.1721 -2.5015 0.8260
-42.1460 -22.4073 -2.5015 0.8260
-39.1429 -27.3168 -2.5015 0.8260
-33.4066 -29.8925 -2.3493 0.8356
-14.8970 -21.7951 -1.3836 0.8997
-9.1756 -24.5047 -1.3713 0.9005
5.9174 -47.3641 -2.5015 0.8260
11.5747 -46.3076 -2.5015 0.8260
16.0255 -41.8658 -2.3493 0.8356
23.2299 -33.4598 -2.1347 0.8495
25.8654 -29.0479 -2.0384 0.8557
36.9475 -25.3859 -2.3493 0.8356
39.7342 -20.7547 -2.3493 0.8356
40.1079 -15.1295 -2.2465 0.8422
20.7571 7.8876 -1.1637 0.9149
20.8709 14.4147 -1.3293 0.9034
5.0101 5.6542 -0.3959 0.9702
2.9775 5.6667 -0.3355 0.9747
2.1553 5.6717 -0.3180 0.9760
0.6957 5.6807 -0.2999 0.9773
0.0069 5.6849 -0.2979 0.9775
-2.9424 5.6331 -0.3331 0.9749
-3.8460 5.5977 -0.3559 0.9732
-5.0400 5.7159 -0.3994 0.9699
-6.4288 5.7245 -0.4511 0.9661
-8.2616 5.7358 -0.5271 0.9605
-7.8302 2.9973 -0.4394 0.9670
-22.6349 5.6577 -1.2227 0.9108
-45.0708 0.1648 -2.3621 0.8348
-42.3621 -21.9959 -2.5015 0.8260
-20.4059 -22.8044 -1.6037 0.8846
-12.2903 -23.1164 -1.3721 0.9004
-7.2125 -28.5590 -1.5437 0.8887
-3.6581 -28.7098 -1.5168 0.8905
15.6740 -42.1728 -2.3579 0.8351
20.5608 -39.8349 -2.3493 0.8356
30.2156 -27.1703 -2.1296 0.8498
36.6986 -25.7444 -2.3493 0.8356
46.2507 -11.8003 -2.5015 0.8260
47.7306 -0.4068 -2.5015 0.8260
23.3750 5.5413 -1.2590 0.9083
20.7537 7.6559 -1.1593 0.9152
20.8016 10.6727 -1.2253 0.9106
6.8446 5.9469 -0.4752 0.9643
3.0480 5.6662 -0.3372 0.9746
2.2185 5.6713 -0.3192 0.9759
0.0623 5.6846 -0.2979 0.9775
-0.6250 5.6751 -0.2992 0.9774
-3.7662 5.5975 -0.3536 0.9733
-4.9414 5.7153 -0.3960 0.9702
-8.0908 5.7347 -0.5197 0.9611
-5.3937 2.9184 -0.3214 0.9757
-21.9036 5.7021 -1.1862 0.9133
-45.0903 0.6037 -2.3633 0.8347
-44.5705 -4.7988 -2.3493 0.8356
-44.8622 -16.3019 -2.5015 0.8260
-42.5742 -21.5826 -2.5015 0.8260
-39.6672 -26.5496 -2.5015 0.8260
-33.9822 -29.2365 -2.3493 0.8356
-15.7403 -22.0930 -1.4216 0.8970
-12.5064 -22.9805 -1.3712 0.9005
-9.6270 -24.2611 -1.3679 0.9007
-7.3237 -27.8545 -1.5094 0.8910
4.9942 -47.4703 -2.5015 0.8260
15.6519 -43.4021 -2.4180 0.8313
16.3088 -32.3661 -1.8994 0.8649
24.8435 -37.3143 -2.3493 0.8356
25.7420 -30.0681 -2.0744 0.8534
36.4463 -26.1004 -2.3493 0.8356
47.7243 -0.8713 -2.5015 0.8260
44.5934 4.5819 -2.3493 0.8356
20.7972 10.4161 -1.2190 0.9110
20.8591 13.8147 -1.3112 0.9046
6.8960 5.8748 -0.4748 0.9644
4.0741 5.6599 -0.3655 0.9725
3.1127 5.6539 -0.3382 0.9745
0.8081 5.6800 -0.3007 0.9773
0.1176 5.6843 -0.2980 0.9775
-3.6875 5.5973 -0.3513 0.9735
-10.2503 5.6758 -0.6140 0.9542
-14.2432 5.7725 -0.8054 0.9403
-21.2151 5.7439 -1.1519 0.9157
-30.7116 4.4459 -1.6263 0.8831
-44.6095 -4.3643 -2.3490 0.8357
-45.0188 -15.8645 -2.5015 0.8260
-42.7822 -21.1672 -2.5015 0.8260
-2.6422 5.6333 -0.5444 0.9753
-4.4992 5.5653 -0.6261 0.9717
-7.5448 5.7313 -0.8289 0.9627
-9.7292 5.6875 -0.9860 0.9558
-13.3283 5.7669 -1.2705 0.9434
-19.6182 5.8056 -1.7899 0.9211
-26.4792 4.4656 -2.3493 0.8978
-26.8242 1.2463 -2.3493 0.8978
-28.4337 -2.1141 -2.4945 0.8918
-25.9161 -12.0789 -2.5015 0.8915
-16.2955 -21.3435 -2.3493 0.8978
-13.0791 -22.2491 -2.2580 0.9016
-10.3269 -23.7087 -2.2625 0.9014
-7.6825 -25.7307 -2.3493 0.8978
5.4681 -28.0650 -2.5015 0.8915
12.0159 -25.9454 -2.5015 0.8915
16.8831 -21.0928 -2.3637 0.8972
19.1815 -18.7925 -2.3493 0.8978
22.5898 -17.3343 -2.4912 0.8920
26.1861 -11.4819 -2.5015 0.8915
27.3776 -8.2469 -2.5015 0.8915
12.2574 5.6405 -1.1805 0.9473
7.0494 5.6144 -0.7884 0.9645
5.5632 5.6508 -0.6938 0.9687
4.3637 5.6582 -0.6251 0.9717
3.3669 5.6643 -0.5765 0.9739
-0.3811 5.6873 -0.4987 0.9774
-1.7959 5.6413 -0.5180 0.9765
-2.5757 5.6334 -0.5419 0.9754
-5.7823 5.7205 -0.7116 0.9679
-9.5310 5.6968 -0.9714 0.9564
-26.4345 4.7231 -2.3493 0.8978
-26.8108 1.5074 -2.3493 0.8978
-27.7291 -1.7904 -2.4310 0.8944
-26.0324 -11.8261 -2.5015 0.8915
-24.4199 -14.8732 -2.5015 0.8915
-16.5025 -21.1839 -2.3493 0.8978
1.7730 -28.5377 -2.5015 0.8915
5.1946 -28.1169 -2.5015 0.8915
11.7627 -26.0611 -2.5015 0.8915
14.8137 -24.4560 -2.5015 0.8915
16.7442 -21.3418 -2.3733 0.8968
18.9977 -18.9783 -2.3493 0.8978
22.1953 -17.3774 -2.4662 0.8930
26.0731 -11.7362 -2.5015 0.8915
28.5395 -1.7439 -2.5015 0.8915
26.9452 1.6082 -2.3616 0.8973
21.0908 6.5450 -1.9320 0.9151
21.5676 12.9925 -2.2029 0.9038
21.4681 16.7591 -2.3828 0.8964
5.6719 5.6501 -0.7004 0.9684
4.4518 5.6576 -0.6298 0.9715
2.5685 5.6692 -0.5445 0.9753
1.0574 5.6785 -0.5053 0.9771
-1.0204 5.6777 -0.5047 0.9771
-1.7365 5.6441 -0.5166 0.9766
-2.5096 5.6332 -0.5395 0.9755
-3.3536 5.5978 -0.5709 0.9741
-4.3229 5.5655 -0.6165 0.9721
-5.6702 5.7198 -0.7046 0.9682
-12.1308 5.5316 -1.1664 0.9479
-18.2750 5.7973 -1.6774 0.9259
-27.3490 -8.3413 -2.5015 0.8915
-26.1463 -11.5721 -2.5015 0.8915
-19.1165 -18.8586 -2.3493 0.8978
-16.7079 -21.0222 -2.3493 0.8978
-8.0069 -25.0288 -2.2991 0.8999
4.9207 -28.1661 -2.5015 0.8915
14.5750 -24.5991 -2.5015 0.8915
16.6151 -21.6070 -2.3846 0.8963
18.8120 -19.1624 -2.3493 0.8978
21.8334 -17.4395 -2.4447 0.8939
25.9576 -11.9894 -2.5015 0.8915
27.2119 -8.7783 -2.5015 0.8915
28.0706 -5.4395 -2.5015 0.8915
28.5212 -2.0216 -2.5015 0.8915
28.5013 1.4228 -2.4966 0.8917
26.4636 4.5569 -2.3493 0.8978
21.0994 6.3232 -1.9271 0.9154
12.8762 5.6241 -1.2293 0.9451
21.6230 16.5438 -2.3820 0.8964
5.7827 5.6494 -0.7073 0.9681
4.5412 5.6571 -0.6347 0.9713
3.5174 5.6634 -0.5833 0.9736
2.6351 5.6688 -0.5469 0.9752
0.4167 5.6824 -0.4985 0.9774
-0.2700 5.6866 -0.4981 0.9774
-0.9639 5.6804 -0.5041 0.9771
-1.6773 5.6469 -0.5154 0.9766
-4.2368 5.5656 -0.6120 0.9723
-5.5602 5.7191 -0.6979 0.9685
-7.1008 5.7286 -0.7982 0.9640
-9.1514 5.7146 -0.9439 0.9576
-17.6648 5.7935 -1.6265 0.9281
-26.3385 5.2370 -2.3494 0.8978
-26.7763 2.0289 -2.3493 0.8978
-27.4289 -8.0748 -2.5015 0.8915
-26.2577 -11.3171 -2.5015 0.8915
-24.7048 -14.3950 -2.5015 0.8915
-19.6401 -19.0015 -2.3908 0.8961
-13.7465 -21.8951 -2.2618 0.9014
-8.9449 -19.0006 -1.8373 0.9191
-5.3008 -26.3247 -2.3493 0.8978
1.2171 -28.5668 -2.5015 0.8915
4.6463 -28.2127 -2.5015 0.8915
11.2532 -26.2852 -2.5015 0.8915
14.3349 -24.7398 -2.5015 0.8915
16.4846 -21.8747 -2.3964 0.8959
28.0163 -5.7124 -2.5015 0.8915
28.5002 -2.2991 -2.5015 0.8915
21.6586 6.2617 -1.9725 0.9134
13.2245 5.6236 -1.2573 0.9439
21.7756 16.3271 -2.3812 0.8965
6.5857 6.3099 -0.7980 0.9640
3.5939 5.6629 -0.5868 0.9734
2.7023 5.6684 -0.5494 0.9751
1.9066 5.6733 -0.5236 0.9763
-0.9076 5.6830 -0.5035 0.9772
-1.6185 5.6496 -0.5142 0.9767
-3.2113 5.6049 -0.5651 0.9744
-6.9600 5.7278 -0.7886 0.9645
-8.9696 5.7231 -0.9309 0.9582
-11.6130 5.5710 -1.1269 0.9496
-26.8364 -0.9472 -2.3493 0.8978
-28.2459 -4.4402 -2.5015 0.8915
-26.3666 -11.0610 -2.5015 0.8915
-24.8438 -14.1539 -2.5015 0.8915
-22.9598 -17.0409 -2.5015 0.8915
-8.4386 -24.7102 -2.2844 0.9005
-5.5568 -26.2718 -2.3493 0.8978
-2.5071 -28.4826 -2.5015 0.8915
4.3715 -28.2566 -2.5015 0.8915
7.7404 -27.5251 -2.5015 0.8915
10.9968 -26.3935 -2.5015 0.8915
14.0934 -24.8781 -2.5015 0.8915
18.4354 -19.5249 -2.3493 0.8978
21.1755 -17.6000 -2.4090 0.8953
24.0289 -15.4970 -2.5015 0.8915
25.7193 -12.4924 -2.5015 0.8915
27.9594 -5.9849 -2.5015 0.8915
28.4764 -2.5764 -2.5015 0.8915
13.5891 5.6231 -1.2867 0.9427
21.2121 11.9485 -2.1300 0.9069
4.7242 5.6559 -0.6447 0.9708
2.7701 5.6679 -0.5519 0.9750
1.9682 5.6729 -0.5253 0.9762
1.2297 5.6774 -0.5082 0.9769
-0.8513 5.6857 -0.5030 0.9772
-1.5599 5.6524 -0.5130 0.9767
-2.3147 5.6324 -0.5328 0.9758
-4.0683 5.5658 -0.6032 0.9727
-5.3464 5.7178 -0.6849 0.9691
-11.3630 5.5878 -1.1078 0.9504
-16.5264 5.7789 -1.5317 0.9321
-26.2502 5.7527 -2.3511 0.8977
-26.7318 2.5498 -2.3493 0.8978
-28.2878 -4.1651 -2.5015 0.8915
-26.4731 -10.8038 -2.5015 0.8915
-24.9803 -13.9114 -2.5015 0.8915
-20.8573 -19.4076 -2.4926 0.8919
-17.3146 -20.5254 -2.3493 0.8978
-8.6655 -24.5898 -2.2810 0.9006
-2.7822 -28.4369 -2.4998 0.8916
0.6608 -28.5851 -2.5015 0.8915
4.0963 -28.2978 -2.5015 0.8915
7.4721 -27.5991 -2.5015 0.8915
13.8505 -25.0142 -2.5015 0.8915
18.2445 -19.7034 -2.3493 0.8978
20.8721 -17.6940 -2.3939 0.8960
23.8769 -15.7302 -2.5015 0.8915
25.5966 -12.7421 -2.5015 0.8915
26.9440 -9.5690 -2.5015 0.8915
28.5866 0.5912 -2.5015 0.8915
19.5979 5.2547 -1.7752 0.9218
21.2050 11.6741 -2.1178 0.9074
21.2716 15.3114 -2.2930 0.9001
6.6896 6.1642 -0.7958 0.9641
3.7499 5.6619 -0.5941 0.9731
2.8386 5.6675 -0.5546 0.9749
1.2876 5.6771 -0.5093 0.9769
-0.1038 5.6856 -0.4975 0.9774
-0.7935 5.6762 -0.5014 0.9772
-3.0717 5.6119 -0.5597 0.9746
-8.6124 5.7341 -0.9052 0.9593
-5.4894 2.7662 -0.5378 0.9756
-26.8497 -0.4246 -2.3493 0.8978
-26.5769 -10.5457 -2.5015 0.8915
-25.1146 -13.6676 -2.5015 0.8915
-23.2871 -16.5908 -2.5015 0.8915
-17.5135 -20.3560 -2.3493 0.8978
-8.8919 -24.4697 -2.2778 0.9007
-6.0672 -26.1587 -2.3493 0.8978
-3.0533 -28.3561 -2.4952 0.8918
0.3825 -28.5902 -2.5015 0.8915
3.8206 -28.3363 -2.5015 0.8915
10.4810 -26.6025 -2.5015 0.8915
13.6064 -25.1478 -2.5015 0.8915
16.1505 -22.7862 -2.4435 0.8939
18.0519 -19.8801 -2.3493 0.8978
20.5892 -17.8016 -2.3813 0.8965
23.7227 -15.9618 -2.5015 0.8915
26.8496 -9.8308 -2.5015 0.8915
28.5910 0.3130 -2.5015 0.8915
21.9466 2.9048 -1.9368 0.9149
14.4161 5.6392 -1.3543 0.9397
21.1981 11.4028 -2.1059 0.9079
4.9133 5.6548 -0.6554 0.9704
3.8293 5.6614 -0.5980 0.9729
2.9077 5.6671 -0.5573 0.9747
-1.4435 5.6579 -0.5109 0.9768
-2.1873 5.6319 -0.5286 0.9760
-8.4308 5.7324 -0.8920 0.9599
-7.8749 2.9269 -0.7350 0.9668
-26.6771 3.0696 -2.3493 0.8978
-26.8526 -0.1633 -2.3493 0.8978
-26.6783 -10.2865 -2.5015 0.8915
-25.2464 -13.4225 -2.5015 0.8915
-23.4476 -16.3629 -2.5015 0.8915
-21.3077 -19.0664 -2.5015 0.8915
-17.7108 -20.1845 -2.3493 0.8978
-11.8823 -22.8838 -2.2559 0.9016
-9.1177 -24.3500 -2.2748 0.9009
0.1043 -28.5925 -2.5015 0.8915
10.2216 -26.7033 -2.5015 0.8915
20.3173 -17.9150 -2.3699 0.8969
25.3437 -13.2380 -2.5015 0.8915
26.7526 -10.0916 -2.5015 0.8915
28.3891 -3.4067 -2.5015 0.8915
28.5927 0.0347 -2.5015 0.8915
21.1198 8.0255 -1.9766 0.9133
21.1913 11.1346 -2.0943 0.9084
21.2677 14.6888 -2.2613 0.9014
6.7930 6.0192 -0.7941 0.9642
5.0101 5.6542 -0.6609 0.9701
2.1553 5.6717 -0.5308 0.9759
0.0069 5.6849 -0.4974 0.9774
-1.3856 5.6606 -0.5099 0.9769
-3.8296 5.5738 -0.5917 0.9732
-5.0400 5.7159 -0.6667 0.9699
-6.4288 5.7245 -0.7531 0.9660
-5.3744 2.8406 -0.5318 0.9759
-7.8287 2.9968 -0.7334 0.9669
-22.0516 5.5120 -1.9886 0.9128
-27.7892 -6.7308 -2.5015 0.8915
-26.7772 -10.0263 -2.5015 0.8915
-23.6057 -16.1343 -2.5015 0.8915
-15.3435 -21.9858 -2.3456 0.8979
-12.1041 -22.7662 -2.2558 0.9016
-6.5753 -26.0356 -2.3493 0.8978
-3.3941 -26.6377 -2.3493 0.8978
-0.1741 -28.5922 -2.5015 0.8915
6.6631 -27.8055 -2.5015 0.8915
9.9611 -26.8015 -2.5015 0.8915
17.6614 -20.2277 -2.3493 0.8978
20.0556 -18.0343 -2.3597 0.8974
23.4075 -16.4206 -2.5015 0.8915
25.2136 -13.4841 -2.5015 0.8915
27.7052 -7.0687 -2.5015 0.8915
28.3546 -3.6829 -2.5015 0.8915
28.5917 -0.2437 -2.5015 0.8915
23.3750 5.5413 -2.1017 0.9080
21.1149 7.7892 -1.9690 0.9136
21.2659 14.3837 -2.2461 0.9020
5.1087 5.6536 -0.6666 0.9699
3.9914 5.6604 -0.6060 0.9726
3.0480 5.6662 -0.5629 0.9745
1.4629 5.6760 -0.5128 0.9767
0.7519 5.6804 -0.5013 0.9773
0.0623 5.6846 -0.4974 0.9774
-0.6250 5.6751 -0.4995 0.9773
-1.3280 5.6633 -0.5089 0.9769
-2.0619 5.6314 -0.5247 0.9762
-2.8673 5.6221 -0.5521 0.9750
-6.3033 5.7237 -0.7449 0.9664
-5.3937 2.9184 -0.5365 0.9757
-21.5386 5.6071 -1.9472 0.9145
-26.8735 -9.7652 -2.5015 0.8915
-25.5029 -12.9285 -2.5015 0.8915
-23.7616 -15.9038 -2.5015 0.8915
-21.6749 -18.6479 -2.5015 0.8915
-12.3258 -22.6486 -2.2559 0.9016
-9.5676 -24.1114 -2.2695 0.9011
-3.6532 -26.6034 -2.3493 0.8978
9.6998 -26.8972 -2.5015 0.8915
12.8664 -25.5343 -2.5015 0.8915
15.8096 -23.7456 -2.4958 0.8918
17.4638 -20.3986 -2.3493 0.8978
25.0811 -13.7289 -2.5015 0.8915
27.6351 -7.3380 -2.5015 0.8915
28.3174 -3.9587 -2.5015 0.8915
28.5880 -0.5219 -2.5015 0.8915
26.7124 2.7447 -2.3493 0.8978
21.1102 7.5549 -1.9616 0.9139
21.1782 10.6069 -2.0722 0.9093
5.2090 5.6530 -0.6725 0.9696
4.0741 5.6599 -0.6101 0.9724
2.2823 5.6709 -0.5348 0.9758
0.8081 5.6800 -0.5019 0.9772
-0.5691 5.6749 -0.4990 0.9774
-1.2706 5.6660 -0.5080 0.9770
-2.8003 5.6254 -0.5498 0.9751
-3.6770 5.5815 -0.5848 0.9735
-6.1805 5.7230 -0.7369 0.9667
-7.9247 5.7337 -0.8558 0.9615
-10.2280 5.6635 -1.0229 0.9541
-14.2432 5.7725 -1.3446 0.9402
-21.0467 5.6983 -1.9076 0.9162
-26.8459 0.6208 -2.3493 0.8978
-28.4569 -2.7840 -2.5015 0.8915
-27.9150 -6.1886 -2.5015 0.8915
-26.9673 -9.5032 -2.5015 0.8915
-21.8553 -18.4361 -2.5015 0.8915
-1.8556 5.6385 -0.7288 0.9764
-3.4895 5.5755 -0.8076 0.9738
-9.5991 5.6114 -1.3652 0.9562
-19.9879 -3.9449 -2.5015 0.9212
-19.3678 -6.3217 -2.5015 0.9212
-18.4662 -8.6067 -2.5015 0.9212
-17.2962 -10.7666 -2.5015 0.9212
-15.8747 -12.7699 -2.5015 0.9212
-10.3135 -17.5445 -2.4988 0.9213
-5.8287 -19.5218 -2.5015 0.9212
1.4612 -20.3210 -2.5015 0.9212
6.2746 -19.3831 -2.5015 0.9212
12.7312 -15.9057 -2.5015 0.9212
16.1632 -12.4028 -2.5015 0.9212
18.6586 -8.1812 -2.5015 0.9212
19.5076 -5.8762 -2.5015 0.9212
20.0730 -3.4858 -2.5015 0.9212
20.3466 -1.0446 -2.5015 0.9212
18.7896 3.6134 -2.3493 0.9258
18.2181 5.8485 -2.3493 0.9258
7.0494 5.6144 -1.1065 0.9643
2.5024 5.6696 -0.7609 0.9753
1.7243 5.6744 -0.7282 0.9764
0.3056 5.6831 -0.6988 0.9773
-1.0771 5.6750 -0.7092 0.9770
-2.5691 5.6189 -0.7586 0.9754
-7.3930 5.7304 -1.1485 0.9630
-18.8356 3.3654 -2.3493 0.9258
-20.3311 -1.3128 -2.5015 0.9212
-20.0253 -3.7501 -2.5015 0.9212
-19.4284 -6.1329 -2.5015 0.9212
-18.5491 -8.4265 -2.5015 0.9212
-17.4001 -10.5977 -2.5015 0.9212
-12.5204 -16.0722 -2.5015 0.9212
-10.4872 -17.4491 -2.4997 0.9212
-6.0185 -19.4642 -2.5015 0.9212
-1.1931 -20.3385 -2.5015 0.9212
1.2633 -20.3342 -2.5015 0.9212
10.5554 -17.4259 -2.5015 0.9212
14.4135 -14.3988 -2.5015 0.9212
19.4495 -6.0658 -2.5015 0.9212
20.3355 -1.2426 -2.5015 0.9212
20.3263 1.2132 -2.5002 0.9212
17.4605 7.8297 -2.3496 0.9258
4.4518 5.6576 -0.8839 0.9714
3.4417 5.6638 -0.8138 0.9736
2.5685 5.6692 -0.7642 0.9752
1.0574 5.6785 -0.7092 0.9770
0.3611 5.6828 -0.6992 0.9773
-1.0204 5.6777 -0.7083 0.9770
-2.5032 5.6187 -0.7553 0.9755
-4.2982 5.5336 -0.8603 0.9722
-7.2451 5.7295 -1.1341 0.9635
-9.2282 5.6385 -1.3278 0.9574
-18.8019 3.5486 -2.3493 0.9258
-20.0609 -3.5550 -2.5015 0.9212
-18.6303 -8.2456 -2.5015 0.9212
-17.5025 -10.4278 -2.5015 0.9212
-16.1203 -12.4585 -2.5015 0.9212
-10.6608 -17.3531 -2.5007 0.9212
-8.4739 -18.4643 -2.4945 0.9214
-3.8272 -20.0107 -2.5015 0.9212
3.5062 -20.0695 -2.5015 0.9212
8.2002 -18.6503 -2.5015 0.9212
10.3852 -17.5278 -2.5015 0.9212
12.4192 -16.1505 -2.5015 0.9212
17.3332 -10.7068 -2.5015 0.9212
20.3224 -1.4405 -2.5015 0.9212
20.3481 1.0158 -2.5015 0.9212
17.5342 7.6587 -2.3493 0.9258
9.6207 5.6687 -1.3711 0.9560
5.7827 5.6494 -0.9926 0.9679
3.5174 5.6634 -0.8186 0.9735
2.6351 5.6688 -0.7676 0.9751
1.8455 5.6736 -0.7326 0.9762
1.1146 5.6781 -0.7105 0.9769
-0.9639 5.6804 -0.7074 0.9770
-3.2734 5.5866 -0.7950 0.9742
-11.5956 5.4244 -1.5718 0.9497
-18.1810 5.9628 -2.3493 0.9258
-20.0945 -3.3596 -2.5015 0.9212
-12.8309 -15.8254 -2.5015 0.9212
-8.6534 -18.3814 -2.4945 0.9214
-4.0217 -19.9725 -2.5015 0.9212
0.8673 -20.3549 -2.5015 0.9212
3.3107 -20.1026 -2.5015 0.9212
5.7060 -19.5581 -2.5015 0.9212
8.0183 -18.7292 -2.5015 0.9212
12.2614 -16.2706 -2.5015 0.9212
18.4118 -8.7225 -2.5015 0.9212
19.3277 -6.4433 -2.5015 0.9212
19.9627 -4.0703 -2.5015 0.9212
20.3570 0.8177 -2.5015 0.9212
18.8870 3.0633 -2.3493 0.9258
7.7824 5.8351 -1.1943 0.9616
6.5857 6.3099 -1.1199 0.9639
3.5939 5.6629 -0.8235 0.9733
2.7023 5.6684 -0.7710 0.9750
1.1721 5.6778 -0.7118 0.9769
0.4723 5.6821 -0.7001 0.9773
-0.9076 5.6830 -0.7066 0.9771
-1.6185 5.6496 -0.7216 0.9766
-2.3731 5.6184 -0.7489 0.9757
-4.1344 5.5421 -0.8490 0.9725
-6.9600 5.7278 -1.1068 0.9643
-11.4175 5.4772 -1.5549 0.9502
-18.7293 3.9139 -2.3493 0.9258
-20.3608 -0.7186 -2.5015 0.9212
-20.1263 -3.1638 -2.5015 0.9212
-18.7872 -7.8814 -2.5015 0.9212
-17.7021 -10.0852 -2.5015 0.9212
-12.9844 -15.6998 -2.5015 0.9212
-11.0005 -17.1483 -2.5015 0.9212
-6.5785 -19.2636 -2.4994 0.9212
-1.7864 -20.2950 -2.5015 0.9212
3.1148 -20.1339 -2.5015 0.9212
7.8356 -18.8064 -2.5015 0.9212
10.0421 -17.7266 -2.5015 0.9212
13.9870 -14.8135 -2.5015 0.9212
19.2641 -6.6311 -2.5015 0.9212
19.9221 -4.2644 -2.5015 0.9212
20.2905 -1.8358 -2.5015 0.9212
18.9160 2.8793 -2.3493 0.9258
17.6800 7.3159 -2.3493 0.9258
6.6378 6.2369 -1.1183 0.9640
4.7242 5.6559 -0.9048 0.9707
3.6714 5.6624 -0.8286 0.9732
2.7701 5.6679 -0.7746 0.9749
1.9682 5.6729 -0.7373 0.9761
0.5280 5.6817 -0.7006 0.9773
-1.5599 5.6524 -0.7200 0.9766
-3.1330 5.5938 -0.7872 0.9745
-4.0541 5.5463 -0.8435 0.9727
-6.8226 5.7269 -1.0937 0.9647
-18.6903 4.0959 -2.3493 0.9258
-20.3668 -0.5205 -2.5015 0.9212
-20.1561 -2.9678 -2.5015 0.9212
-18.8631 -7.6982 -2.5015 0.9212
-16.4771 -11.9825 -2.5015 0.9212
-14.9152 -13.8785 -2.5015 0.9212
-13.1366 -15.5727 -2.5015 0.9212
-6.7635 -19.1925 -2.4986 0.9213
-4.4098 -19.8904 -2.5015 0.9212
-1.9838 -20.2766 -2.5015 0.9212
2.9188 -20.1633 -2.5015 0.9212
11.9424 -16.5062 -2.5015 0.9212
15.5407 -13.1744 -2.5015 0.9212
18.2385 -9.0792 -2.5015 0.9212
19.8797 -4.4581 -2.5015 0.9212
20.2717 -2.0332 -2.5015 0.9212
20.3691 0.4213 -2.5015 0.9212
7.8413 5.6442 -1.1863 0.9618
4.8180 5.6554 -0.9122 0.9705
2.8386 5.6675 -0.7783 0.9748
2.0301 5.6725 -0.7398 0.9760
-0.1038 5.6856 -0.6982 0.9773
-3.9748 5.5504 -0.8382 0.9729
-5.2424 5.7172 -0.9524 0.9692
-5.4893 2.7661 -0.7547 0.9755
-16.0371 5.7835 -2.0932 0.9336
-18.6495 4.2777 -2.3493 0.9258
-19.0288 2.0021 -2.3493 0.9258
-19.7038 -5.1805 -2.5015 0.9212
-16.5930 -11.8216 -2.5015 0.9212
-15.0496 -13.7326 -2.5015 0.9212
-9.1882 -18.1244 -2.4950 0.9214
-6.9479 -19.1198 -2.4978 0.9213
-4.6032 -19.8466 -2.5015 0.9212
0.2726 -20.3716 -2.5015 0.9212
7.4681 -18.9553 -2.5015 0.9212
9.6951 -17.9187 -2.5015 0.9212
13.6960 -15.0830 -2.5015 0.9212
20.3722 0.2230 -2.5015 0.9212
18.9684 2.5106 -2.3493 0.9258
18.5284 4.7752 -2.3493 0.9258
17.8190 6.9704 -2.3493 0.9258
16.8857 9.0831 -2.3542 0.9256
8.0040 5.6439 -1.2025 0.9613
6.7414 6.0916 -1.1156 0.9640
3.8293 5.6614 -0.8392 0.9728
2.9077 5.6671 -0.7821 0.9747
-0.0484 5.6853 -0.6981 0.9773
-0.7372 5.6763 -0.7028 0.9772
-1.4435 5.6579 -0.7169 0.9767
-2.1839 5.6231 -0.7407 0.9760
-5.1403 5.7166 -0.9439 0.9695
-5.4016 2.7881 -0.7464 0.9758
-18.6070 4.4590 -2.3493 0.9258
-20.3731 -0.1239 -2.5015 0.9212
-20.2100 -2.5749 -2.5015 0.9212
-15.1826 -13.5855 -2.5015 0.9212
-13.4372 -15.3140 -2.5015 0.9212
-9.3657 -18.0372 -2.4954 0.9214
-7.1315 -19.0456 -2.4971 0.9213
-4.7961 -19.8008 -2.5015 0.9212
-2.3782 -20.2341 -2.5015 0.9212
0.0743 -20.3733 -2.5015 0.9212
2.5257 -20.2163 -2.5015 0.9212
4.9404 -19.7653 -2.5015 0.9212
7.2833 -19.0271 -2.5015 0.9212
16.7918 -11.5373 -2.5015 0.9212
18.0583 -9.4326 -2.5015 0.9212
19.0623 -7.1907 -2.5015 0.9212
19.7891 -4.8442 -2.5015 0.9212
20.2283 -2.4274 -2.5015 0.9212
20.3734 0.0247 -2.5015 0.9212
18.9920 2.3258 -2.3493 0.9258
18.5740 4.5946 -2.3493 0.9258
17.8860 6.7966 -2.3493 0.9258
16.9688 8.9160 -2.3536 0.9257
8.1723 5.6443 -1.2195 0.9608
6.7930 6.0192 -1.1144 0.9641
1.4042 5.6763 -0.7180 0.9767
0.6957 5.6807 -0.7027 0.9772
0.0069 5.6849 -0.6980 0.9773
-2.3216 19.3470 -2.3926 0.9245
-2.9273 5.6042 -0.7763 0.9748
-3.8191 5.5585 -0.8281 0.9732
-5.0400 5.7159 -0.9357 0.9698
-6.4288 5.7245 -1.0569 0.9659
-8.2616 5.7358 -1.2349 0.9603
-5.3743 2.8406 -0.7464 0.9758
-7.8272 2.9962 -1.0291 0.9668
-18.5627 4.6399 -2.3493 0.9258
-18.9862 2.3722 -2.3493 0.9258
-20.3547 0.0744 -2.4993 0.9212
-19.0798 -7.1441 -2.5015 0.9212
-18.0813 -9.3885 -2.5015 0.9212
-15.3141 -13.4371 -2.5015 0.9212
-9.5427 -17.9485 -2.4959 0.9213
-7.3148 -18.9706 -2.4965 0.9213
-2.5751 -20.2100 -2.5015 0.9212
-0.1241 -20.3730 -2.5015 0.9212
4.7477 -19.8125 -2.5015 0.9212
7.0977 -19.0971 -2.5015 0.9212
9.3444 -18.1041 -2.5015 0.9212
11.4554 -16.8479 -2.5015 0.9212
13.3998 -15.3468 -2.5015 0.9212
17.9656 -9.6079 -2.5015 0.9212
19.7410 -5.0367 -2.5015 0.9212
20.2037 -2.6242 -2.5015 0.9212
20.3727 -0.1736 -2.5015 0.9212
19.0137 2.1408 -2.3493 0.9258
18.6178 4.4136 -2.3493 0.9258
8.3570 5.6525 -1.2388 0.9602
6.8446 5.9469 -1.1133 0.9641
3.9914 5.6604 -0.8504 0.9725
2.2185 5.6713 -0.7477 0.9758
0.7519 5.6804 -0.7035 0.9772
0.0623 5.6846 -0.6980 0.9773
-0.6250 5.6751 -0.7010 0.9773
-1.3280 5.6633 -0.7142 0.9768
-2.0609 5.6289 -0.7360 0.9761
-2.8599 5.6077 -0.7729 0.9750
-3.7426 5.5625 -0.8232 0.9733
-4.9414 5.7153 -0.9277 0.9700
-8.0908 5.7347 -1.2177 0.9608
-5.3936 2.9183 -0.7530 0.9756
-14.6577 5.7751 -1.9344 0.9385
-18.9622 2.5569 -2.3493 0.9258
-19.8466 -4.6030 -2.5015 0.9212
-16.9311 -11.3321 -2.5015 0.9212
-11.8217 -16.5929 -2.5015 0.9212
-9.7188 -17.8583 -2.4964 0.9213
-7.4976 -18.8947 -2.4960 0.9213
-5.1807 -19.7037 -2.5015 0.9212
-2.7716 -20.1840 -2.5015 0.9212
-0.3223 -20.3709 -2.5015 0.9212
2.1317 -20.2616 -2.5015 0.9212
4.5547 -19.8578 -2.5015 0.9212
6.9115 -19.1653 -2.5015 0.9212
9.1678 -18.1942 -2.5015 0.9212
11.2908 -16.9586 -2.5015 0.9212
16.5641 -11.8621 -2.5015 0.9212
17.8713 -9.7823 -2.5015 0.9212
20.1772 -2.8207 -2.5015 0.9212
20.3700 -0.3719 -2.5015 0.9212
17.1300 8.5794 -2.3524 0.9257
5.2090 5.6530 -0.9438 0.9695
3.1127 5.6539 -0.7925 0.9743
0.8081 5.6800 -0.7044 0.9771
-0.5691 5.6749 -0.7003 0.9773
-1.2706 5.6660 -0.7130 0.9769
-2.0000 5.6317 -0.7338 0.9762
-2.7932 5.6111 -0.7696 0.9751
-3.6671 5.5663 -0.8184 0.9735
-4.8445 5.7147 -0.9199 0.9703
-18.9365 2.7413 -2.3493 0.9258
-20.2766 -1.9837 -2.5015 0.9212
-19.8905 -4.4096 -2.5015 0.9212
-13.8786 -14.9152 -2.5015 0.9212
-1.1339 5.6724 -0.9162 0.9768
-2.6287 5.6045 -0.9805 0.9752
-4.4212 5.4688 -1.1138 0.9719
-5.8968 5.7212 -1.3013 0.9673
-7.5448 5.7313 -1.5007 0.9624
-9.5351 5.5740 -1.7493 0.9563
-13.6135 5.8903 -2.3493 0.9417
-14.2234 4.2091 -2.3493 0.9417
-15.7506 -1.1711 -2.5015 0.9380
-15.4952 -3.0582 -2.5015 0.9380
-12.3065 -9.8998 -2.5015 0.9380
-4.5186 -15.1339 -2.5015 0.9380
3.0205 -15.5026 -2.5015 0.9380
8.3139 -13.4288 -2.5015 0.9380
9.8696 -12.3306 -2.5015 0.9380
12.5302 -9.6150 -2.5015 0.9380
15.7733 -0.8098 -2.5015 0.9380
15.5861 1.0826 -2.4745 0.9387
14.1232 4.5340 -2.3493 0.9417
13.4749 6.2007 -2.3493 0.9417
5.5632 5.6508 -1.2559 0.9684
4.3637 5.6582 -1.1317 0.9715
1.0004 5.6788 -0.9133 0.9769
0.3056 5.6831 -0.9014 0.9772
-0.3811 5.6873 -0.9028 0.9772
-1.0771 5.6750 -0.9149 0.9769
-2.5629 5.6053 -0.9762 0.9753
-4.3509 5.4903 -1.1095 0.9720
-5.7823 5.7205 -1.2883 0.9676
-7.3930 5.7304 -1.4815 0.9628
-9.3752 5.6037 -1.7299 0.9567
-14.6019 2.6090 -2.3493 0.9417
-15.7525 0.8856 -2.4989 0.9381
-15.0615 -4.7544 -2.5015 0.9380
-12.4023 -9.7794 -2.5015 0.9380
-11.1352 -11.2010 -2.5015 0.9380
-9.7062 -12.4597 -2.5015 0.9380
-6.4478 -14.4180 -2.5015 0.9380
-0.9249 -15.7670 -2.5015 0.9380
0.9794 -15.7637 -2.5015 0.9380
6.4975 -14.3957 -2.5015 0.9380
12.4360 -9.7365 -2.5015 0.9380
13.5174 -8.1691 -2.5015 0.9380
15.0778 -4.7024 -2.5015 0.9380
15.6630 0.9348 -2.4852 0.9384
14.5928 2.6593 -2.3493 0.9417
14.1667 4.3963 -2.3493 0.9417
13.5346 6.0693 -2.3493 0.9417
7.7838 6.0765 -1.5640 0.9608
5.6719 5.6501 -1.2680 0.9681
4.4518 5.6576 -1.1402 0.9713
1.7847 5.6740 -0.9421 0.9762
0.3611 5.6828 -0.9019 0.9772
-0.3255 5.6870 -0.9022 0.9772
-1.7365 5.6441 -0.9353 0.9764
-3.3344 5.5657 -1.0276 0.9741
-4.2734 5.5017 -1.1034 0.9722
-7.2451 5.7295 -1.4630 0.9633
-9.2187 5.6327 -1.7111 0.9572
-14.1388 4.4852 -2.3493 0.9417
-15.1071 -4.6076 -2.5015 0.9380
-14.4428 -6.3922 -2.5015 0.9380
-11.2437 -11.0920 -2.5015 0.9380
-9.8270 -12.3646 -2.5015 0.9380
-8.2675 -13.4574 -2.5015 0.9380
-6.5878 -14.3546 -2.5015 0.9380
-2.9669 -15.5129 -2.5015 0.9380
-1.0784 -15.7572 -2.5015 0.9380
2.7181 -15.5584 -2.5015 0.9380
6.3571 -14.4583 -2.5015 0.9380
14.3385 -6.6227 -2.5015 0.9380
15.5057 -3.0047 -2.5015 0.9380
15.7546 -1.1167 -2.5015 0.9380
14.6180 2.5172 -2.3493 0.9417
14.2088 4.2582 -2.3493 0.9417
12.7797 7.5300 -2.3493 0.9417
7.7831 5.9549 -1.5521 0.9611
5.7827 5.6494 -1.2804 0.9678
4.5412 5.6571 -1.1490 0.9710
3.5174 5.6634 -1.0559 0.9734
2.6351 5.6688 -0.9901 0.9750
1.8455 5.6736 -0.9450 0.9761
-2.4347 5.6113 -0.9688 0.9755
-4.1925 5.5074 -1.0963 0.9724
-14.5484 2.8927 -2.3493 0.9417
-15.1512 -4.4604 -2.5015 0.9380
-12.5903 -9.5361 -2.5015 0.9380
-11.3511 -10.9821 -2.5015 0.9380
-9.9469 -12.2684 -2.5015 0.9380
-8.3981 -13.3763 -2.5015 0.9380
-6.7272 -14.2898 -2.5015 0.9380
-3.1178 -15.4833 -2.5015 0.9380
-1.2317 -15.7460 -2.5015 0.9380
0.6723 -15.7798 -2.5015 0.9380
4.4235 -15.1620 -2.5015 0.9380
6.2161 -14.5194 -2.5015 0.9380
7.9183 -13.6658 -2.5015 0.9380
10.9544 -11.3778 -2.5015 0.9380
15.4757 -3.1554 -2.5015 0.9380
15.7680 0.6334 -2.4994 0.9381
14.2496 4.1197 -2.3493 0.9417
12.8524 7.4053 -2.3493 0.9417
6.5857 6.3099 -1.4446 0.9637
4.6320 5.6565 -1.1580 0.9708
1.9066 5.6733 -0.9479 0.9761
0.4723 5.6821 -0.9031 0.9772
-0.2146 5.6863 -0.9013 0.9772
-0.9076 5.6830 -0.9115 0.9770
-1.6185 5.6496 -0.9308 0.9765
-2.3713 5.6143 -0.9653 0.9756
-3.1941 5.5749 -1.0176 0.9743
-8.9158 5.6889 -1.6751 0.9581
-11.0984 5.3242 -1.9496 0.9514
-14.5195 3.0342 -2.3493 0.9417
-15.7843 -0.5571 -2.5015 0.9380
-8.5279 -13.2939 -2.5015 0.9380
-1.3849 -15.7333 -2.5015 0.9380
0.5187 -15.7856 -2.5015 0.9380
9.3822 -12.7054 -2.5015 0.9380
10.8431 -11.4839 -2.5015 0.9380
12.1464 -10.0954 -2.5015 0.9380
14.9341 -5.1406 -2.5015 0.9380
15.4442 -3.3059 -2.5015 0.9380
15.7298 -1.4232 -2.5015 0.9380
15.7868 0.4803 -2.5015 0.9380
14.2890 3.9808 -2.3493 0.9417
13.7061 5.6715 -2.3493 0.9417
12.9239 7.2798 -2.3493 0.9417
4.7242 5.6559 -1.1672 0.9706
2.7701 5.6679 -0.9992 0.9748
1.9682 5.6729 -0.9510 0.9760
1.2297 5.6774 -0.9201 0.9767
0.5280 5.6817 -0.9038 0.9772
-1.5599 5.6524 -0.9287 0.9765
-2.3084 5.6173 -0.9619 0.9757
-3.1247 5.5791 -1.0128 0.9744
-6.8226 5.7269 -1.4108 0.9646
-8.7691 5.7161 -1.6579 0.9585
-10.9382 5.3788 -1.9306 0.9518
-14.0018 4.8961 -2.3493 0.9417
-14.7661 1.4085 -2.3493 0.9417
-15.7890 -0.4035 -2.5015 0.9380
-15.2351 -4.1646 -2.5015 0.9380
-11.5627 -10.7591 -2.5015 0.9380
-7.0041 -14.1561 -2.5015 0.9380
-5.2495 -14.8962 -2.5015 0.9380
-1.5379 -15.7190 -2.5015 0.9380
0.3650 -15.7899 -2.5015 0.9380
2.2627 -15.6312 -2.5015 0.9380
5.9323 -14.6377 -2.5015 0.9380
12.0476 -10.2132 -2.5015 0.9380
15.4113 -3.4561 -2.5015 0.9380
15.7152 -1.5762 -2.5015 0.9380
15.7907 0.3266 -2.5015 0.9380
14.6853 2.0893 -2.3493 0.9417
12.9941 7.1537 -2.3493 0.9417
6.6896 6.1642 -1.4408 0.9638
4.8180 5.6554 -1.1767 0.9704
2.8386 5.6675 -1.0039 0.9747
2.0301 5.6725 -0.9542 0.9759
1.2876 5.6771 -0.9220 0.9767
0.5838 5.6814 -0.9046 0.9771
-0.1038 5.6856 -0.9007 0.9772
-1.5016 5.6551 -0.9267 0.9766
-3.0558 5.5827 -1.0080 0.9746
-3.9557 5.5237 -1.0761 0.9729
-5.2424 5.7172 -1.2286 0.9691
-6.6883 5.7261 -1.3945 0.9650
-14.7517 1.5521 -2.3493 0.9417
-15.6473 -2.1485 -2.5015 0.9380
-15.2750 -4.0161 -2.5015 0.9380
-13.8729 -7.5496 -2.5015 0.9380
-12.8634 -9.1644 -2.5015 0.9380
-8.7851 -13.1254 -2.5015 0.9380
-5.3942 -14.8444 -2.5015 0.9380
-3.5685 -15.3857 -2.5015 0.9380
3.9789 -15.2847 -2.5015 0.9380
5.7895 -14.6947 -2.5015 0.9380
7.5159 -13.8912 -2.5015 0.9380
10.6175 -11.6928 -2.5015 0.9380
13.1040 -8.8170 -2.5015 0.9380
14.8312 -5.4303 -2.5015 0.9380
15.3770 -3.6059 -2.5015 0.9380
15.6992 -1.7291 -2.5015 0.9380
15.7932 0.1729 -2.5015 0.9380
14.7049 1.9463 -2.3493 0.9417
14.3638 3.7019 -2.3493 0.9417
13.8139 5.4037 -2.3493 0.9417
13.0631 7.0269 -2.3493 0.9417
4.9133 5.6548 -1.1865 0.9701
3.8293 5.6614 -1.0825 0.9727
2.0925 5.6721 -0.9576 0.9758
1.3458 5.6767 -0.9240 0.9766
0.6397 5.6811 -0.9055 0.9771
-0.7372 5.6763 -0.9066 0.9771
-1.4435 5.6579 -0.9248 0.9766
-2.1839 5.6231 -0.9554 0.9759
-2.9874 5.5862 -1.0033 0.9747
-3.8786 5.5290 -1.0697 0.9730
-6.5571 5.7253 -1.3787 0.9654
-15.7938 -0.0960 -2.5015 0.9380
-14.7366 -5.6821 -2.5015 0.9380
-10.4169 -11.8719 -2.5015 0.9380
-5.5385 -14.7912 -2.5015 0.9380
-3.7181 -15.3502 -2.5015 0.9380
0.0576 -15.7940 -2.5015 0.9380
5.6462 -14.7504 -2.5015 0.9380
10.5032 -11.7956 -2.5015 0.9380
11.8465 -10.4458 -2.5015 0.9380
13.0175 -8.9441 -2.5015 0.9380
15.3411 -3.7554 -2.5015 0.9380
15.6816 -1.8818 -2.5015 0.9380
14.7231 1.8031 -2.3493 0.9417
14.3991 3.5619 -2.3493 0.9417
13.8658 5.2690 -2.3493 0.9417
12.2180 8.4385 -2.3518 0.9416
6.7930 6.0192 -1.4375 0.9639
5.0101 5.6542 -1.1965 0.9699
0.6957 5.6807 -0.9065 0.9771
0.0069 5.6849 -0.9004 0.9772
-1.7872 14.8942 -2.3759 0.9411
-2.1222 5.6260 -0.9524 0.9759
-2.9197 5.5897 -0.9988 0.9748
-6.4288 5.7245 -1.3634 0.9657
-8.2616 5.7358 -1.5929 0.9601
-5.3743 2.8406 -0.9628 0.9757
-7.8256 2.9956 -1.3272 0.9666
-14.7187 1.8390 -2.3493 0.9417
-15.7940 0.0577 -2.5015 0.9380
-15.3503 -3.7179 -2.5015 0.9380
-14.7912 -5.5383 -2.5015 0.9380
-11.8720 -10.4168 -2.5015 0.9380
-9.0389 -12.9519 -2.5015 0.9380
-5.6822 -14.7366 -2.5015 0.9380
-3.8674 -15.3133 -2.5015 0.9380
3.6806 -15.3592 -2.5015 0.9380
7.2441 -14.0348 -2.5015 0.9380
10.3879 -11.8973 -2.5015 0.9380
11.7442 -10.5606 -2.5015 0.9380
12.9298 -9.0704 -2.5015 0.9380
13.9275 -7.4484 -2.5015 0.9380
14.7227 -5.7180 -2.5015 0.9380
15.6625 -2.0344 -2.5015 0.9380
15.7935 -0.1346 -2.5015 0.9380
13.9164 5.1337 -2.3493 0.9417
13.1974 6.7712 -2.3493 0.9417
12.2973 8.3176 -2.3514 0.9416
5.1087 5.6536 -1.2069 0.9696
3.0480 5.6662 -1.0191 0.9743
1.4629 5.6760 -0.9284 0.9765
-1.3280 5.6633 -0.9213 0.9767
-2.0609 5.6289 -0.9494 0.9760
-2.8525 5.5932 -0.9944 0.9749
-6.3033 5.7237 -1.3485 0.9661
-13.8006 5.4374 -2.3493 0.9417
-14.3547 3.7369 -2.3493 0.9417
-13.1255 -8.7850 -2.5015 0.9380
-11.9728 -10.3008 -2.5015 0.9380
-10.6461 -11.6668 -2.5015 0.9380
-9.1646 -12.8633 -2.5015 0.9380
-7.5498 -13.8728 -2.5015 0.9380
-4.0162 -15.2749 -2.5015 0.9380
3.5309 -15.3944 -2.5015 0.9380
11.6409 -10.6744 -2.5015 0.9380
12.8410 -9.1958 -2.5015 0.9380
13.8544 -7.5836 -2.5015 0.9380
14.6663 -5.8610 -2.5015 0.9380
15.2651 -4.0533 -2.5015 0.9380
15.7915 -0.2883 -2.5015 0.9380
13.2627 6.6425 -2.3493 0.9417
6.8960 5.8748 -1.4348 0.9640
4.0741 5.6599 -1.1045 0.9722
3.1127 5.6539 -1.0222 0.9742
2.2823 5.6709 -0.9682 0.9755
1.5218 5.6756 -0.9307 0.9765
0.1176 5.6843 -0.9005 0.9772
-0.5691 5.6749 -0.9033 0.9772
-6.1805 5.7230 -1.3341 0.9665
-7.9247 5.7337 -1.5492 0.9612
-9.9332 5.5002 -1.7983 0.9551
-13.7471 5.5714 -2.3493 0.9417
-14.6801 2.1251 -2.3493 0.9417
-15.7191 -1.5379 -2.5015 0.9380
-14.8962 -5.2494 -2.5015 0.9380
-1.1295 5.6506 -1.1201 0.9768
-1.8459 5.6091 -1.1478 0.9762
-2.6083 5.5608 -1.1939 0.9753
-3.4446 5.5037 -1.2621 0.9739
-4.3289 5.3547 -1.3384 0.9723
-5.8968 5.7212 -1.5970 0.9671
-7.5448 5.7313 -1.8417 0.9621
-9.5351 5.5740 -2.1469 0.9560
-11.5895 3.4296 -2.3493 0.9519
-11.9180 2.0099 -2.3493 0.9519
-12.8339 -0.9542 -2.5015 0.9489
-12.6258 -2.4919 -2.5015 0.9489
-5.0281 -2.3435 -1.0783 0.9776
-10.0276 -8.0664 -2.5015 0.9489
-7.8096 -10.2288 -2.5015 0.9489
-6.5218 -11.0944 -2.5015 0.9489
-3.6818 -12.3314 -2.5015 0.9489
-0.6286 -12.8539 -2.5015 0.9489
0.9230 -12.8362 -2.5015 0.9489
2.4611 -12.6318 -2.5015 0.9489
5.4082 -11.6778 -2.5015 0.9489
6.7743 -10.9420 -2.5015 0.9489
9.1927 -9.0063 -2.5015 0.9489
12.3224 -3.7118 -2.5015 0.9489
11.5079 3.6943 -2.3493 0.9519
10.2917 6.3371 -2.3493 0.9519
7.0494 5.6144 -1.7517 0.9639
5.5632 5.6508 -1.5414 0.9682
4.3637 5.6582 -1.3889 0.9713
3.3669 5.6643 -1.2809 0.9735
2.5024 5.6696 -1.2046 0.9751
1.7243 5.6744 -1.1528 0.9761
1.0004 5.6788 -1.1208 0.9768
0.3056 5.6831 -1.1063 0.9771
-0.3811 5.6873 -1.1080 0.9770
-1.0730 5.6537 -1.1186 0.9768
-1.7868 5.6126 -1.1449 0.9763
-4.2604 5.3762 -1.3334 0.9724
-5.7823 5.7205 -1.5811 0.9674
-9.3752 5.6037 -2.1231 0.9565
-11.8979 2.1258 -2.3493 0.9519
-12.8426 -0.8292 -2.5015 0.9489
-12.6494 -2.3688 -2.5015 0.9489
-12.2724 -3.8740 -2.5015 0.9489
-5.0867 -2.3108 -1.0860 0.9775
-4.5866 -3.6166 -1.1354 0.9765
-3.8017 -12.2950 -2.5015 0.9489
0.7980 -12.8446 -2.5015 0.9489
2.3381 -12.6551 -2.5015 0.9489
11.0142 -6.6563 -2.5015 0.9489
11.7352 -5.2823 -2.5015 0.9489
12.2857 -3.8316 -2.5015 0.9489
12.6575 -2.3252 -2.5015 0.9489
12.8453 -0.7849 -2.5015 0.9489
12.8081 0.7645 -2.4941 0.9491
11.8905 2.1669 -2.3493 0.9519
11.5433 3.5821 -2.3493 0.9519
7.7838 6.0765 -1.9195 0.9606
4.4518 5.6576 -1.3994 0.9711
3.4417 5.6638 -1.2883 0.9734
2.5685 5.6692 -1.2098 0.9750
1.7847 5.6740 -1.1562 0.9761
1.0574 5.6785 -1.1228 0.9767
-0.3255 5.6870 -1.1072 0.9771
-7.2451 5.7295 -1.7955 0.9631
-10.9970 5.0145 -2.3493 0.9519
-11.5205 3.6546 -2.3493 0.9519
-11.8766 2.2415 -2.3493 0.9519
-12.8414 0.8474 -2.5015 0.9489
-12.8500 -0.7042 -2.5015 0.9489
-12.6719 -2.2456 -2.5015 0.9489
-8.0073 -10.0749 -2.5015 0.9489
-5.3679 -11.6964 -2.5015 0.9489
-2.4175 -12.6402 -2.5015 0.9489
0.6729 -12.8517 -2.5015 0.9489
3.7244 -12.3186 -2.5015 0.9489
6.5600 -11.0718 -2.5015 0.9489
7.8449 -10.2018 -2.5015 0.9489
9.0156 -9.1835 -2.5015 0.9489
10.0554 -8.0317 -2.5015 0.9489
11.6833 -5.3963 -2.5015 0.9489
12.6343 -2.4483 -2.5015 0.9489
12.8371 -0.9099 -2.5015 0.9489
11.9110 2.0510 -2.3493 0.9519
11.0759 4.8378 -2.3493 0.9519
4.5412 5.6571 -1.4101 0.9709
1.8455 5.6736 -1.1597 0.9760
1.1146 5.6781 -1.1248 0.9767
0.4167 5.6824 -1.1075 0.9771
-7.1008 5.7286 -1.7734 0.9635
-10.9476 5.1213 -2.3493 0.9519
-12.8563 -0.5791 -2.5015 0.9489
-5.3284 -2.2965 -1.1278 0.9766
-4.7795 -2.7849 -1.0752 0.9777
-6.8429 -10.8992 -2.5015 0.9489
-4.0403 -12.2186 -2.5015 0.9489
-1.0036 -12.8301 -2.5015 0.9489
0.5478 -12.8576 -2.5015 0.9489
2.0913 -12.6983 -2.5015 0.9489
7.7452 -10.2777 -2.5015 0.9489
8.9258 -9.2708 -2.5015 0.9489
12.8276 -1.0348 -2.5015 0.9489
11.9304 1.9350 -2.3493 0.9519
10.4724 6.0340 -2.3493 0.9519
2.7023 5.6684 -1.2206 0.9747
1.9066 5.6733 -1.1634 0.9759
1.1721 5.6778 -1.1269 0.9767
0.4723 5.6821 -1.1083 0.9770
-1.6109 5.6231 -1.1370 0.9764
-2.3557 5.5773 -1.1768 0.9756
-3.1645 5.5233 -1.2374 0.9744
-4.0577 5.4393 -1.3191 0.9727
-10.8973 5.2277 -2.3493 0.9519
-11.4472 3.8782 -2.3493 0.9519
-11.8308 2.4723 -2.3493 0.9519
-12.8152 1.0966 -2.5001 0.9489
-12.8613 -0.4539 -2.5015 0.9489
-5.4595 -2.2903 -1.1508 0.9762
-4.7984 -2.7337 -1.0735 0.9777
-9.3358 -8.8579 -2.5015 0.9489
-8.2018 -9.9171 -2.5015 0.9489
-6.9487 -10.8321 -2.5015 0.9489
-5.5945 -11.5897 -2.5015 0.9489
4.9496 -11.8794 -2.5015 0.9489
6.3433 -11.1974 -2.5015 0.9489
8.8352 -9.3573 -2.5015 0.9489
12.1686 -4.1887 -2.5015 0.9489
12.5842 -2.6937 -2.5015 0.9489
11.9487 1.8188 -2.3493 0.9519
11.6429 3.2436 -2.3493 0.9519
10.5306 5.9317 -2.3493 0.9519
6.6378 6.2369 -1.7705 0.9636
4.7242 5.6559 -1.4325 0.9704
1.9682 5.6729 -1.1672 0.9758
0.5280 5.6817 -1.1092 0.9770
-0.1591 5.6860 -1.1057 0.9771
-3.0961 5.5280 -1.2316 0.9745
-3.9910 5.4600 -1.3146 0.9728
-5.3464 5.7178 -1.5216 0.9686
-10.8459 5.3334 -2.3493 0.9519
-11.4089 3.9894 -2.3493 0.9519
-12.7320 -1.8747 -2.5015 0.9489
-12.4139 -3.3934 -2.5015 0.9489
-5.5960 -2.2838 -1.1749 0.9757
-4.8168 -2.6824 -1.0717 0.9778
-9.4215 -8.7667 -2.5015 0.9489
-8.2980 -9.8368 -2.5015 0.9489
-7.0538 -10.7640 -2.5015 0.9489
-2.7855 -12.5642 -2.5015 0.9489
0.2974 -12.8659 -2.5015 0.9489
3.3631 -12.4221 -2.5015 0.9489
6.2340 -11.2586 -2.5015 0.9489
7.5437 -10.4265 -2.5015 0.9489
8.7437 -9.4428 -2.5015 0.9489
9.8166 -8.3219 -2.5015 0.9489
10.7468 -7.0800 -2.5015 0.9489
11.5208 -5.7351 -2.5015 0.9489
12.8051 -1.2843 -2.5015 0.9489
12.8666 0.2661 -2.5015 0.9489
10.5878 5.8290 -2.3493 0.9519
1.2876 5.6771 -1.1315 0.9766
-0.1038 5.6856 -1.1054 0.9771
-1.4949 5.6299 -1.1323 0.9765
-5.2424 5.7172 -1.5078 0.9689
-6.6883 5.7261 -1.7114 0.9648
-8.6124 5.7341 -2.0112 0.9587
-11.7804 2.7021 -2.3493 0.9519
-12.7703 1.3436 -2.4960 0.9490
-12.8677 -0.2035 -2.5015 0.9489
-12.7497 -1.7507 -2.5015 0.9489
-12.4463 -3.2724 -2.5015 0.9489
-5.7355 -2.2758 -1.1994 0.9752
-4.6012 -3.2781 -1.0981 0.9772
-7.1582 -10.6948 -2.5015 0.9489
-2.9077 -12.5365 -2.5015 0.9489
1.7196 -12.7539 -2.5015 0.9489
4.7174 -11.9735 -2.5015 0.9489
6.1241 -11.3188 -2.5015 0.9489
7.4418 -10.4994 -2.5015 0.9489
8.6514 -9.5275 -2.5015 0.9489
9.7351 -8.4170 -2.5015 0.9489
10.6773 -7.1842 -2.5015 0.9489
11.4644 -5.8470 -2.5015 0.9489
12.8685 0.1409 -2.5015 0.9489
12.0640 1.5967 -2.3655 0.9516
10.6441 5.7256 -2.3493 0.9519
8.1905 5.7754 -1.9481 0.9600
6.7414 6.0916 -1.7661 0.9637
4.9133 5.6548 -1.4561 0.9699
2.0925 5.6721 -1.1752 0.9757
-0.0484 5.6853 -1.1051 0.9771
-0.7372 5.6763 -1.1126 0.9769
-2.1706 5.5890 -1.1654 0.9759
-3.8409 5.4753 -1.3000 0.9731
-5.1403 5.7166 -1.4944 0.9692
-6.5571 5.7253 -1.6920 0.9652
-8.4308 5.7324 -1.9817 0.9593
-12.7661 -1.6265 -2.5015 0.9489
-12.4776 -3.1511 -2.5015 0.9489
-9.5904 -8.5816 -2.5015 0.9489
-7.2620 -10.6246 -2.5015 0.9489
-4.5128 -12.0521 -2.5015 0.9489
-3.0296 -12.5076 -2.5015 0.9489
1.5954 -12.7700 -2.5015 0.9489
3.1207 -12.4852 -2.5015 0.9489
11.4069 -5.9583 -2.5015 0.9489
12.5002 -3.0600 -2.5015 0.9489
12.8693 0.0156 -2.5015 0.9489
6.7930 6.0192 -1.7642 0.9637
5.0101 5.6542 -1.4685 0.9697
2.9775 5.6667 -1.2443 0.9743
0.0069 5.6849 -1.1050 0.9771
-1.4498 12.0824 -2.3654 0.9516
-2.1097 5.5928 -1.1619 0.9759
-2.8946 5.5418 -1.2153 0.9748
-3.7657 5.4807 -1.2926 0.9733
-6.4288 5.7245 -1.6732 0.9655
-8.2616 5.7358 -1.9550 0.9598
-5.3742 2.8406 -1.1816 0.9755
-7.8241 2.9950 -1.6285 0.9664
-12.5077 -3.0294 -2.5015 0.9489
-6.0527 -2.2663 -1.2563 0.9740
-4.8971 -2.5428 -1.0726 0.9778
-4.6394 -3.1710 -1.0923 0.9774
-9.6735 -8.4878 -2.5015 0.9489
-7.3651 -10.5534 -2.5015 0.9489
-3.1512 -12.4775 -2.5015 0.9489
-0.0784 -12.8691 -2.5015 0.9489
2.9990 -12.5150 -2.5015 0.9489
4.4834 -12.0631 -2.5015 0.9489
5.9026 -11.4358 -2.5015 0.9489
7.2360 -10.6423 -2.5015 0.9489
8.4642 -9.6941 -2.5015 0.9489
9.5694 -8.6050 -2.5015 0.9489
10.5355 -7.3907 -2.5015 0.9489
11.9963 -4.6592 -2.5015 0.9489
12.7621 -1.6576 -2.5015 0.9489
12.8688 -0.1097 -2.5015 0.9489
12.4614 1.4031 -2.4376 0.9502
5.1087 5.6536 -1.4811 0.9694
3.9914 5.6604 -1.3463 0.9722
1.4629 5.6760 -1.1394 0.9764
0.0623 5.6846 -1.1050 0.9771
-2.0491 5.5966 -1.1585 0.9760
-3.6913 5.4861 -1.2853 0.9734
-4.9414 5.7153 -1.4686 0.9697
-8.0908 5.7347 -1.9277 0.9604
-5.3934 2.9182 -1.1920 0.9753
-7.8017 3.0738 -1.6300 0.9664
-11.6965 3.0449 -2.3493 0.9519
-11.9779 1.6151 -2.3493 0.9519
-12.8682 0.1723 -2.5015 0.9489
-12.5366 -2.9076 -2.5015 0.9489
-6.2787 -2.2815 -1.2985 0.9731
-4.6579 -3.1176 -1.0895 0.9774
-9.7556 -8.3933 -2.5015 0.9489
-8.6746 -9.5063 -2.5015 0.9489
-4.7466 -11.9620 -2.5015 0.9489
-3.2725 -12.4463 -2.5015 0.9489
-1.7508 -12.7497 -2.5015 0.9489
1.3465 -12.7987 -2.5015 0.9489
4.3658 -12.1062 -2.5015 0.9489
7.1321 -10.7122 -2.5015 0.9489
9.4852 -8.6977 -2.5015 0.9489
11.2888 -6.1792 -2.5015 0.9489
12.4383 -3.3027 -2.5015 0.9489
12.8672 -0.2349 -2.5015 0.9489
11.7869 2.6733 -2.3493 0.9519
11.3795 4.0725 -2.3493 0.9519
10.8067 5.4124 -2.3493 0.9519
10.0768 6.6737 -2.3493 0.9519
6.8960 5.8748 -1.7609 0.9638
1.5218 5.6756 -1.1422 0.9763
-1.2654 5.6430 -1.1241 0.9767
-3.6177 5.4914 -1.2782 0.9736
-4.4950 5.3024 -1.3512 0.9721
-7.9247 5.7337 -1.9013 0.9609
-11.2013 4.5397 -2.3493 0.9519
-11.6663 3.1586 -2.3493 0.9519
-12.8082 -1.2531 -2.5015 0.9489
-12.5643 -2.7854 -2.5015 0.9489
-4.9560 -2.4521 -1.0748 0.9777
-9.8369 -8.2979 -2.5015 0.9489
-8.7667 -9.4215 -2.5015 0.9489
-2.5849 5.5110 -1.4053 0.9753
-3.4119 5.4516 -1.4848 0.9739
-4.2393 5.2438 -1.5568 0.9727
-5.8968 5.7212 -1.8968 0.9668
-7.5448 5.7313 -2.1874 0.9619
-9.7578 2.8876 -2.3493 0.9591
-10.0344 1.6923 -2.3493 0.9591
-10.8055 -0.8034 -2.5015 0.9565
-10.6303 -2.0980 -2.5015 0.9565
-6.3942 -2.0871 -1.5529 0.9728
-4.8097 -2.2417 -1.2251 0.9785
-6.5753 -8.6122 -2.5015 0.9565
-5.4911 -9.3409 -2.5015 0.9565
-4.3269 -9.9339 -2.5015 0.9565
-3.0999 -10.3825 -2.5015 0.9565
-0.5292 -10.8224 -2.5015 0.9565
0.7771 -10.8075 -2.5015 0.9565
3.3371 -10.3087 -2.5015 0.9565
4.5535 -9.8321 -2.5015 0.9565
9.9234 -4.3511 -2.5015 0.9565
10.3749 -3.1252 -2.5015 0.9565
10.6756 -1.8539 -2.5015 0.9565
10.8211 -0.5556 -2.5015 0.9565
9.6891 3.1105 -2.3493 0.9591
9.2443 4.2539 -2.3493 0.9591
8.6651 5.3356 -2.3493 0.9591
5.5632 5.6508 -1.8307 0.9680
3.3669 5.6643 -1.5213 0.9733
1.7243 5.6744 -1.3692 0.9759
0.3056 5.6831 -1.3139 0.9769
-0.3811 5.6873 -1.3160 0.9769
-2.5217 5.5153 -1.4001 0.9754
-3.3417 5.4568 -1.4773 0.9741
-4.1725 5.2653 -1.5510 0.9728
-5.7823 5.7205 -1.8779 0.9672
-9.2996 4.1317 -2.3493 0.9591
-9.7292 2.9824 -2.3493 0.9591
-10.8183 0.6082 -2.5015 0.9565
-10.8129 -0.6982 -2.5015 0.9565
-6.7755 -2.1388 -1.6403 0.9713
-4.9169 -2.2337 -1.2468 0.9781
-7.6392 -7.6843 -2.5015 0.9565
-1.9317 -10.6618 -2.5015 0.9565
-0.6345 -10.8168 -2.5015 0.9565
1.9685 -10.6550 -2.5015 0.9565
3.2366 -10.3407 -2.5015 0.9565
4.4575 -9.8760 -2.5015 0.9565
5.6137 -9.2677 -2.5015 0.9565
6.6883 -8.5248 -2.5015 0.9565
7.6657 -7.6579 -2.5015 0.9565
8.5316 -6.6796 -2.5015 0.9565
9.2735 -5.6043 -2.5015 0.9565
10.3440 -3.2260 -2.5015 0.9565
10.8152 -0.6608 -2.5015 0.9565
10.8108 0.6452 -2.5003 0.9565
10.0112 1.8244 -2.3493 0.9591
9.7189 3.0160 -2.3493 0.9591
7.7838 6.0765 -2.2798 0.9603
5.6719 5.6501 -1.8483 0.9677
1.0574 5.6785 -1.3335 0.9766
0.3611 5.6828 -1.3146 0.9769
-1.7130 5.5680 -1.3449 0.9764
-4.1062 5.2865 -1.5454 0.9729
-5.6702 5.7198 -1.8594 0.9675
-9.6998 3.0770 -2.3493 0.9591
-10.8119 0.7135 -2.5015 0.9565
-10.8191 -0.5929 -2.5015 0.9565
-10.6691 -1.8907 -2.5015 0.9565
-5.0279 -2.2253 -1.2694 0.9777
-6.7417 -8.4826 -2.5015 0.9565
-5.6719 -9.2323 -2.5015 0.9565
-4.5195 -9.8478 -2.5015 0.9565
-3.3015 -10.3201 -2.5015 0.9565
-2.0354 -10.6425 -2.5015 0.9565
1.8647 -10.6737 -2.5015 0.9565
3.1358 -10.3717 -2.5015 0.9565
4.3612 -9.9189 -2.5015 0.9565
6.6050 -8.5895 -2.5015 0.9565
7.5907 -7.7321 -2.5015 0.9565
8.4661 -6.7624 -2.5015 0.9565
9.2185 -5.6943 -2.5015 0.9565
9.8368 -4.5435 -2.5015 0.9565
10.8219 0.5402 -2.5015 0.9565
10.0285 1.7269 -2.3493 0.9591
9.7478 2.9213 -2.3493 0.9591
7.7831 5.9549 -2.2625 0.9606
5.7827 5.6494 -1.8664 0.9674
1.8455 5.6736 -1.3774 0.9758
0.4167 5.6824 -1.3154 0.9769
-0.9594 5.6537 -1.3239 0.9767
-1.6549 5.5715 -1.3418 0.9764
-4.0403 5.3075 -1.5400 0.9730
-7.1008 5.7286 -2.1063 0.9632
-9.9807 1.9845 -2.3493 0.9591
-10.8044 0.8187 -2.5015 0.9565
-10.8244 -0.4876 -2.5015 0.9565
-10.6870 -1.7867 -2.5015 0.9565
-10.3943 -3.0600 -2.5015 0.9565
-5.1358 -2.2135 -1.2911 0.9773
-4.2279 -3.2023 -1.2245 0.9785
-5.7614 -9.1767 -2.5015 0.9565
-3.4018 -10.2875 -2.5015 0.9565
1.7608 -10.6913 -2.5015 0.9565
4.2645 -9.9609 -2.5015 0.9565
6.5211 -8.6533 -2.5015 0.9565
7.5151 -7.8056 -2.5015 0.9565
8.3999 -6.8444 -2.5015 0.9565
9.7921 -4.6390 -2.5015 0.9565
10.2792 -3.4268 -2.5015 0.9565
10.6169 -2.1647 -2.5015 0.9565
10.8003 -0.8712 -2.5015 0.9565
6.2503 0.2511 -1.4442 0.9746
10.0449 1.6292 -2.3493 0.9591
9.7758 2.8263 -2.3493 0.9591
8.8172 5.0803 -2.3493 0.9591
7.7824 5.8351 -2.2456 0.9609
6.5857 6.3099 -2.1057 0.9633
0.4723 5.6821 -1.3163 0.9769
-3.9748 5.3283 -1.5347 0.9731
-6.9600 5.7278 -2.0810 0.9637
-8.5786 5.4737 -2.3493 0.9591
-9.1750 4.4014 -2.3493 0.9591
-9.6380 3.2652 -2.3493 0.9591
-9.9610 2.0816 -2.3493 0.9591
-10.7959 0.9238 -2.5015 0.9565
-10.8286 -0.3822 -2.5015 0.9565
-10.7039 -1.6826 -2.5015 0.9565
-5.2431 -2.1995 -1.3127 0.9769
-4.2377 -3.1452 -1.2184 0.9786
-7.8603 -7.4579 -2.5015 0.9565
-5.8505 -9.1201 -2.5015 0.9565
0.3558 -10.8295 -2.5015 0.9565
4.1673 -10.0019 -2.5015 0.9565
6.4366 -8.7164 -2.5015 0.9565
7.4388 -7.8784 -2.5015 0.9565
9.1059 -5.8727 -2.5015 0.9565
9.7465 -4.7341 -2.5015 0.9565
10.2454 -3.5267 -2.5015 0.9565
6.2102 0.1889 -1.4344 0.9748
8.8663 4.9943 -2.3493 0.9591
7.8638 5.7775 -2.2528 0.9607
3.6714 5.6624 -1.5580 0.9727
-0.8496 5.6741 -1.3246 0.9767
-2.2734 5.5320 -1.3808 0.9757
-3.0675 5.4769 -1.4493 0.9746
-3.9098 5.3488 -1.5296 0.9732
-8.5249 5.5569 -2.3493 0.9591
-9.1317 4.4905 -2.3493 0.9591
-9.9402 2.1784 -2.3493 0.9591
-10.8318 -0.2768 -2.5015 0.9565
-10.4519 -2.8571 -2.5015 0.9565
-4.8051 -9.7116 -2.5015 0.9565
-3.6013 -10.2194 -2.5015 0.9565
-1.0551 -10.7839 -2.5015 0.9565
0.2504 -10.8325 -2.5015 0.9565
1.5523 -10.7236 -2.5015 0.9565
2.8316 -10.4588 -2.5015 0.9565
4.0698 -10.0420 -2.5015 0.9565
5.2487 -9.4792 -2.5015 0.9565
9.0483 -5.9610 -2.5015 0.9565
9.6999 -4.8287 -2.5015 0.9565
10.2106 -3.6262 -2.5015 0.9565
10.5728 -2.3710 -2.5015 0.9565
10.4078 1.4807 -2.4270 0.9578
2.8386 5.6675 -1.4634 0.9743
2.0301 5.6725 -1.3909 0.9756
0.5838 5.6814 -1.3186 0.9768
-0.1038 5.6856 -1.3128 0.9769
-0.7935 5.6762 -1.3232 0.9767
-3.8450 5.3692 -1.5247 0.9733
-6.6883 5.7261 -2.0327 0.9645
-8.4704 5.6396 -2.3493 0.9591
-5.4887 2.7658 -1.4190 0.9751
-7.8856 2.8438 -1.9353 0.9662
-10.7740 1.1336 -2.5011 0.9565
-10.7347 -1.4740 -2.5015 0.9565
-4.4513 -2.4224 -1.1700 0.9794
-8.0040 -7.3035 -2.5015 0.9565
-7.0668 -8.2137 -2.5015 0.9565
-2.4481 -10.5552 -2.5015 0.9565
-1.1600 -10.7731 -2.5015 0.9565
0.1450 -10.8344 -2.5015 0.9565
1.4478 -10.7382 -2.5015 0.9565
8.9898 -6.0488 -2.5015 0.9565
10.1748 -3.7254 -2.5015 0.9565
10.5492 -2.4738 -2.5015 0.9565
9.8541 2.5396 -2.3493 0.9591
8.1905 5.7754 -2.3138 0.9597
3.8293 5.6614 -1.5780 0.9723
2.9077 5.6671 -1.4705 0.9742
1.3458 5.6767 -1.3469 0.9763
0.6397 5.6811 -1.3199 0.9768
-0.7372 5.6763 -1.3215 0.9768
-1.4250 5.5854 -1.3308 0.9766
-5.1403 5.7166 -1.7749 0.9689
-6.5571 5.7253 -2.0097 0.9649
-7.7298 2.8729 -1.9038 0.9667
-10.8352 -0.0659 -2.5015 0.9565
-10.7485 -1.3694 -2.5015 0.9565
-10.5056 -2.6531 -2.5015 0.9565
-4.2647 -2.9762 -1.2006 0.9789
-7.1464 -8.1446 -2.5015 0.9565
-6.1143 -8.9454 -2.5015 0.9565
-4.9932 -9.6163 -2.5015 0.9565
-2.5508 -10.5308 -2.5015 0.9565
-1.2648 -10.7613 -2.5015 0.9565
1.3433 -10.7518 -2.5015 0.9565
6.1794 -8.9006 -2.5015 0.9565
8.9305 -6.1360 -2.5015 0.9565
9.6041 -5.0166 -2.5015 0.9565
10.5246 -2.5764 -2.5015 0.9565
10.7582 -1.2910 -2.5015 0.9565
9.8784 2.4436 -2.3493 0.9591
9.5125 3.6147 -2.3493 0.9591
9.0083 4.7333 -2.3493 0.9591
2.9775 5.6667 -1.4779 0.9741
2.1553 5.6717 -1.4008 0.9754
1.4042 5.6763 -1.3500 0.9763
0.6957 5.6807 -1.3213 0.9768
0.0069 5.6849 -1.3125 0.9769
-1.2170 10.1417 -2.3582 0.9589
-1.3681 5.5887 -1.3284 0.9767
-2.0913 5.5440 -1.3680 0.9760
