ply
format ascii 1.0
element vertex 1568
property float32 x
property float32 y
property float32 z
property float32 I
end_header
-58.2656 -28.1092 7.9431 0.7705
-19.6842 -34.5559 4.8830 0.8519
-15.3679 -36.6451 4.8791 0.8520
-11.0411 -38.9251 4.9680 0.8495
-13.8625 -88.3205 10.9772 0.6975
18.9811 -90.6444 11.3711 0.6885
20.5405 -42.7599 5.8246 0.8260
47.8696 -45.5768 8.1156 0.7662
51.6691 -38.4834 7.9105 0.7713
56.1024 -16.0147 7.1637 0.7905
56.1997 -8.9174 6.9868 0.7951
53.2436 4.4854 6.5606 0.8063
51.9694 10.7917 6.5172 0.8074
35.9776 17.2086 4.8968 0.8515
26.8822 17.1116 3.9127 0.8795
6.8711 5.6427 1.0917 0.9648
5.3992 5.6518 0.9597 0.9690
4.2296 5.6590 0.8675 0.9719
3.2521 5.6650 0.8020 0.9740
2.4002 5.6702 0.7560 0.9755
1.6302 5.6750 0.7250 0.9765
-1.1721 5.6922 0.7136 0.9769
-1.9117 5.6967 0.7378 0.9761
-3.6194 5.7072 0.8298 0.9731
-4.6763 5.7137 0.9066 0.9707
-5.9693 5.7217 1.0153 0.9672
-7.6424 5.7320 1.1730 0.9622
-13.5636 5.7683 1.8098 0.9423
-25.9827 -34.5224 5.3052 0.8402
-20.2576 -35.0155 4.9670 0.8496
-1.7385 -41.6899 5.1233 0.8452
18.5577 -91.6758 11.4847 0.6859
16.4679 -49.6224 6.4196 0.8100
28.4067 -45.1253 6.5471 0.8066
46.8823 -45.2390 7.9994 0.7691
51.6658 -39.0210 7.9498 0.7703
52.2168 -30.3256 7.4142 0.7840
53.3183 -22.8861 7.1243 0.7915
52.8197 10.6001 6.6148 0.8048
36.5965 17.2048 4.9653 0.8496
6.9649 5.6422 1.1006 0.9645
4.2886 5.6586 0.8718 0.9718
2.4450 5.6700 0.7582 0.9754
0.9499 5.6791 0.7070 0.9771
-0.4313 5.6876 0.7004 0.9773
-1.1324 5.6919 0.7126 0.9769
-1.8693 5.6965 0.7361 0.9761
-2.6687 5.7014 0.7729 0.9749
-4.6125 5.7133 0.9016 0.9708
-4.9376 2.8898 0.7025 0.9772
-13.3119 5.7668 1.7813 0.9432
-87.9180 26.0540 11.2590 0.6910
-26.3448 -34.5202 5.3319 0.8395
-11.5609 -38.7739 4.9680 0.8495
-13.3182 -78.0207 9.7183 0.7269
16.0616 -49.5034 6.3902 0.8108
20.2644 -43.6726 5.9115 0.8236
27.9853 -45.1227 6.5194 0.8074
36.4478 -45.4571 7.1540 0.7907
-31.1601 -36.5717 4.2035 0.8245
-24.2426 -36.6040 3.8411 0.8384
-13.1148 -36.6589 3.4063 0.8553
-8.9375 -87.1801 7.6672 0.7034
17.1875 -42.9514 4.0475 0.8305
24.4954 -44.6952 4.4591 0.8149
52.8886 -45.2154 6.0876 0.7562
51.8936 -34.4938 5.4516 0.7786
54.7859 -27.5500 5.3651 0.7817
56.0841 -20.1701 5.2144 0.7872
56.2219 -12.8403 5.0454 0.7933
56.2139 0.9483 4.9188 0.7979
20.9926 5.5457 1.8996 0.9165
40.6304 16.1800 3.8262 0.8390
30.6683 16.7413 3.0569 0.8691
26.8952 19.2161 2.8919 0.8757
6.1712 5.6471 0.7318 0.9670
4.8511 5.6552 0.6519 0.9705
1.3065 5.6770 0.5097 0.9769
0.6016 5.6813 0.4998 0.9773
-1.4941 5.6942 0.5150 0.9766
-2.2584 5.6989 0.5363 0.9757
-3.1014 5.7040 0.5680 0.9743
-4.0478 5.6854 0.6106 0.9724
-5.2139 5.7170 0.6769 0.9694
-8.5696 5.7376 0.9023 0.9594
-15.8817 5.7718 1.4784 0.9344
-65.9107 -17.1761 5.9590 0.7607
-18.5751 -36.4811 3.5816 0.8484
-13.3389 -36.5131 3.4010 0.8555
17.3742 -44.2744 4.1611 0.8262
24.1597 -44.7911 4.4524 0.8152
31.9154 -45.1467 4.8371 0.8009
53.8735 -27.5444 5.2936 0.7843
56.0815 -20.5940 5.2269 0.7867
56.2625 -6.2438 4.9525 0.7967
56.2116 0.5721 4.9181 0.7979
50.0584 6.5893 4.4173 0.8165
26.8935 18.9444 2.8780 0.8763
1.3465 5.6767 0.5104 0.9768
0.6401 5.6810 0.5002 0.9773
-0.7392 5.6895 0.5020 0.9772
-1.4533 5.6939 0.5141 0.9767
-2.2143 5.6986 0.5349 0.9758
-3.0519 5.7037 0.5660 0.9744
-4.0077 5.7096 0.6103 0.9724
-8.4457 5.7369 0.8932 0.9598
-11.1610 5.7536 1.0986 0.9508
-29.4582 -0.2013 2.5773 0.8884
-46.0685 -11.6767 4.1579 0.8263
-18.6523 -36.0345 3.5499 0.8497
-13.6696 -36.6555 3.4227 0.8546
-10.4577 -43.4397 3.9091 0.8358
20.1778 -80.1712 7.2328 0.7175
23.9370 -45.0979 4.4669 0.8146
31.4502 -45.1261 4.8123 0.8018
39.4235 -44.1085 5.1758 0.7886
56.0789 -21.0199 5.2396 0.7863
56.2170 -13.6332 5.0609 0.7927
22.5029 2.8091 1.9840 0.9130
51.9829 12.9909 4.6878 0.8064
6.3383 5.6460 0.7426 0.9665
4.9833 5.6544 0.6594 0.9702
3.8871 5.6611 0.6008 0.9728
2.9573 5.6668 0.5592 0.9747
1.3867 5.6765 0.5112 0.9768
-1.4128 5.6937 0.5132 0.9767
-3.9507 5.7093 0.6074 0.9725
-5.0747 5.7162 0.6687 0.9698
-8.3242 5.7361 0.8844 0.9602
-10.9779 5.7525 1.0843 0.9515
-15.2616 5.7788 1.4277 0.9366
-29.5436 -0.0042 2.5847 0.8881
-46.2114 -11.3845 4.1638 0.8261
-18.6487 -35.4445 3.5040 0.8514
-13.9490 -36.6538 3.4312 0.8543
-10.7083 -87.1692 7.6836 0.7028
19.8678 -81.2320 7.3164 0.7148
16.7130 -44.3246 4.1444 0.8268
51.8843 -36.0097 5.5254 0.7760
56.2070 -0.1801 4.9175 0.7980
51.9807 12.6214 4.6799 0.8067
43.0891 16.1648 4.0264 0.8313
26.8902 18.4086 2.8511 0.8774
3.9428 5.6608 0.6035 0.9727
2.1801 5.6716 0.5316 0.9759
0.7171 5.6806 0.5009 0.9773
-0.6619 5.6890 0.5011 0.9773
-2.1267 5.6980 0.5321 0.9759
-3.8942 5.7089 0.6046 0.9726
-5.0064 5.7157 0.6648 0.9700
-8.1834 5.7203 0.8735 0.9607
-14.9538 5.7769 1.4025 0.9377
-71.5656 -36.9181 7.0452 0.7237
-32.8798 -36.5611 4.3019 0.8208
-25.5702 -36.4509 3.8955 0.8363
13.8225 -58.1993 5.2334 0.7865
23.2547 -45.2648 4.4522 0.8152
39.1144 -44.9592 5.2137 0.7872
49.2248 -44.4174 5.8007 0.7663
51.7325 -27.7733 5.1370 0.7900
56.2121 -14.4311 5.0774 0.7921
56.2554 -7.3888 4.9640 0.7963
51.9784 12.2532 4.6722 0.8070
26.8886 18.1445 2.8380 0.8779
3.9991 5.6604 0.6063 0.9726
0.7557 5.6803 0.5013 0.9773
-0.6233 5.6888 0.5007 0.9773
-2.0833 5.6978 0.5308 0.9759
-4.9388 5.7153 0.6609 0.9701
-10.6254 5.7503 1.0570 0.9526
-29.5452 -25.4448 3.4113 0.8551
-33.3224 -36.5584 4.3277 0.8199
-25.7420 -36.1784 3.8847 0.8367
-18.7788 -34.5615 3.4412 0.8539
-14.5121 -36.6504 3.4487 0.8536
-0.9205 -61.7140 5.3999 0.7805
19.4383 -84.3512 7.5732 0.7064
15.9904 -44.1906 4.1115 0.8280
48.9978 -44.8109 5.8091 0.7660
56.2097 -14.8321 5.0860 0.7918
56.2531 -7.7717 4.9683 0.7961
56.2024 -0.9323 4.9177 0.7980
49.7497 5.1986 4.3762 0.8180
51.9761 11.8861 4.6647 0.8073
34.2184 17.2194 3.3514 0.8574
5.1874 5.6531 0.6713 0.9697
4.0559 5.6601 0.6092 0.9724
3.1031 5.6659 0.5652 0.9744
1.5078 5.6757 0.5138 0.9767
-0.5848 5.6886 0.5003 0.9773
-1.2919 5.6929 0.5107 0.9768
-2.0401 5.6975 0.5295 0.9760
-3.7829 5.7082 0.5991 0.9729
-4.8720 5.7149 0.6570 0.9703
-7.9737 5.7340 0.8593 0.9613
-5.0206 2.7607 0.5013 0.9773
-7.3956 2.9714 0.6973 0.9685
-33.7704 -36.5557 4.3541 0.8189
-25.7389 -35.6663 3.8481 0.8381
-11.6940 -43.4321 3.9351 0.8348
-11.5193 -80.3997 7.1059 0.7217
16.1568 -45.6020 4.2327 0.8234
29.6930 -45.1331 4.7266 0.8050
51.7270 -28.6687 5.1741 0.7886
56.2072 -15.2343 5.0949 0.7915
56.2507 -8.1552 4.9728 0.7959
56.2001 -1.3085 4.9182 0.7979
49.9403 4.8809 4.3900 0.8175
51.9739 11.5203 4.6575 0.8075
45.8200 16.1480 4.2504 0.8228
34.7893 17.2159 3.3960 0.8557
5.2572 5.6527 0.6754 0.9695
3.1524 5.6656 0.5672 0.9743
2.3115 5.6708 0.5358 0.9757
0.1418 5.6841 0.4974 0.9774
-1.2518 5.6927 0.5099 0.9769
-3.7279 5.7079 0.5964 0.9730
-4.8060 5.7145 0.6533 0.9705
-6.1326 5.7227 0.7339 0.9669
-4.9731 2.7781 0.4984 0.9774
-14.0919 5.7716 1.3323 0.9407
-73.6656 -36.1480 7.1790 0.7193
-19.3802 -34.5578 3.4664 0.8529
-11.8704 -42.9409 3.8977 0.8362
29.2603 -45.1305 4.7057 0.8058
37.7099 -45.1437 5.1462 0.7896
48.1640 -45.2467 5.7816 0.7669
51.7719 -38.0239 5.6198 0.7727
51.7242 -29.1211 5.1932 0.7879
56.0732 -23.1852 5.3086 0.7838
56.1121 -15.6123 5.0957 0.7915
51.9717 11.1555 4.6505 0.8078
46.7999 16.1420 4.3312 0.8197
6.7788 5.6433 0.7717 0.9652
5.3277 5.6522 0.6796 0.9693
3.2021 5.6653 0.5693 0.9742
0.8720 5.6796 0.5027 0.9772
-0.5079 5.6881 0.4996 0.9773
-2.7626 5.7020 0.5543 0.9749
-3.6734 5.7076 0.5938 0.9731
-20.6205 5.8117 1.8743 0.9176
-58.2303 -28.0921 5.6563 0.7714
-19.6842 -34.5560 3.4793 0.8524
-11.8635 -41.8246 3.8035 0.8398
18.2245 -87.0314 7.7794 0.6997
28.8318 -45.1281 4.6852 0.8065
37.2294 -45.1794 5.1218 0.7905
47.5186 -45.2427 5.7403 0.7684
51.6691 -38.4834 5.6365 0.7721
50.6481 -21.3398 4.8084 0.8020
56.1097 -16.0168 5.1050 0.7911
51.9694 10.7917 4.6437 0.8081
35.9775 17.2086 3.4892 0.8520
26.8822 17.1116 2.7879 0.8799
5.3992 5.6518 0.6838 0.9691
3.2521 5.6650 0.5715 0.9741
1.6302 5.6750 0.5166 0.9766
0.9109 5.6794 0.5032 0.9772
0.2180 5.6836 0.4976 0.9774
-1.9117 5.6967 0.5257 0.9762
-2.7155 5.7017 0.5525 0.9750
-4.6763 5.7137 0.6460 0.9708
-5.9693 5.7217 0.7234 0.9673
-7.6424 5.7320 0.8358 0.9624
-4.9333 2.8431 0.4982 0.9774
-13.5636 5.7683 1.2895 0.9425
-19.9890 5.7784 1.8204 0.9198
-58.5978 -27.7877 5.6740 0.7707
-25.9827 -34.5224 3.7802 0.8407
-21.1874 -36.6227 3.7016 0.8438
-15.6562 -36.6434 3.4862 0.8521
-9.9273 -60.5995 5.3724 0.7815
20.1207 -42.6139 4.1229 0.8276
28.5288 -45.3194 4.6851 0.8065
52.1137 -39.3593 5.7136 0.7693
51.7185 -30.0363 5.2325 0.7865
50.4647 -21.6612 4.8046 0.8021
56.1072 -16.4230 5.1147 0.7908
56.2436 -9.3105 4.9876 0.7954
56.3277 4.3657 4.9428 0.7970
50.3623 16.6201 4.6399 0.8082
26.8807 16.8588 2.7760 0.8804
4.2886 5.6586 0.6212 0.9719
3.3025 5.6647 0.5737 0.9740
2.4450 5.6700 0.5402 0.9755
0.9499 5.6791 0.5038 0.9771
0.2560 5.6834 0.4977 0.9774
-0.4313 5.6876 0.4990 0.9774
-1.8693 5.6965 0.5245 0.9762
-3.5659 5.7069 0.5887 0.9733
-4.6125 5.7133 0.6424 0.9709
-5.8894 5.7212 0.7184 0.9676
-7.5360 5.7313 0.8283 0.9627
-13.3119 5.7668 1.2692 0.9434
-26.3448 -34.5202 3.7992 0.8400
-21.5146 -36.6207 3.7159 0.8432
-15.9165 -36.5735 3.4896 0.8520
15.0634 -46.4271 4.2703 0.8220
28.1057 -45.3168 4.6653 0.8073
35.3254 -44.0572 4.9405 0.7971
-88.8796 -35.7388 5.0204 0.6813
-22.8766 -34.5414 2.1713 0.8471
-12.4596 -34.8274 1.9385 0.8623
-8.9375 -87.1801 4.5929 0.7040
17.6561 -44.1223 2.4906 0.8267
32.3726 -45.1495 2.9116 0.8005
31.9161 -27.2856 2.2006 0.8452
52.1426 -34.6593 3.2813 0.7782
61.1544 -13.9668 3.2875 0.7778
61.1038 -6.3675 3.2197 0.7819
44.3903 6.1456 2.3486 0.8357
40.6304 16.1800 2.2920 0.8393
30.6684 16.7413 1.8311 0.8694
4.8511 5.6552 0.3905 0.9706
0.6016 5.6813 0.2994 0.9774
-0.7765 5.6786 0.3004 0.9773
-1.4913 5.6835 0.3079 0.9767
-2.2533 5.6859 0.3205 0.9758
-3.0919 5.6867 0.3392 0.9744
-4.0478 5.6854 0.3658 0.9724
-8.5696 5.7376 0.5405 0.9595
-15.8817 5.7718 0.8856 0.9346
-29.4980 -0.3989 1.5461 0.8885
-65.7481 -17.1337 3.5608 0.7617
-29.8250 -34.5340 2.3914 0.8330
-23.2326 -34.5743 2.1830 0.8463
-17.5960 -34.5582 2.0324 0.8561
-9.8189 -42.0198 2.2615 0.8413
-9.5269 -87.1765 4.5959 0.7038
15.3511 -59.3138 3.2109 0.7824
24.1444 -44.7628 2.6654 0.8157
31.9154 -45.1467 2.8975 0.8014
31.4840 -27.2830 2.1833 0.8463
61.2117 -22.4778 3.4174 0.7701
61.0578 0.6215 3.2001 0.7830
44.1899 5.8168 2.3359 0.8365
21.6016 5.5522 1.1689 0.9145
41.4223 16.1751 2.3305 0.8368
31.1567 16.7383 1.8536 0.8679
26.8935 18.9443 1.7240 0.8765
4.9168 5.6548 0.3927 0.9704
-0.0484 5.6853 0.2980 0.9775
-0.7378 5.6783 0.3001 0.9773
-1.4506 5.6832 0.3074 0.9768
-2.2101 5.6879 0.3198 0.9759
-3.9979 5.6957 0.3647 0.9725
-6.5547 5.7186 0.4559 0.9658
-11.1610 5.7536 0.6581 0.9509
-15.5808 5.7807 0.8709 0.9356
-46.1004 -11.6848 2.4924 0.8266
-23.5685 -34.5722 2.1928 0.8457
-17.8872 -34.5564 2.0393 0.8557
-7.6272 -65.7183 3.4673 0.7672
31.4626 -45.1439 2.8838 0.8022
52.1364 -35.6701 3.3106 0.7764
44.8470 -23.3092 2.6488 0.8167
61.1093 -7.1959 3.2247 0.7816
61.0604 0.2129 3.2001 0.7830
22.5010 2.8088 1.1884 0.9132
22.2024 5.5485 1.1994 0.9124
42.2414 16.1700 2.3704 0.8343
7.4770 6.6603 0.5248 0.9607
2.9573 5.6668 0.3350 0.9747
0.6786 5.6808 0.2998 0.9773
-0.0103 5.6850 0.2979 0.9775
-1.4101 5.6829 0.3069 0.9768
-2.1666 5.6884 0.3190 0.9759
-5.0747 5.7162 0.4006 0.9698
-29.5713 -0.0042 1.5498 0.8883
-46.1907 -11.3794 2.4931 0.8265
-30.6370 -34.5291 2.4192 0.8312
-9.7678 -39.4131 2.1280 0.8499
16.8557 -32.2763 1.9083 0.8643
52.1332 -36.1824 3.3257 0.7755
45.1939 -23.8749 2.6787 0.8149
61.1121 -7.6111 3.2275 0.7814
61.0631 -0.1956 3.2002 0.7830
43.0892 16.1648 2.4119 0.8317
26.8902 18.4086 1.7078 0.8776
7.5778 6.6597 0.5287 0.9604
3.9428 5.6608 0.3615 0.9727
3.0056 5.6665 0.3362 0.9746
1.4269 5.6762 0.3067 0.9768
0.0277 5.6848 0.2979 0.9775
-1.3697 5.6826 0.3063 0.9769
-2.1230 5.6880 0.3182 0.9760
-5.0064 5.7157 0.3982 0.9700
-6.3863 5.7240 0.4495 0.9662
-10.7994 5.7514 0.6412 0.9522
-14.9538 5.7769 0.8401 0.9378
-23.0144 5.8264 1.2442 0.9093
-24.2494 -34.5680 2.2129 0.8444
-18.4814 -34.5633 2.0541 0.8547
-9.7609 -38.2864 2.0707 0.8536
-8.5171 -65.6959 3.4718 0.7669
14.0346 -59.0923 3.1830 0.7841
23.1407 -45.0429 2.6539 0.8164
26.2862 -30.2141 2.0988 0.8518
51.8811 -36.5243 3.3252 0.7756
51.7325 -27.7733 3.0772 0.7904
61.2212 -23.8864 3.4440 0.7686
61.1661 -15.7029 3.3095 0.7765
61.1148 -8.0271 3.2304 0.7812
44.6110 4.9635 2.3524 0.8354
23.5030 5.5405 1.2655 0.9078
43.9669 16.1594 2.4549 0.8289
33.6624 17.2229 1.9817 0.8595
6.5079 5.6428 0.4514 0.9661
3.9991 5.6604 0.3632 0.9726
3.0542 5.6662 0.3373 0.9745
2.2237 5.6713 0.3193 0.9759
0.7557 5.6803 0.3003 0.9773
0.0658 5.6846 0.2979 0.9775
-0.6221 5.6776 0.2993 0.9774
-2.8966 5.6848 0.3344 0.9748
-3.8284 5.6939 0.3596 0.9729
-4.9388 5.7153 0.3959 0.9702
-6.3007 5.7237 0.4461 0.9665
-27.1511 19.2505 1.7443 0.8752
-7.4352 2.9297 0.4188 0.9685
-22.3688 5.8225 1.2114 0.9116
-9.7562 -37.2258 2.0168 0.8571
20.6824 -89.7502 4.8269 0.6915
22.7599 -45.0406 2.6447 0.8170
30.1293 -45.1358 2.8441 0.8046
26.2837 -30.6227 2.1149 0.8507
51.7517 -28.2314 3.0895 0.7897
44.7741 4.6787 2.3593 0.8350
44.8766 16.1538 2.4996 0.8261
34.2184 17.2194 2.0076 0.8578
26.8870 17.8828 1.6923 0.8787
4.0559 5.6601 0.3649 0.9725
0.7944 5.6801 0.3006 0.9773
-1.2894 5.6821 0.3054 0.9769
-2.0365 5.6874 0.3166 0.9761
-2.8486 5.6844 0.3332 0.9749
-3.7730 5.6934 0.3579 0.9730
-4.8720 5.7149 0.3936 0.9704
-6.2160 5.7232 0.4428 0.9667
-5.0205 2.7606 0.3003 0.9773
-7.3944 2.9709 0.4176 0.9686
-21.7560 5.8187 1.1803 0.9137
-31.8911 -34.5214 2.4630 0.8284
-19.0784 -34.5596 2.0688 0.8537
-9.7481 -36.2052 1.9650 0.8605
-11.5193 -80.3997 4.2566 0.7223
19.6541 -87.9743 4.7242 0.6969
16.2195 -45.7790 2.5453 0.8232
29.6930 -45.1331 2.8313 0.8054
26.2811 -31.0376 2.1314 0.8497
61.2276 -24.8380 3.4628 0.7675
61.1719 -16.5800 3.3216 0.7758
61.1204 -8.8612 3.2367 0.7808
34.7893 17.2159 2.0343 0.8560
26.8854 17.6234 1.6847 0.8792
6.6777 5.6352 0.4579 0.9656
5.2572 5.6527 0.4046 0.9696
4.1132 5.6597 0.3667 0.9724
3.1524 5.6656 0.3398 0.9744
0.8332 5.6799 0.3009 0.9773
0.1418 5.6841 0.2980 0.9775
-0.5453 5.6771 0.2989 0.9774
-1.2494 5.6818 0.3049 0.9770
-2.8009 5.6839 0.3321 0.9749
-3.7180 5.6928 0.3563 0.9731
-4.8060 5.7145 0.3913 0.9705
-6.1326 5.7227 0.4396 0.9670
-4.9731 2.7780 0.2985 0.9774
-21.1741 5.8151 1.1508 0.9158
-32.2869 -34.4838 2.4758 0.8276
-12.0682 -80.3964 4.2606 0.7221
19.0090 -54.8142 3.0405 0.7926
22.1162 -45.2613 2.6401 0.8173
29.0260 -27.2679 2.0871 0.8526
51.7719 -38.0239 3.3664 0.7731
52.1726 -29.3736 3.1378 0.7868
61.1749 -17.0209 3.3278 0.7754
25.7480 5.5267 1.3801 0.8999
46.7999 16.1420 2.5945 0.8201
35.3754 17.2123 2.0617 0.8542
3.2021 5.6653 0.3410 0.9743
-0.5071 5.6784 0.2988 0.9774
-1.2096 5.6815 0.3044 0.9770
-1.9508 5.6868 0.3151 0.9762
-2.7536 5.6835 0.3310 0.9750
-6.0504 5.7222 0.4364 0.9672
-4.9462 2.8066 0.2980 0.9775
-13.8235 5.7699 0.7850 0.9418
-20.6205 5.8117 1.1228 0.9178
-58.1904 -28.0729 3.3860 0.7720
-25.6244 -34.5246 2.2533 0.8418
-19.6842 -34.5559 2.0842 0.8527
-10.0937 -35.5853 1.9385 0.8623
18.6487 -89.0574 4.7685 0.6946
15.1889 -44.7640 2.4773 0.8275
28.8316 -45.1278 2.8065 0.8069
26.2759 -31.8869 2.1654 0.8475
28.6371 -27.2655 2.0723 0.8535
50.8560 -21.4274 2.8923 0.8017
61.1779 -17.4635 3.3343 0.7750
61.1260 -9.6990 3.2435 0.7804
49.2725 16.6268 2.7253 0.8120
26.8822 17.1116 1.6700 0.8802
5.3992 5.6518 0.4096 0.9692
4.2296 5.6590 0.3703 0.9721
3.2521 5.6650 0.3423 0.9742
2.4002 5.6702 0.3227 0.9756
1.6302 5.6750 0.3094 0.9766
0.9109 5.6794 0.3014 0.9772
-1.1698 5.6812 0.3040 0.9770
-1.9083 5.6865 0.3143 0.9763
-2.7066 5.6831 0.3299 0.9751
-5.9693 5.7217 0.4333 0.9674
-4.9332 2.8431 0.2984 0.9775
-19.9890 5.7784 1.0905 0.9200
-58.3019 -27.6474 3.3816 0.7722
-19.9936 -34.5591 2.0924 0.8522
-12.7818 -78.0241 4.1436 0.7286
18.0303 -89.0704 4.7627 0.6949
28.4066 -45.1252 2.7945 0.8077
28.2535 -27.2631 2.0577 0.8545
52.1137 -39.3593 3.4226 0.7698
52.1670 -30.2967 3.1616 0.7853
61.1809 -17.9082 3.3409 0.7747
61.0793 -2.6493 3.2040 0.7828
61.0309 4.7303 3.2081 0.7826
26.8807 16.8588 1.6629 0.8807
6.9423 5.6239 0.4682 0.9648
4.2886 5.6586 0.3721 0.9720
3.3025 5.6647 0.3436 0.9741
2.4450 5.6700 0.3236 0.9756
-1.1302 5.6810 0.3036 0.9771
-1.8659 5.6862 0.3136 0.9763
-2.6599 5.6826 0.3288 0.9752
-5.8894 5.7212 0.4303 0.9676
-19.5900 5.8054 1.0708 0.9214
-20.3022 -34.5572 2.1005 0.8517
17.6273 -90.1779 4.8155 0.6921
27.9852 -45.1226 2.7827 0.8084
26.2705 -32.7642 2.2009 0.8452
-25.3307 -38.2471 0.8007 0.8323
-15.6450 -31.2418 0.6099 0.8695
-12.2306 -34.1875 0.6338 0.8648
22.1052 -55.2407 1.0386 0.7882
26.2415 -36.5985 0.7861 0.8351
41.1347 -27.3423 0.8622 0.8207
30.6684 16.7413 0.6099 0.8695
26.9655 19.2663 0.5785 0.8758
6.1712 5.6471 0.1460 0.9671
4.8511 5.6552 0.1301 0.9706
3.7554 5.6293 0.1181 0.9733
2.8618 5.6674 0.1108 0.9749
2.0507 5.6724 0.1053 0.9762
-0.7748 5.6659 0.0998 0.9774
-1.4877 5.6697 0.1023 0.9768
-3.0752 5.6560 0.1124 0.9746
-6.6524 5.7259 0.1532 0.9655
-8.5429 5.7198 0.1795 0.9597
-11.2827 5.7211 0.2208 0.9507
-63.5975 -16.5733 1.1472 0.7688
-29.4857 -34.1411 0.7874 0.8349
-25.4656 -37.8974 0.7969 0.8330
-17.3911 -34.1558 0.6690 0.8578
-12.4887 -34.1859 0.6353 0.8645
23.4640 -90.6606 1.6346 0.6875
18.2771 -46.5753 0.8733 0.8186
26.2935 -29.0250 0.6836 0.8550
42.3682 -21.6620 0.8306 0.8267
75.2303 -27.6257 1.3989 0.7257
26.9638 18.9939 0.5757 0.8764
6.2434 5.6369 0.1468 0.9669
4.9168 5.6548 0.1308 0.9705
3.8318 5.6614 0.1193 0.9730
2.0937 5.6721 0.1055 0.9761
0.6401 5.6810 0.0998 0.9774
-0.0484 5.6853 0.0992 0.9775
-1.4471 5.6695 0.1021 0.9769
-2.2047 5.6739 0.1063 0.9759
-5.1439 5.7166 0.1342 0.9697
-8.4284 5.7252 0.1778 0.9601
-11.0950 5.7195 0.2179 0.9513
-15.5808 5.7807 0.2901 0.9357
-46.1323 -11.6929 0.8307 0.8266
-9.4059 -39.0707 0.7015 0.8515
23.4486 -93.1666 1.6769 0.6809
23.9370 -45.0979 0.8912 0.8153
39.9536 -27.3350 0.8450 0.8239
42.2137 -21.9405 0.8304 0.8267
73.6771 -27.6162 1.3734 0.7300
88.2747 -21.4075 1.5854 0.6953
22.4972 2.8084 0.3957 0.9133
44.8124 17.1542 0.8376 0.8253
26.9622 18.7241 0.5730 0.8769
7.0471 6.2775 0.1647 0.9629
2.9573 5.6668 0.1116 0.9748
1.3867 5.6765 0.1020 0.9769
0.6786 5.6808 0.0999 0.9774
-0.0103 5.6850 0.0992 0.9775
-1.4067 5.6692 0.1020 0.9769
-6.4738 5.7248 0.1508 0.9660
-10.9122 5.7180 0.2150 0.9519
-15.2616 5.7788 0.2848 0.9368
-30.2999 -34.1492 0.7969 0.8331
-25.7485 -37.2323 0.7902 0.8344
-10.2692 -83.5949 1.4701 0.7139
22.2402 -58.9833 1.1002 0.7771
26.2277 -38.1748 0.8085 0.8309
39.3805 -27.3315 0.8367 0.8255
88.7698 -22.1575 1.5970 0.6935
42.3040 4.9937 0.7435 0.8433
5.0505 5.6539 0.1323 0.9701
3.9428 5.6608 0.1204 0.9728
3.0056 5.6665 0.1120 0.9747
2.1801 5.6716 0.1061 0.9760
1.4269 5.6762 0.1022 0.9769
0.0277 5.6848 0.0992 0.9775
-0.6598 5.6713 0.0997 0.9774
-1.3664 5.6690 0.1018 0.9769
-2.1177 5.6738 0.1057 0.9761
-2.9292 5.6550 0.1112 0.9748
-3.8621 5.6618 0.1196 0.9730
-5.0064 5.7157 0.1326 0.9701
-8.1834 5.7203 0.1743 0.9608
-10.7340 5.7166 0.2123 0.9525
-22.9851 5.8190 0.4139 0.9095
-65.0387 -15.5618 1.1673 0.7653
-30.7060 -34.1440 0.8015 0.8322
-25.7452 -36.7003 0.7825 0.8358
-18.6453 -34.8698 0.6902 0.8537
-13.2705 -34.1811 0.6400 0.8636
-11.0737 -43.4360 0.7824 0.8358
-8.9209 -68.8106 1.2111 0.7576
26.2324 -38.7343 0.8166 0.8293
26.2862 -30.2141 0.6990 0.8520
30.2273 -27.2753 0.7107 0.8497
23.5030 5.5405 0.4215 0.9079
46.6430 17.1430 0.8674 0.8197
26.9589 18.1920 0.5677 0.8780
5.1186 5.6535 0.1331 0.9700
0.7557 5.6803 0.1000 0.9773
0.0658 5.6846 0.0992 0.9775
-0.6216 5.6731 0.0996 0.9774
-1.3263 5.6687 0.1016 0.9770
-2.8812 5.6546 0.1108 0.9749
-3.8066 5.6614 0.1191 0.9731
-4.9388 5.7153 0.1318 0.9702
-27.1511 19.2505 0.5810 0.8753
-7.4327 2.9287 0.1394 0.9685
-76.6697 -17.8032 1.3739 0.7299
-70.1237 -35.5822 1.3726 0.7301
-31.1156 -34.1373 0.8062 0.8313
-25.7420 -36.1784 0.7750 0.8372
-18.7788 -34.5614 0.6866 0.8544
-13.5337 -34.1795 0.6417 0.8632
-9.0681 -66.4563 1.1707 0.7647
32.7292 -90.4493 1.6790 0.6806
23.0881 -45.6901 0.8936 0.8148
38.2670 -27.3247 0.8208 0.8285
69.3386 -27.5895 1.3026 0.7419
82.4806 -21.7642 1.4890 0.7109
42.6015 4.4516 0.7477 0.8425
24.2089 5.5362 0.4335 0.9054
34.2184 17.2194 0.6686 0.8579
5.1874 5.6531 0.1339 0.9698
2.2675 5.6710 0.1066 0.9759
0.7944 5.6801 0.1001 0.9773
0.1038 5.6843 0.0992 0.9775
-1.2863 5.6684 0.1015 0.9770
-2.8335 5.6543 0.1104 0.9750
-3.7516 5.6610 0.1185 0.9732
-6.2160 5.7232 0.1475 0.9668
-7.3931 2.9704 0.1391 0.9686
-21.7368 5.8136 0.3928 0.9139
-70.4899 -35.1769 1.3751 0.7297
-31.5323 -34.1331 0.8111 0.8304
-19.0784 -34.5596 0.6891 0.8539
-9.5211 -66.4536 1.1718 0.7645
22.4068 -45.0887 0.8788 0.8176
27.7315 -42.1517 0.8807 0.8172
29.4205 -27.2703 0.7002 0.8517
37.7191 -27.3162 0.8129 0.8300
82.4770 -22.3545 1.4916 0.7104
45.7211 4.4685 0.8019 0.8321
24.9559 5.5316 0.4462 0.9028
26.5250 9.3480 0.4909 0.8936
26.9557 17.6695 0.5626 0.8790
5.2572 5.6527 0.1347 0.9696
3.1524 5.6656 0.1132 0.9744
1.5485 5.6755 0.1027 0.9767
-0.5452 5.6766 0.0995 0.9774
-1.2464 5.6682 0.1013 0.9770
-4.8061 5.7145 0.1303 0.9706
-7.8612 5.7333 0.1698 0.9618
-21.1530 5.8093 0.3829 0.9160
-31.9606 -34.1353 0.8162 0.8294
-25.4464 -34.7685 0.7521 0.8417
-19.3802 -34.5578 0.6916 0.8534
31.3640 -90.4411 1.6709 0.6818
22.1660 -45.3632 0.8813 0.8171
26.2786 -31.4589 0.7155 0.8488
29.0260 -27.2679 0.6951 0.8527
82.4733 -22.9468 1.4943 0.7100
35.3754 17.2123 0.6867 0.8544
26.6014 17.1840 0.5528 0.8810
7.2310 6.0198 0.1642 0.9631
4.1711 5.6593 0.1227 0.9723
3.2021 5.6653 0.1136 0.9743
1.5893 5.6752 0.1029 0.9767
0.8720 5.6796 0.1003 0.9773
0.1799 5.6839 0.0993 0.9775
-0.5071 5.6784 0.0995 0.9775
-1.9460 5.6727 0.1047 0.9763
-13.8234 5.7699 0.2615 0.9418
-58.1508 -28.0538 1.1270 0.7724
-32.3941 -34.1377 0.8215 0.8284
-25.6244 -34.5246 0.7505 0.8420
-19.6842 -34.5559 0.6942 0.8529
-14.3318 -34.1746 0.6468 0.8622
-11.7147 -41.2999 0.7493 0.8422
22.1614 -46.1341 0.8934 0.8148
26.9254 -42.1442 0.8729 0.8187
26.2759 -31.8869 0.7212 0.8476
28.6371 -27.2655 0.6902 0.8537
36.6507 -27.2976 0.7977 0.8329
47.8861 -27.3838 0.9629 0.8020
82.4697 -23.5414 1.4970 0.7096
51.9694 10.7917 0.9265 0.8087
35.9775 17.2086 0.6961 0.8525
26.8822 17.1116 0.5562 0.8803
7.2676 5.9684 0.1642 0.9631
2.4002 5.6702 0.1075 0.9757
0.9109 5.6794 0.1004 0.9773
0.2180 5.6836 0.0993 0.9775
-0.4689 5.6802 0.0995 0.9775
-1.1670 5.6677 0.1010 0.9771
-1.9036 5.6724 0.1044 0.9763
-3.5894 5.6598 0.1170 0.9735
-7.6424 5.7320 0.1667 0.9625
-13.5636 5.7683 0.2573 0.9427
-19.9890 5.7784 0.3632 0.9201
-58.1947 -27.5966 1.1242 0.7729
-32.8472 -34.1547 0.8271 0.8273
-25.9827 -34.5224 0.7542 0.8413
-10.8849 -66.4452 1.1753 0.7639
22.1566 -46.9258 0.9058 0.8125
26.2733 -32.3218 0.7271 0.8465
36.5965 17.2048 0.7059 0.8506
7.3042 5.9171 0.1641 0.9631
4.2886 5.6586 0.1239 0.9720
3.3025 5.6647 0.1145 0.9741
0.9499 5.6791 0.1005 0.9772
0.2561 5.6834 0.0993 0.9775
-4.6125 5.7133 0.1282 0.9711
-5.8894 5.7212 0.1433 0.9677
-7.5360 5.7313 0.1653 0.9628
-4.9374 2.8897 0.0999 0.9774
-19.5900 5.8054 0.3566 0.9215
-71.1348 -33.1518 1.3699 0.7305
-33.3123 -34.1777 0.8331 0.8262
-11.7021 -39.2476 0.7149 0.8489
22.3074 -48.0757 0.9251 0.8089
26.2705 -32.7642 0.7330 0.8453
-80.9688 -32.5579 -1.5233 0.7053
-66.3025 -36.4817 -1.3209 0.7388
-14.6643 -22.1418 -0.4636 0.8992
-11.6596 -23.2833 -0.4545 0.9011
-8.8544 -24.7501 -0.4588 0.9002
23.2319 -87.3504 -1.5777 0.6966
21.4593 -53.6264 -1.0082 0.7937
22.9127 -41.8073 -0.8322 0.8264
26.2959 -28.6401 -0.6787 0.8559
42.4672 -21.3553 -0.8297 0.8268
68.8084 1.1608 -1.2012 0.7593
20.8224 5.5007 -0.3759 0.9174
41.8670 16.6724 -0.7865 0.8350
26.8952 19.2161 -0.5770 0.8761
6.1712 5.6471 -0.1460 0.9671
3.7554 5.6293 -0.1181 0.9733
2.8618 5.6674 -0.1108 0.9749
2.0507 5.6724 -0.1053 0.9762
1.3065 5.6770 -0.1017 0.9770
0.6016 5.6813 -0.0997 0.9774
-0.0864 5.6855 -0.0993 0.9775
-0.7748 5.6659 -0.0998 0.9774
-2.2422 5.6579 -0.1062 0.9759
-3.0588 5.6257 -0.1118 0.9747
-4.0086 5.6304 -0.1206 0.9727
-5.2139 5.7170 -0.1351 0.9695
-8.5429 5.7198 -0.1795 0.9597
-11.1646 5.6612 -0.2185 0.9512
-24.9661 5.7899 -0.4473 0.9026
-63.5763 -16.5677 -1.1468 0.7689
-80.9862 -31.9371 -1.5196 0.7059
-66.2642 -35.8851 -1.3154 0.7397
-14.8349 -22.0771 -0.4643 0.8991
-9.0233 -24.6998 -0.4590 0.9001
-5.9752 -54.6761 -0.9601 0.8025
18.2863 -46.5987 -0.8738 0.8185
26.2935 -29.0250 -0.6836 0.8550
40.5382 -27.3386 -0.8535 0.8223
41.6151 -21.2769 -0.8158 0.8295
75.8699 -27.8606 -1.4108 0.7237
68.7245 0.6995 -1.1996 0.7596
44.1739 5.8147 -0.7777 0.8367
21.3956 5.4993 -0.3856 0.9154
43.9435 17.1596 -0.8234 0.8280
26.8935 18.9444 -0.5742 0.8767
4.9168 5.6548 -0.1308 0.9705
2.9094 5.6671 -0.1112 0.9748
2.0937 5.6721 -0.1055 0.9761
0.6401 5.6810 -0.0998 0.9774
-0.0484 5.6853 -0.0992 0.9775
-3.0101 5.6255 -0.1114 0.9748
-3.9519 5.6301 -0.1201 0.9729
-5.1439 5.7166 -0.1342 0.9697
-6.5624 5.7253 -0.1520 0.9658
-24.3494 5.8188 -0.4370 0.9047
-80.8794 -10.3712 -1.4233 0.7216
-81.0305 -31.3297 -1.5164 0.7064
-65.3895 -45.7352 -1.3928 0.7267
-20.1318 -22.9976 -0.5335 0.8849
-9.2271 -24.7429 -0.4609 0.8997
-5.9244 -51.0456 -0.8970 0.8142
22.2314 -41.8845 -0.8277 0.8272
31.0587 -27.2804 -0.7216 0.8476
39.9536 -27.3350 -0.8450 0.8239
74.5796 -27.9544 -1.3902 0.7271
89.2837 -21.6522 -1.6036 0.6924
68.7412 0.2397 -1.1999 0.7596
22.4933 2.8079 -0.3957 0.9133
44.8124 17.1542 -0.8376 0.8253
7.0471 6.2775 -0.1647 0.9629
3.8871 5.6611 -0.1199 0.9729
2.9573 5.6668 -0.1116 0.9748
2.1368 5.6718 -0.1058 0.9760
-0.0103 5.6850 -0.0992 0.9775
-0.6981 5.6695 -0.0997 0.9774
-1.4033 5.6556 -0.1017 0.9770
-2.1558 5.6600 -0.1057 0.9761
-3.8957 5.6298 -0.1195 0.9730
-8.3159 5.7305 -0.1763 0.9604
-10.8141 5.6667 -0.2131 0.9523
-15.2616 5.7788 -0.2848 0.9368
-23.1995 5.7084 -0.4170 0.9088
-81.0481 -9.8421 -1.4251 0.7214
-81.1014 -30.7351 -1.5139 0.7068
-69.4366 -47.8773 -1.4722 0.7136
-20.6069 -23.2248 -0.5420 0.8832
-12.1813 -23.1522 -0.4566 0.9006
-9.3606 -24.5969 -0.4594 0.9001
-7.0050 -28.2651 -0.5083 0.8900
22.8788 -93.5426 -1.6809 0.6803
21.1991 -56.2221 -1.0488 0.7863
26.2887 -29.8118 -0.6938 0.8530
39.3805 -27.3315 -0.8367 0.8255
89.2798 -22.2848 -1.6062 0.6920
45.7118 17.1487 -0.8522 0.8226
33.1205 17.2262 -0.6516 0.8613
26.8902 18.4086 -0.5688 0.8778
7.0840 6.2258 -0.1646 0.9630
5.0505 5.6539 -0.1323 0.9701
3.0056 5.6665 -0.1120 0.9747
2.1801 5.6716 -0.1061 0.9760
1.4269 5.6762 -0.1022 0.9769
0.7171 5.6806 -0.0999 0.9774
0.0277 5.6848 -0.0992 0.9775
-0.6598 5.6713 -0.0997 0.9774
-2.9141 5.6258 -0.1106 0.9750
-3.8401 5.6296 -0.1189 0.9731
-8.1834 5.7203 -0.1743 0.9608
-14.9538 5.7769 -0.2798 0.9379
-95.1902 0.6235 -1.6616 0.6833
-66.2535 -7.5960 -1.1640 0.7658
-69.1926 -47.0290 -1.4603 0.7156
-20.7822 -23.1091 -0.5425 0.8831
-12.3454 -23.0879 -0.4570 0.9006
-14.1739 -36.5080 -0.6836 0.8550
22.6259 -95.2658 -1.7091 0.6759
21.0961 -57.1037 -1.0626 0.7838
21.7756 -42.3857 -0.8318 0.8264
26.2338 -38.7364 -0.8166 0.8293
38.8183 -27.3280 -0.8286 0.8270
71.0257 -27.7119 -1.3308 0.7371
89.2759 -22.9194 -1.6088 0.6916
44.1684 4.9143 -0.7757 0.8371
23.5030 5.5405 -0.4215 0.9079
46.6430 17.1430 -0.8674 0.8197
33.6624 17.2229 -0.6600 0.8596
5.1186 5.6535 -0.1331 0.9700
3.9991 5.6604 -0.1210 0.9727
3.0542 5.6662 -0.1124 0.9746
2.2237 5.6713 -0.1063 0.9759
0.7557 5.6803 -0.1000 0.9773
-0.6216 5.6731 -0.0996 0.9774
-1.3231 5.6551 -0.1014 0.9770
-2.0693 5.6595 -0.1052 0.9762
-2.8676 5.6280 -0.1103 0.9750
-3.7850 5.6293 -0.1184 0.9732
-4.9388 5.7153 -0.1318 0.9702
-10.4991 5.6819 -0.2084 0.9534
-55.5047 -12.8885 -0.9946 0.7962
-29.5329 -25.4343 -0.6803 0.8556
-5.8440 -42.8277 -0.7545 0.8412
22.2182 -96.4144 -1.7270 0.6731
24.4093 -67.4567 -1.2522 0.7505
21.5744 -42.6947 -0.8350 0.8258
27.9387 -41.8541 -0.8784 0.8177
26.2837 -30.6227 -0.7044 0.8509
29.8210 -27.2728 -0.7054 0.8507
38.2670 -27.3247 -0.8208 0.8285
89.2720 -23.5563 -1.6116 0.6912
24.2089 5.5362 -0.4335 0.9054
26.8870 17.8827 -0.5636 0.8788
5.1874 5.6531 -0.1339 0.9698
4.0559 5.6601 -0.1215 0.9725
2.2675 5.6710 -0.1066 0.9759
1.5078 5.6757 -0.1025 0.9768
0.7944 5.6801 -0.1001 0.9773
0.1038 5.6843 -0.0992 0.9775
-2.0264 5.6592 -0.1049 0.9762
-3.7304 5.6291 -0.1179 0.9733
-7.9737 5.7340 -0.1714 0.9615
-5.0204 2.7605 -0.1000 0.9773
-7.3919 2.9699 -0.1390 0.9686
-21.5371 5.7602 -0.3891 0.9147
-62.6044 8.8627 -1.1037 0.7765
-62.8568 1.2529 -1.0974 0.7776
-73.0807 -7.3894 -1.2821 0.7454
-81.2160 -28.9281 -1.5049 0.7083
-68.9890 -45.5530 -1.4430 0.7184
-66.5114 -56.5102 -1.5234 0.7053
-16.1120 -22.3264 -0.4806 0.8957
-9.8529 -24.4053 -0.4594 0.9001
-5.9536 -41.5541 -0.7327 0.8454
26.2811 -31.0376 -0.7099 0.8498
29.4205 -27.2703 -0.7002 0.8517
26.8854 17.6234 -0.5611 0.8793
5.2572 5.6527 -0.1347 0.9696
3.1524 5.6656 -0.1132 0.9744
0.8332 5.6799 -0.1002 0.9773
0.1418 5.6841 -0.0992 0.9775
-2.7756 5.6324 -0.1096 0.9752
-3.6762 5.6288 -0.1173 0.9735
-4.8061 5.7145 -0.1303 0.9706
-6.1326 5.7227 -0.1464 0.9670
-7.8612 5.7333 -0.1698 0.9618
-14.0919 5.7716 -0.2658 0.9409
-62.8542 1.6738 -1.0975 0.7776
-55.1565 -12.0323 -0.9854 0.7978
-81.0614 -28.2630 -1.4985 0.7093
-68.9398 -44.8611 -1.4357 0.7196
-66.4339 -55.6834 -1.5131 0.7070
-22.0787 -23.5810 -0.5639 0.8788
-7.4049 -26.7871 -0.4851 0.8948
-5.9558 -39.6763 -0.7003 0.8517
17.7142 -36.2525 -0.7043 0.8509
29.0260 -27.2679 -0.6951 0.8527
25.7480 5.5267 -0.4597 0.9000
35.3754 17.2123 -0.6867 0.8544
5.3277 5.6522 -0.1356 0.9694
3.2021 5.6653 -0.1136 0.9743
1.5893 5.6752 -0.1029 0.9767
0.8720 5.6796 -0.1003 0.9773
-2.7299 5.6346 -0.1093 0.9753
-4.7408 5.7141 -0.1296 0.9707
-6.0504 5.7222 -0.1454 0.9672
-7.7508 5.7326 -0.1683 0.9622
-95.2580 14.7884 -1.6826 0.6800
-62.8516 2.0946 -1.0977 0.7776
-95.2919 -8.3488 -1.6697 0.6820
-55.9365 -11.8110 -0.9979 0.7956
-58.1112 -28.0347 -1.1262 0.7725
-68.7644 -44.0950 -1.4259 0.7212
-65.4755 -54.1380 -1.4830 0.7119
-22.6399 -23.8585 -0.5741 0.8767
-16.7729 -22.5988 -0.4912 0.8935
-10.1310 -24.1576 -0.4572 0.9005
-5.9362 -37.8203 -0.6682 0.8580
26.7879 -41.9289 -0.8685 0.8195
26.2759 -31.8869 -0.7212 0.8476
28.6371 -27.2655 -0.6902 0.8537
36.6738 -27.3149 -0.7982 0.8328
65.8754 -27.7556 -1.2477 0.7513
35.9775 17.2086 -0.6961 0.8525
26.8822 17.1116 -0.5562 0.8803
7.2676 5.9684 -0.1642 0.9631
4.2296 5.6590 -0.1233 0.9721
3.2521 5.6650 -0.1140 0.9742
1.6302 5.6750 -0.1031 0.9767
0.9109 5.6794 -0.1004 0.9773
0.2180 5.6836 -0.0993 0.9775
-0.4689 5.6802 -0.0995 0.9775
-1.1643 5.6542 -0.1008 0.9772
-1.8989 5.6585 -0.1042 0.9764
-2.6846 5.6368 -0.1090 0.9753
-3.5694 5.6283 -0.1163 0.9737
-4.6763 5.7137 -0.1289 0.9709
-5.9693 5.7217 -0.1443 0.9675
-7.6424 5.7320 -0.1667 0.9625
-4.9332 2.8430 -0.0994 0.9775
-13.5636 5.7683 -0.2573 0.9427
-19.9890 5.7784 -0.3632 0.9201
-31.7595 5.1483 -0.5616 0.8792
-95.2878 -7.7065 -1.6687 0.6822
-81.0286 -27.0413 -1.4910 0.7105
-58.0933 -27.5485 -1.1223 0.7732
-68.6457 -43.3732 -1.4173 0.7226
-66.2340 -54.0233 -1.4920 0.7104
-23.3151 -24.2431 -0.5871 0.8741
-13.0866 -22.6204 -0.4562 0.9007
18.4652 -91.2186 -1.6245 0.6891
36.1621 -27.3117 -0.7910 0.8342
47.1434 -27.3792 -0.9516 0.8040
7.3042 5.9171 -0.1641 0.9631
5.4715 5.6513 -0.1373 0.9690
0.9499 5.6791 -0.1005 0.9772
0.2561 5.6834 -0.0993 0.9775
-0.4308 5.6820 -0.0995 0.9775
-2.6395 5.6389 -0.1087 0.9754
-4.9374 2.8896 -0.0999 0.9774
-19.5900 5.8054 -0.3566 0.9215
-81.1700 -16.0074 -1.4441 0.7182
-68.4995 -42.6424 -1.4084 0.7241
-23.8750 -24.4953 -0.5971 0.8721
-17.1848 -22.5177 -0.4944 0.8929
-13.3014 -22.6409 -0.4584 0.9003
-10.4471 -24.0058 -0.4570 0.9006
-7.6830 -25.7679 -0.4693 0.8980
-5.9647 -34.9427 -0.6187 0.8678
-3.9534 -81.6729 -1.4272 0.7210
26.0000 -41.9216 -0.8610 0.8209
26.2705 -32.7642 -0.7330 0.8453
-44.2860 -17.8076 -2.5015 0.8260
-41.8195 -23.0104 -2.5015 0.8260
-38.7446 -27.8785 -2.5015 0.8260
-14.4560 -21.8273 -1.3720 0.9004
-8.7801 -24.5424 -1.3660 0.9009
-6.5712 -28.9958 -1.5581 0.8877
-4.5717 -44.5942 -2.3493 0.8356
6.6249 -47.2701 -2.5015 0.8260
16.6545 -41.6194 -2.3493 0.8356
21.5447 -39.3112 -2.3493 0.8356
26.1214 -36.4310 -2.3493 0.8356
26.3050 -28.6501 -2.0384 0.8557
47.4750 -4.9473 -2.5015 0.8260
20.5839 5.4377 -1.1158 0.9183
21.2155 8.4485 -1.1968 0.9126
21.2675 11.6095 -1.2698 0.9075
6.1712 5.6471 -0.4384 0.9670
2.8618 5.6674 -0.3327 0.9749
1.3065 5.6770 -0.3053 0.9769
-0.0864 5.6855 -0.2980 0.9775
-0.7748 5.6659 -0.2997 0.9774
-1.4805 5.6425 -0.3057 0.9769
-2.2367 5.6440 -0.3182 0.9760
-3.0472 5.6045 -0.3343 0.9748
-8.5429 5.7198 -0.5388 0.9597
-11.0916 5.6242 -0.6517 0.9514
-23.6616 5.4874 -1.2730 0.9073
-41.9726 -22.7301 -2.5015 0.8260
-38.9303 -27.6186 -2.5015 0.8260
-33.1724 -30.1519 -2.3493 0.8356
-14.7584 -21.9632 -1.3868 0.8994
-8.9415 -24.4759 -1.3656 0.9009
11.9595 -46.2096 -2.5015 0.8260
21.2812 -39.4545 -2.3493 0.8356
23.6579 -33.4658 -2.1478 0.8486
37.1661 -25.0645 -2.3493 0.8356
39.9137 -20.4070 -2.3493 0.8356
46.4618 -10.9388 -2.5015 0.8260
47.4409 -5.2648 -2.5015 0.8260
41.9897 5.5272 -2.2196 0.8440
21.3319 15.0266 -1.3675 0.9008
3.8318 5.6614 -0.3583 0.9730
2.9094 5.6671 -0.3339 0.9748
2.0937 5.6721 -0.3169 0.9761
1.3465 5.6767 -0.3058 0.9769
-0.0484 5.6853 -0.2980 0.9775
-0.7364 5.6677 -0.2995 0.9774
-1.4402 5.6422 -0.3052 0.9769
-3.0001 5.6068 -0.3333 0.9749
-3.9293 5.5979 -0.3584 0.9730
-8.4284 5.7252 -0.5340 0.9600
-10.9262 5.6325 -0.6442 0.9520
-45.0476 5.1519 -2.3762 0.8339
-33.3734 -29.9292 -2.3493 0.8356
-9.0769 -24.3401 -1.3614 0.9012
-3.3278 -28.6734 -1.5128 0.8908
0.2463 -47.7315 -2.5015 0.8260
11.6501 -46.2885 -2.5015 0.8260
16.1209 -41.9029 -2.3529 0.8354
26.1870 -29.2990 -2.0594 0.8544
29.2598 -25.7003 -2.0410 0.8556
36.9975 -25.3126 -2.3493 0.8356
40.3190 -15.1127 -2.2566 0.8416
46.3875 -11.2495 -2.5015 0.8260
47.7318 0.1664 -2.5015 0.8260
22.4894 2.8074 -1.1878 0.9132
21.9585 5.4876 -1.1862 0.9133
21.2610 11.2393 -1.2604 0.9082
7.0472 6.2775 -0.4946 0.9629
4.9833 5.6544 -0.3950 0.9703
3.8871 5.6611 -0.3599 0.9729
2.9573 5.6668 -0.3350 0.9747
0.6786 5.6808 -0.2998 0.9773
-3.8735 5.5978 -0.3568 0.9731
-5.0747 5.7162 -0.4006 0.9698
-6.4738 5.7248 -0.4529 0.9660
-8.3159 5.7305 -0.5293 0.9604
-15.2616 5.7788 -0.8552 0.9367
-35.1843 4.2625 -1.8574 0.8677
-29.6541 -0.0042 -1.5541 0.8880
-44.6344 -16.9151 -2.5015 0.8260
-42.2730 -22.1664 -2.5015 0.8260
-33.5729 -29.7053 -2.3493 0.8356
-12.0909 -22.9805 -1.3609 0.9012
-9.2710 -24.3614 -1.3661 0.9009
-3.5222 -28.6722 -1.5139 0.8907
-0.0731 -47.7320 -2.5015 0.8260
16.1032 -42.7073 -2.3920 0.8329
30.5211 -27.1722 -2.1416 0.8490
36.8274 -25.5596 -2.3493 0.8356
39.6370 -20.9393 -2.3493 0.8356
39.9335 -15.2736 -2.2407 0.8426
46.3112 -11.5596 -2.5015 0.8260
21.2082 7.9562 -1.1871 0.9133
21.3234 14.5977 -1.3543 0.9017
7.0840 6.2258 -0.4943 0.9629
5.0505 5.6539 -0.3973 0.9701
3.9428 5.6608 -0.3615 0.9727
3.0056 5.6665 -0.3362 0.9746
2.1801 5.6716 -0.3184 0.9760
1.4269 5.6762 -0.3067 0.9768
0.7171 5.6806 -0.3001 0.9773
0.0277 5.6848 -0.2979 0.9775
-0.6598 5.6713 -0.2992 0.9774
-2.1072 5.6456 -0.3158 0.9762
-3.8183 5.5976 -0.3551 0.9732
-5.0064 5.7157 -0.3982 0.9700
-14.9538 5.7769 -0.8401 0.9378
-33.5042 4.2867 -1.7702 0.8735
-44.5362 -5.1061 -2.3493 0.8356
-44.7466 -16.6161 -2.5015 0.8260
-39.4768 -26.8317 -2.5015 0.8260
-20.6065 -22.9137 -1.6150 0.8839
-12.1742 -22.7679 -1.3531 0.9018
-9.4521 -24.3461 -1.3687 0.9007
-7.0070 -27.4844 -1.4865 0.8926
5.3576 -47.4305 -2.5015 0.8260
11.0297 -46.4403 -2.5015 0.8260
25.1371 -37.1170 -2.3493 0.8356
26.1821 -30.0944 -2.0905 0.8523
30.1103 -27.1697 -2.1255 0.8501
39.4960 -21.2040 -2.3493 0.8356
39.7810 -15.5212 -2.2379 0.8428
46.2329 -11.8691 -2.5015 0.8260
41.9844 4.6713 -2.2139 0.8443
21.2058 7.7939 -1.1840 0.9135
21.2547 10.8746 -1.2512 0.9088
21.3193 14.3863 -1.3479 0.9021
5.1186 5.6535 -0.3997 0.9699
2.2237 5.6713 -0.3193 0.9759
1.4673 5.6760 -0.3072 0.9768
0.0658 5.6846 -0.2979 0.9775
-0.6216 5.6731 -0.2991 0.9774
-2.0642 5.6454 -0.3150 0.9762
-2.8603 5.6137 -0.3302 0.9751
-3.7636 5.5975 -0.3535 0.9733
-4.9388 5.7153 -0.3959 0.9702
-6.3007 5.7237 -0.4461 0.9665
-24.0055 17.0202 -1.5422 0.8888
-21.8311 5.6825 -1.1822 0.9136
-31.4633 4.2397 -1.6638 0.8806
-45.1078 0.5973 -2.3642 0.8347
-44.5694 -4.8080 -2.3493 0.8356
-43.6662 -10.1396 -2.3493 0.8356
-12.8680 -18.0849 -1.1632 0.9149
-12.3744 -22.7745 -1.3584 0.9014
-9.5492 -24.1168 -1.3594 0.9013
-5.7634 -42.2378 -2.2341 0.8430
10.7187 -46.5130 -2.5015 0.8260
16.0724 -44.4172 -2.4755 0.8276
20.2177 -40.0099 -2.3493 0.8356
24.8882 -37.2843 -2.3493 0.8356
26.1796 -30.5014 -2.1066 0.8513
36.4820 -26.0501 -2.3493 0.8356
39.3533 -21.4678 -2.3493 0.8356
39.8192 -15.8439 -2.2460 0.8423
47.2830 -6.5324 -2.5015 0.8260
47.7255 -0.7917 -2.5015 0.8260
21.2035 7.6324 -1.1810 0.9137
21.2516 10.6943 -1.2468 0.9091
21.3152 14.1769 -1.3416 0.9025
4.0559 5.6601 -0.3649 0.9725
1.5078 5.6757 -0.3078 0.9768
0.7944 5.6801 -0.3006 0.9773
0.1038 5.6843 -0.2980 0.9775
-0.5834 5.6749 -0.2990 0.9774
-2.8143 5.6159 -0.3292 0.9752
-3.7094 5.5974 -0.3519 0.9735
-4.8720 5.7149 -0.3936 0.9704
-6.2160 5.7232 -0.4428 0.9667
-5.0203 2.7605 -0.3003 0.9773
-21.3548 5.7114 -1.1585 0.9153
-30.4572 4.3117 -1.6121 0.8841
-44.6044 -4.5100 -2.3495 0.8356
-43.7330 -9.8472 -2.3493 0.8356
-36.3756 -30.9059 -2.5015 0.8260
-21.5264 -23.3019 -1.6625 0.8807
-15.8815 -22.0070 -1.4223 0.8970
-9.7346 -24.1124 -1.3628 0.9011
10.4072 -46.5837 -2.5015 0.8260
15.9088 -44.9021 -2.4966 0.8263
29.3066 -27.1647 -2.0942 0.8521
36.3070 -26.2935 -2.3493 0.8356
46.0699 -12.4867 -2.5015 0.8260
21.3112 13.9695 -1.3354 0.9030
7.1943 6.0712 -0.4933 0.9630
5.2572 5.6527 -0.4046 0.9696
4.1132 5.6597 -0.3667 0.9724
3.1524 5.6656 -0.3398 0.9744
0.1418 5.6841 -0.2980 0.9775
-0.5452 5.6766 -0.2989 0.9774
-1.9788 5.6450 -0.3135 0.9763
-3.6556 5.5973 -0.3504 0.9736
-4.8060 5.7145 -0.3913 0.9705
-6.1326 5.7227 -0.4396 0.9670
-7.8612 5.7333 -0.5099 0.9618
-14.0919 5.7716 -0.7981 0.9408
-43.7979 -9.5544 -2.3493 0.8356
-40.0074 -26.0339 -2.5015 0.8260
-22.0341 -23.5333 -1.6895 0.8789
-9.9048 -24.0689 -1.3640 0.9010
-7.3223 -26.4883 -1.4403 0.8958
-1.3503 -47.7130 -2.5015 0.8260
4.4044 -47.5285 -2.5015 0.8260
10.0953 -46.6524 -2.5015 0.8260
15.6368 -45.0901 -2.5011 0.8260
17.7142 -36.2524 -2.1146 0.8508
24.3870 -37.6141 -2.3493 0.8356
27.5030 -25.8371 -1.9776 0.8597
36.1302 -26.5358 -2.3493 0.8356
36.5103 -15.0963 -2.0705 0.8536
44.6436 4.0619 -2.3493 0.8356
25.7480 5.5267 -1.3801 0.8999
21.1989 7.3118 -1.1752 0.9141
5.3277 5.6522 -0.4071 0.9694
4.1711 5.6593 -0.3684 0.9722
3.2021 5.6653 -0.3410 0.9743
1.5893 5.6752 -0.3089 0.9767
0.1799 5.6839 -0.2980 0.9775
-0.5071 5.6784 -0.2988 0.9774
-2.7230 5.6204 -0.3273 0.9753
-4.9460 2.8065 -0.2980 0.9775
-13.8235 5.7699 -0.7850 0.9418
-45.1339 1.5041 -2.3667 0.8345
-43.8609 -9.2612 -2.3493 0.8356
-36.7860 -30.4163 -2.5015 0.8260
-10.0206 -23.8945 -1.3579 0.9014
-1.6695 -47.7029 -2.5015 0.8260
19.4106 -40.4076 -2.3493 0.8356
24.1348 -37.7764 -2.3493 0.8356
34.5839 -25.7583 -2.2599 0.8414
38.9144 -22.2533 -2.3493 0.8356
35.8561 -15.1074 -2.0391 0.8557
47.1423 -7.4802 -2.5015 0.8260
43.9865 9.1340 -2.3544 0.8353
21.1967 7.1527 -1.1724 0.9143
21.3033 13.5604 -1.3235 0.9038
4.2296 5.6590 -0.3703 0.9721
1.6302 5.6750 -0.3094 0.9766
0.2180 5.6836 -0.2981 0.9775
-1.8942 5.6446 -0.3120 0.9764
-2.6778 5.6226 -0.3264 0.9754
-3.5496 5.5970 -0.3473 0.9738
-4.6763 5.7137 -0.3869 0.9709
-5.9693 5.7217 -0.4333 0.9674
-19.9890 5.7784 -1.0905 0.9200
-45.1384 1.8066 -2.3675 0.8345
-43.9219 -8.9674 -2.3493 0.8356
-45.2773 -15.1101 -2.5015 0.8260
-43.1285 -20.4520 -2.5015 0.8260
-16.8270 -22.3577 -1.4665 0.8940
-12.9720 -22.4222 -1.3576 0.9014
-7.5110 -25.8205 -1.4093 0.8979
-1.9888 -47.6907 -2.5015 0.8260
3.7681 -47.5831 -2.5015 0.8260
9.4702 -46.7832 -2.5015 0.8260
15.0343 -45.3026 -2.5015 0.8260
19.1398 -40.5366 -2.3493 0.8356
23.8816 -37.9370 -2.3493 0.8356
28.1441 -27.1576 -2.0497 0.8550
35.7719 -27.0170 -2.3493 0.8356
47.0912 -7.7954 -2.5015 0.8260
47.6873 -2.0684 -2.5015 0.8260
21.2397 9.9852 -1.2300 0.9103
7.3042 5.9171 -0.4926 0.9630
5.4715 5.6513 -0.4122 0.9690
3.3025 5.6647 -0.3436 0.9741
1.6713 5.6747 -0.3100 0.9766
0.9499 5.6791 -0.3018 0.9772
0.2560 5.6834 -0.2982 0.9775
-0.4308 5.6820 -0.2986 0.9774
-1.8522 5.6444 -0.3113 0.9765
-4.6125 5.7133 -0.3848 0.9710
-7.5360 5.7313 -0.4962 0.9628
-4.9373 2.8896 -0.2998 0.9773
-13.3119 5.7668 -0.7603 0.9435
-19.5900 5.8054 -1.0708 0.9214
-30.2673 5.1145 -1.6087 0.8843
-45.1408 2.1093 -2.3683 0.8344
-45.3774 -14.8069 -2.5015 0.8260
-40.5218 -25.2257 -2.5015 0.8260
-37.1896 -29.9213 -2.5015 0.8260
-23.9390 -24.5609 -1.7975 0.8716
-16.9589 -22.2217 -1.4650 0.8941
-13.0629 -22.2348 -1.3515 0.9019
-10.3820 -23.8561 -1.3635 0.9010
-5.8272 -34.1372 -1.8149 0.8705
-2.3078 -47.6763 -2.5015 0.8260
14.7309 -45.4022 -2.5015 0.8260
16.8648 -36.3462 -2.0999 0.8517
23.6273 -38.0959 -2.3493 0.8356
-21.0044 -19.3501 -2.4986 0.8917
-8.7067 -24.3372 -2.2614 0.9014
-2.7385 -26.7130 -2.3493 0.8978
10.6227 -26.5461 -2.5015 0.8915
13.7419 -25.0739 -2.5015 0.8915
16.5189 -23.0386 -2.4802 0.8924
18.2073 -19.8305 -2.3553 0.8975
20.8840 -17.8541 -2.4038 0.8955
23.8121 -15.8279 -2.5015 0.8915
25.5447 -12.8456 -2.5015 0.8915
18.9404 5.0035 -1.7139 0.9244
21.6648 11.8264 -2.1594 0.9056
8.5161 6.0846 -0.9157 0.9588
6.1712 5.6471 -0.7318 0.9670
2.0507 5.6724 -0.5277 0.9761
1.3065 5.6770 -0.5097 0.9769
-2.2312 5.6301 -0.5298 0.9760
-3.0394 5.5900 -0.5567 0.9748
-3.9626 5.5658 -0.5978 0.9729
-26.6989 2.8726 -2.3493 0.8978
-26.8505 -0.3631 -2.3493 0.8978
-27.6686 -7.2103 -2.5015 0.8915
-26.5991 -10.4894 -2.5015 0.8915
-17.5517 -20.3229 -2.3493 0.8978
-14.7635 -21.9709 -2.3159 0.8992
-11.6082 -22.7983 -2.2383 0.9024
-6.1102 -26.1486 -2.3493 0.8978
7.1640 -27.6806 -2.5015 0.8915
13.5738 -25.1653 -2.5015 0.8915
18.0893 -19.9685 -2.3573 0.8975
25.4581 -13.0162 -2.5015 0.8915
26.8402 -9.8561 -2.5015 0.8915
22.4023 2.9489 -1.9769 0.9133
20.4432 5.2545 -1.8467 0.9187
8.5567 6.0275 -0.9157 0.9588
4.9168 5.6548 -0.6556 0.9704
2.9094 5.6671 -0.5573 0.9747
2.0937 5.6721 -0.5290 0.9760
1.3465 5.6767 -0.5104 0.9768
0.6401 5.6810 -0.5002 0.9773
-0.0484 5.6853 -0.4974 0.9774
-0.7364 5.6677 -0.5000 0.9773
-2.9923 5.5924 -0.5549 0.9749
-3.9068 5.5659 -0.5949 0.9731
-5.1439 5.7166 -0.6728 0.9696
-8.4284 5.7252 -0.8914 0.9599
-15.5808 5.7807 -1.4539 0.9354
-22.4246 5.3588 -2.0171 0.9116
-26.8524 -0.1835 -2.3493 0.8978
-28.3604 -3.6366 -2.5015 0.8915
-27.7162 -7.0250 -2.5015 0.8915
-26.6687 -10.3112 -2.5015 0.8915
-25.2331 -13.4473 -2.5015 0.8915
-23.4303 -16.3878 -2.5015 0.8915
-14.9980 -22.0004 -2.3295 0.8986
-9.0149 -24.1737 -2.2572 0.9016
-6.2850 -26.1071 -2.3493 0.8978
-3.0958 -26.6739 -2.3493 0.8978
0.1475 -28.5922 -2.5015 0.8915
3.5892 -28.3665 -2.5015 0.8915
6.9787 -27.7279 -2.5015 0.8915
10.2666 -26.6859 -2.5015 0.8915
13.4051 -25.2555 -2.5015 0.8915
16.3107 -23.4033 -2.4957 0.8918
17.9724 -20.1082 -2.3595 0.8974
23.5982 -16.1451 -2.5015 0.8915
25.3705 -13.1862 -2.5015 0.8915
26.7736 -10.0355 -2.5015 0.8915
28.3964 -3.3438 -2.5015 0.8915
28.5925 0.0997 -2.5015 0.8915
21.5816 8.2615 -2.0218 0.9114
21.6551 11.4477 -2.1430 0.9063
7.0472 6.2775 -0.8257 0.9628
3.8871 5.6611 -0.6008 0.9728
1.3867 5.6765 -0.5112 0.9768
0.6786 5.6808 -0.5005 0.9773
-0.6981 5.6695 -0.4998 0.9773
-1.3986 5.6366 -0.5081 0.9770
-2.1450 5.6318 -0.5272 0.9761
-2.9456 5.5947 -0.5532 0.9749
-3.8515 5.5659 -0.5922 0.9732
-6.4738 5.7248 -0.7561 0.9659
-15.2616 5.7788 -1.4277 0.9366
-26.7371 -10.1326 -2.5015 0.8915
-23.5394 -16.2307 -2.5015 0.8915
-21.4138 -18.9469 -2.5015 0.8915
-17.8221 -20.0862 -2.3493 0.8978
-15.2353 -22.0304 -2.3434 0.8980
-11.9107 -22.6379 -2.2380 0.9024
-9.1685 -24.0922 -2.2553 0.9017
-3.2742 -26.6526 -2.3493 0.8978
-0.0438 -28.5926 -2.5015 0.8915
3.3994 -28.3898 -2.5015 0.8915
6.7930 -27.7740 -2.5015 0.8915
13.2358 -25.3446 -2.5015 0.8915
16.1667 -23.5308 -2.4977 0.8917
20.3435 -18.1113 -2.3830 0.8964
25.2817 -13.3557 -2.5015 0.8915
27.7415 -6.9245 -2.5015 0.8915
28.5925 -0.0916 -2.5015 0.8915
22.4103 2.6454 -1.9743 0.9134
22.8353 5.5446 -2.0559 0.9100
21.5781 8.0950 -2.0163 0.9116
21.6504 11.2605 -2.1350 0.9067
8.6366 5.9125 -0.9157 0.9588
7.0840 6.2258 -0.8251 0.9628
5.0505 5.6539 -0.6633 0.9700
3.9428 5.6608 -0.6035 0.9727
3.0056 5.6665 -0.5612 0.9746
2.1801 5.6716 -0.5316 0.9759
1.4269 5.6762 -0.5121 0.9768
0.7171 5.6806 -0.5009 0.9773
-0.6598 5.6713 -0.4995 0.9773
-1.3591 5.6384 -0.5074 0.9770
-2.1019 5.6316 -0.5259 0.9762
-3.7967 5.5659 -0.5895 0.9733
-6.3866 5.7242 -0.7503 0.9661
-21.7244 5.4998 -1.9606 0.9139
-26.6359 3.4079 -2.3493 0.8978
-26.8524 0.1759 -2.3493 0.8978
-27.8077 -6.6536 -2.5015 0.8915
-26.8043 -9.9534 -2.5015 0.8915
-23.6475 -16.0728 -2.5015 0.8915
-17.9561 -19.9665 -2.3493 0.8978
-12.0619 -22.5578 -2.2380 0.9024
-3.4525 -26.6301 -2.3493 0.8978
-0.2351 -28.5917 -2.5015 0.8915
6.6070 -27.8188 -2.5015 0.8915
9.9086 -26.8209 -2.5015 0.8915
20.1729 -18.2028 -2.3772 0.8966
25.1918 -13.5245 -2.5015 0.8915
27.6945 -7.1099 -2.5015 0.8915
8.6759 5.8545 -0.9157 0.9588
7.1208 6.1742 -0.8246 0.9629
3.0542 5.6662 -0.5632 0.9745
2.2237 5.6713 -0.5330 0.9758
-0.6216 5.6731 -0.4993 0.9773
-1.3197 5.6403 -0.5068 0.9770
-2.0591 5.6314 -0.5246 0.9762
-2.8530 5.5993 -0.5498 0.9751
-4.9388 5.7153 -0.6609 0.9701
-22.2224 15.7560 -2.3833 0.8964
-7.4252 2.9257 -0.6982 0.9685
-26.6125 3.5860 -2.3493 0.8978
-26.8506 0.3556 -2.3493 0.8978
-26.8703 -9.7739 -2.5015 0.8915
-18.0892 -19.8460 -2.3493 0.8978
-12.8054 -17.9971 -1.9324 0.9151
-6.8078 -25.9757 -2.3493 0.8978
-3.6305 -26.6064 -2.3493 0.8978
3.0191 -28.4328 -2.5015 0.8915
20.0084 -18.2987 -2.3722 0.8968
23.2694 -16.6155 -2.5015 0.8915
27.6463 -7.2951 -2.5015 0.8915
28.5887 -0.4742 -2.5015 0.8915
26.7076 2.7908 -2.3493 0.8978
24.2089 5.5362 -2.1727 0.9051
21.5714 7.7649 -2.0058 0.9121
8.7149 5.7963 -0.9157 0.9588
7.1576 6.1227 -0.8241 0.9629
4.0559 5.6601 -0.6092 0.9724
3.1031 5.6659 -0.5652 0.9744
1.5078 5.6757 -0.5138 0.9767
-0.5834 5.6749 -0.4991 0.9774
-1.2804 5.6421 -0.5062 0.9770
-2.8071 5.6016 -0.5482 0.9752
-3.6886 5.5660 -0.5842 0.9735
-4.8720 5.7149 -0.6570 0.9703
-5.0202 2.7605 -0.5012 0.9773
-7.3894 2.9689 -0.6967 0.9685
-21.0135 5.6201 -1.9031 0.9164
-26.8477 0.5351 -2.3493 0.8978
-27.8943 -6.2809 -2.5015 0.8915
-26.9350 -9.5939 -2.5015 0.8915
-25.5839 -12.7672 -2.5015 0.8915
-21.7898 -18.5133 -2.5015 0.8915
-18.2216 -19.7245 -2.3493 0.8978
-12.3643 -22.3974 -2.2383 0.9024
-6.9815 -25.9296 -2.3493 0.8978
2.8289 -28.4523 -2.5015 0.8915
9.5488 -26.9511 -2.5015 0.8915
12.7245 -25.6052 -2.5015 0.8915
17.5445 -20.7198 -2.3753 0.8967
19.8514 -18.4006 -2.3681 0.8970
23.1577 -16.7708 -2.5015 0.8915
24.9408 5.5282 -2.2350 0.9025
21.5682 7.6011 -2.0007 0.9123
21.6368 10.7073 -2.1121 0.9076
7.1943 6.0712 -0.8236 0.9629
5.2572 5.6527 -0.6754 0.9695
3.1524 5.6656 -0.5672 0.9743
2.3115 5.6708 -0.5358 0.9757
-0.5452 5.6766 -0.4989 0.9774
-2.7615 5.6039 -0.5466 0.9752
-3.6352 5.5660 -0.5816 0.9737
-4.8060 5.7145 -0.6533 0.9705
-7.8612 5.7333 -0.8512 0.9617
-14.0919 5.7716 -1.3323 0.9407
-20.6855 5.6809 -1.8768 0.9175
-26.5621 3.9418 -2.3493 0.8978
-28.4539 -2.6849 -2.5004 0.8916
-25.6687 -12.5958 -2.5015 0.8915
-23.9653 -15.5949 -2.5015 0.8915
-21.9132 -18.3671 -2.5015 0.8915
-15.8594 -21.6694 -2.3493 0.8978
-9.7808 -23.7675 -2.2486 0.9019
-7.1548 -25.8823 -2.3493 0.8978
-0.8089 -28.5812 -2.5015 0.8915
2.6384 -28.4706 -2.5015 0.8915
6.0473 -27.9458 -2.5015 0.8915
9.3683 -27.0143 -2.5015 0.8915
12.5529 -25.6897 -2.5015 0.8915
17.4454 -20.8844 -2.3808 0.8965
23.0392 -16.9211 -2.5009 0.8916
24.9152 -14.0274 -2.5015 0.8915
28.5798 -0.8567 -2.5015 0.8915
26.7425 2.4332 -2.3493 0.8978
5.3277 5.6522 -0.6796 0.9693
4.1711 5.6593 -0.6151 0.9722
2.3558 5.6705 -0.5372 0.9756
0.8720 5.6796 -0.5027 0.9772
0.1799 5.6839 -0.4975 0.9774
-2.7162 5.6061 -0.5450 0.9753
-3.5823 5.5660 -0.5791 0.9738
-4.9460 2.8065 -0.4975 0.9774
-13.8234 5.7699 -1.3105 0.9416
-26.5351 4.1195 -2.3493 0.8978
-27.9758 -5.9071 -2.5015 0.8915
-27.0610 -9.2325 -2.5015 0.8915
-25.7524 -12.4238 -2.5015 0.8915
-22.0356 -18.2200 -2.5015 0.8915
-18.4840 -19.4789 -2.3493 0.8978
-9.9334 -23.6866 -2.2472 0.9020
-7.3243 -25.8215 -2.3482 0.8978
-1.0001 -28.5751 -2.5015 0.8915
2.4478 -28.4877 -2.5015 0.8915
12.3806 -25.7732 -2.5015 0.8915
17.3458 -21.0498 -2.3863 0.8963
19.5391 -18.6032 -2.3603 0.8973
22.9059 -17.0604 -2.4988 0.8917
27.4944 -7.8484 -2.5015 0.8915
28.5734 -1.0479 -2.5015 0.8915
26.7582 2.2542 -2.3493 0.8978
26.2921 5.4597 -2.3493 0.8978
21.5618 7.2759 -1.9909 0.9127
