ply
format ascii 1.0
element vertex 1583
property float32 x
property float32 y
property float32 z
property float32 I
end_header
-8.6959 5.7384 1.6501 0.9587
-86.7975 43.2961 15.3628 0.6751
-65.6122 -17.5187 10.7560 0.7596
-65.8597 -47.2894 12.8416 0.7201
-69.8150 -64.1749 15.0195 0.6811
-31.1480 -36.4692 7.5962 0.8235
-10.0323 -15.1053 2.8720 0.9292
-12.4491 -34.6350 5.8292 0.8615
17.2350 -43.3316 7.3860 0.8279
32.1537 -45.0609 8.7676 0.7992
41.3068 -45.2047 9.6987 0.7804
52.6220 -45.2138 10.9885 0.7550
54.4179 -27.5477 9.6604 0.7811
54.6157 -5.8556 8.6998 0.8006
54.6563 0.7541 8.6575 0.8014
20.9636 2.8346 3.3505 0.9179
31.8330 17.2341 5.7333 0.8636
25.8724 23.5014 5.5360 0.8680
3.8086 5.6616 1.0807 0.9727
1.3314 5.6768 0.9235 0.9767
0.6261 5.6811 0.9053 0.9771
-0.0616 5.6854 0.9005 0.9772
-0.7522 5.6896 0.9090 0.9770
-1.4663 5.6940 0.9313 0.9765
-2.2277 5.6987 0.9691 0.9755
-6.5844 5.7254 1.3820 0.9653
-8.4740 5.7371 1.6208 0.9594
-86.7674 44.5705 15.4497 0.6736
-31.0011 -0.2444 4.9102 0.8820
-66.7746 -16.9855 10.9129 0.7565
-10.0443 -14.7421 2.8254 0.9303
-12.9126 -34.6322 5.8541 0.8610
23.2099 -43.7945 7.8502 0.8181
40.3576 -45.2289 9.6008 0.7823
51.6266 -45.4310 10.8921 0.7569
56.9284 -21.4177 9.6336 0.7817
54.5698 -13.3101 8.8964 0.7965
54.6931 6.7375 8.7280 0.8000
32.7419 17.2285 5.8599 0.8608
25.3356 17.5190 4.8787 0.8827
25.8690 22.9458 5.4768 0.8693
5.0054 5.6542 1.1960 0.9699
3.9062 5.6610 1.0894 0.9725
1.4023 5.6764 0.9261 0.9766
0.6942 5.6807 0.9064 0.9771
-1.3946 5.6936 0.9284 0.9765
-2.1502 5.6982 0.9646 0.9756
-6.4281 5.7245 1.3633 0.9657
-10.8788 5.7518 1.9490 0.9514
-90.5245 22.6480 14.7796 0.6853
-47.6126 -11.5135 7.7585 0.8201
-89.9059 -33.6217 15.2028 0.6779
-75.1819 -38.9940 13.4140 0.7096
-64.8168 -44.2550 12.4306 0.7277
-32.7542 -36.5619 7.7747 0.8197
-19.7144 -28.2119 5.4512 0.8699
-11.3500 -44.8030 7.3203 0.8293
22.9798 -44.6284 7.9505 0.8160
50.3223 -45.3506 10.7293 0.7601
52.1785 -27.9840 9.3778 0.7868
70.9344 -27.6492 12.0582 0.7347
54.5656 -13.9950 8.9221 0.7960
54.6076 -7.1650 8.7231 0.8001
54.6484 -0.5388 8.6559 0.8015
54.6891 6.0813 8.7153 0.8002
25.3328 17.0777 4.8389 0.8836
25.8656 22.4018 5.4196 0.8706
5.1253 5.6535 1.2086 0.9696
4.0055 5.6604 1.0983 0.9723
3.0604 5.6662 1.0200 0.9743
2.2141 5.6310 0.9583 0.9758
0.7624 5.6803 0.9077 0.9771
0.0729 5.6845 0.9004 0.9772
-1.3233 5.6931 0.9257 0.9766
-2.8939 5.7028 1.0129 0.9744
-4.9203 5.7152 1.1944 0.9699
-6.2760 5.7235 1.3453 0.9662
-8.0531 5.7345 1.5658 0.9608
-10.5475 5.7373 1.9017 0.9525
-66.3892 -44.1864 12.6311 0.7240
-33.5378 -36.5570 7.8575 0.8180
-13.8519 -34.6264 5.9068 0.8598
12.8882 -56.9722 9.2515 0.7893
15.7248 -44.0221 7.4039 0.8275
50.6143 -46.7105 10.9086 0.7566
50.4461 -36.3735 9.8502 0.7773
50.1838 -27.6834 9.0775 0.7929
68.4274 -27.6086 11.6867 0.7417
54.5614 -14.6838 8.9492 0.7955
54.6444 -1.1854 8.6569 0.8014
54.6851 5.4268 8.7038 0.8005
47.0242 16.6405 7.9005 0.8171
34.6864 17.2165 6.1333 0.8549
25.3597 21.4439 5.2601 0.8742
3.1473 5.6656 1.0265 0.9741
0.8308 5.6799 0.9092 0.9770
-0.5475 5.6883 0.9051 0.9771
-1.2524 5.6927 0.9232 0.9767
-1.9972 5.6972 0.9562 0.9758
-2.8093 5.7022 1.0068 0.9746
-3.7263 5.7079 1.0796 0.9728
-4.8032 5.7145 1.1823 0.9702
-10.2759 5.7481 1.8649 0.9534
-88.2315 24.3057 14.4950 0.6903
-88.0047 2.4298 13.9439 0.7001
-66.1653 -42.9168 12.4910 0.7266
-34.3383 -36.5521 7.9432 0.8162
-26.8777 -36.5878 7.1905 0.8321
-20.2005 -35.8631 6.5192 0.8465
-14.3281 -34.6235 5.9348 0.8592
12.0015 -56.1294 9.0910 0.7926
20.6173 -42.4802 7.4788 0.8259
29.2081 -45.3235 8.5400 0.8038
37.3413 -44.9630 9.2571 0.7892
50.2282 -37.1272 9.8927 0.7765
50.1790 -28.4600 9.1369 0.7917
66.1885 -27.6201 11.3594 0.7479
54.8620 -15.4629 9.0278 0.7939
54.5995 -8.4822 8.7514 0.7995
54.6404 -1.8321 8.6591 0.8014
54.6811 4.7740 8.6936 0.8007
50.4192 10.6247 8.1610 0.8117
35.1649 16.9386 6.1820 0.8538
26.1906 16.7688 4.9256 0.8817
25.3566 20.9319 5.2077 0.8753
5.3729 5.6520 1.2351 0.9689
2.3859 5.6703 0.9744 0.9754
1.6176 5.6750 0.9346 0.9764
0.8995 5.6794 0.9107 0.9770
0.2074 5.6837 0.9008 0.9772
-0.4796 5.6879 0.9041 0.9771
-1.1819 5.6922 0.9208 0.9767
-5.9833 5.7217 1.3112 0.9670
-9.9935 5.7464 1.8258 0.9544
-6.5425 2.7757 1.1256 0.9716
-89.4619 -18.3001 14.4628 0.6909
-65.8202 -21.9857 10.9911 0.7550
-59.9190 -28.4271 10.5041 0.7645
-35.0175 -36.4023 8.0001 0.8150
-27.2916 -36.2448 7.1860 0.8321
-20.1944 -34.8809 6.3837 0.8494
14.9006 -45.0519 7.5157 0.8252
37.4750 -46.2258 9.4251 0.7858
50.2226 -38.0498 9.9796 0.7748
50.6226 -29.5083 9.2806 0.7888
64.1791 -27.6775 11.0699 0.7535
55.0949 -16.2343 9.0971 0.7925
54.6364 -2.4792 8.6625 0.8013
53.4091 10.5966 8.6241 0.8021
26.8788 16.7646 5.0174 0.8796
25.3535 20.4300 5.1571 0.8765
4.3134 5.6585 1.1269 0.9716
3.3244 5.6646 1.0403 0.9738
2.4650 5.6698 0.9792 0.9753
-0.4119 5.6875 0.9032 0.9772
-1.1118 5.6918 0.9185 0.9768
-1.8433 5.6858 0.9467 0.9761
-3.5359 5.7067 1.0633 0.9732
-4.5758 5.7131 1.1593 0.9708
-5.8183 5.6972 1.2897 0.9676
-7.4721 5.7309 1.4915 0.9626
-9.7194 5.7428 1.7880 0.9553
-6.4848 2.8423 1.1214 0.9717
-90.6388 -17.4265 14.6187 0.6881
-67.3796 -68.4067 15.2078 0.6778
-15.2946 -34.6176 5.9942 0.8579
-13.2148 -43.4227 7.1889 0.8321
-15.4361 -87.3945 14.0562 0.6981
36.7797 -46.4815 9.3879 0.7866
50.2951 -49.8338 11.2140 0.7507
50.5651 -39.2593 10.1392 0.7716
50.6176 -30.3133 9.3447 0.7875
62.9811 -28.0490 10.9198 0.7564
55.0835 -16.9416 9.1277 0.7918
54.5914 -9.8088 8.7849 0.7988
54.7143 10.1844 8.8147 0.7982
35.7934 16.2097 6.2234 0.8529
27.5934 16.7602 5.1134 0.8774
25.3504 19.9376 5.1081 0.8776
5.6317 5.6504 1.2635 0.9682
4.4197 5.6578 1.1371 0.9713
3.4148 5.6640 1.0475 0.9736
2.5450 5.6693 0.9843 0.9751
1.7635 5.6741 0.9411 0.9762
1.0377 5.6786 0.9143 0.9769
0.3421 5.6829 0.9017 0.9772
-0.3443 5.6871 0.9024 0.9772
-2.5614 5.7007 0.9899 0.9750
-21.7504 21.8074 4.8782 0.8827
-7.2904 5.7298 1.4686 0.9631
-67.1730 -66.6025 14.9823 0.6817
-14.3427 -18.1385 3.6626 0.9106
-15.7853 -34.6146 6.0256 0.8572
-11.2936 -35.5926 5.9143 0.8597
26.9738 -45.3098 8.3518 0.8077
44.6134 -45.2625 10.0659 0.7731
50.5592 -40.2222 10.2327 0.7698
50.6126 -31.1295 9.4111 0.7861
54.4646 -17.4591 9.0587 0.7932
54.5872 -10.4761 8.8036 0.7984
54.6285 -3.7755 8.6729 0.8011
50.4474 15.2085 8.3453 0.8078
28.3359 16.7556 5.2139 0.8752
25.3475 19.4544 5.0608 0.8786
4.5279 5.6571 1.1477 0.9711
1.8373 5.6737 0.9446 0.9761
0.4096 5.6825 0.9023 0.9772
-0.9725 5.6910 0.9144 0.9769
-1.6908 5.6691 0.9370 0.9763
-2.4805 5.7002 0.9846 0.9751
-5.5709 5.7192 1.2645 0.9682
-7.1142 5.7287 1.4467 0.9637
-9.2126 5.7416 1.7193 0.9570
-8.9943 2.9420 1.4988 0.9624
-65.9701 -19.4633 10.8939 0.7569
-78.8983 -34.0568 13.6108 0.7061
-27.9580 -34.5103 7.0345 0.8354
-22.9684 -36.6118 6.8454 0.8394
-16.2648 -34.5768 6.0521 0.8566
12.9035 -44.2174 7.2955 0.8298
18.1224 -42.3272 7.2926 0.8299
43.3693 -45.0541 9.9048 0.7763
59.0196 -27.9761 10.3442 0.7676
54.5831 -11.1460 8.8235 0.7980
54.6651 2.1753 8.6649 0.8013
50.3933 14.5442 8.3073 0.8086
38.1375 16.1953 6.5625 0.8455
5.9030 5.6487 1.2940 0.9675
0.4772 5.6820 0.9031 0.9772
-0.2094 5.6863 0.9012 0.9772
-0.9033 5.6905 0.9126 0.9769
-5.4398 5.7184 1.2500 0.9685
-66.6547 -18.8112 10.9694 0.7554
-70.3911 -66.5659 15.3444 0.6755
-16.7656 -34.5737 6.0858 0.8559
-11.8997 -34.6384 5.8009 0.8621
-14.5325 -68.0805 11.0258 0.7543
18.0376 -43.5455 7.4652 0.8262
33.1298 -45.0668 8.8591 0.7973
50.1988 -41.9122 10.3576 0.7673
50.1541 -32.5073 9.4663 0.7850
57.3409 -28.0157 10.1079 0.7722
55.4911 -19.2471 9.3026 0.7883
54.5790 -11.8193 8.8448 0.7976
54.6205 -5.0757 8.6883 0.8008
54.7020 8.1860 8.7604 0.7993
39.4083 16.1875 6.7477 0.8415
25.3417 18.5141 4.9708 0.8806
2.7900 5.6678 1.0006 0.9747
1.9864 5.6728 0.9520 0.9760
1.2470 5.6773 0.9206 0.9767
-0.8343 5.6901 0.9109 0.9770
-2.3214 5.6992 0.9747 0.9754
-6.7770 5.7266 1.4053 0.9647
-8.7403 5.7387 1.6560 0.9585
-29.1216 -0.6417 4.6135 0.8887
-65.5822 -17.6737 10.7578 0.7595
-91.0175 -36.7590 15.5470 0.6720
-31.0897 -36.5720 7.6026 0.8233
24.8701 23.1338 4.1705 0.8721
4.7729 5.6556 0.9087 0.9706
1.2608 5.6772 0.7141 0.9768
-0.1289 5.6858 0.6983 0.9773
-1.5385 5.6944 0.7243 0.9765
-2.3059 5.6992 0.7549 0.9755
-3.1540 5.7044 0.8003 0.9741
-4.1258 5.7103 0.8650 0.9720
-5.2869 5.7175 0.9561 0.9691
-6.7450 5.7264 1.0864 0.9650
-11.5391 5.7559 1.5833 0.9494
-18.1671 -36.1522 4.9679 0.8495
-11.5519 -50.5996 6.3727 0.8113
23.8798 -43.7986 6.1252 0.8179
32.2830 -45.2422 6.8242 0.7993
41.5119 -45.4291 7.5560 0.7804
50.3496 -33.6550 7.4361 0.7834
54.4179 -27.5477 7.4890 0.7821
72.6212 -26.3454 9.4854 0.7325
54.6276 -12.6415 6.8847 0.7977
54.6157 -5.8556 6.7444 0.8014
50.8854 13.2647 6.4567 0.8090
43.5227 17.1621 5.7444 0.8282
24.8668 22.5880 4.1249 0.8734
3.8086 5.6616 0.8378 0.9729
2.8900 5.6672 0.7811 0.9747
22.6600 61.8911 8.0926 0.7667
1.3314 5.6768 0.7159 0.9768
0.6261 5.6811 0.7018 0.9772
-0.7522 5.6896 0.7047 0.9771
-1.4663 5.6940 0.7219 0.9766
-2.2277 5.6987 0.7513 0.9756
-6.5844 5.7254 1.0714 0.9654
-11.2012 5.7538 1.5462 0.9505
-67.6491 -17.2079 8.5708 0.7548
-30.2068 -34.5316 5.6332 0.8312
-23.5316 -34.5374 5.1314 0.8450
-18.5934 -35.9349 4.9679 0.8495
-10.3055 -88.6898 10.9630 0.6978
14.1991 -56.5191 7.1553 0.7907
16.5898 -43.1902 5.6808 0.8299
31.3525 -45.0559 6.7398 0.8015
50.5136 -34.6359 7.5203 0.7813
54.7050 -13.3431 6.9138 0.7970
54.6523 0.1075 6.7105 0.8023
51.0613 6.2901 6.3169 0.8127
50.8815 12.6229 6.4368 0.8096
25.4360 17.5884 3.7971 0.8828
24.8635 22.0539 4.0807 0.8746
5.0054 5.6542 0.9272 0.9700
1.4023 5.6764 0.7179 0.9767
0.6942 5.6807 0.7027 0.9772
-1.3946 5.6936 0.7197 0.9767
-2.1502 5.6982 0.7478 0.9758
-2.9795 5.7033 0.7901 0.9744
-6.4281 5.7245 1.0569 0.9659
-8.2599 5.7358 1.2347 0.9603
-10.8788 5.7518 1.5110 0.9516
-74.2904 -38.5316 10.2756 0.7137
-30.9315 -34.5272 5.6918 0.8296
-14.1619 -36.6525 4.8246 0.8535
-11.3500 -44.8029 5.6749 0.8301
-11.1750 -87.1664 10.7903 0.7018
15.9697 -43.0918 5.6427 0.8309
39.2986 -45.1049 7.3454 0.7858
50.3223 -45.3506 8.3177 0.7611
50.3389 -35.3988 7.5561 0.7804
52.0276 -27.9030 7.2489 0.7883
50.5866 5.6251 6.2495 0.8145
50.8776 11.9849 6.4180 0.8101
45.3409 16.6509 5.9307 0.8231
33.6920 17.2227 4.6460 0.8586
5.1253 5.6535 0.9370 0.9697
4.0055 5.6604 0.8514 0.9724
3.0604 5.6662 0.7907 0.9744
2.2141 5.6310 0.7429 0.9759
0.0729 5.6845 0.6980 0.9773
-1.3233 5.6931 0.7177 0.9767
-2.8939 5.7028 0.7852 0.9746
-3.8238 5.7085 0.8436 0.9727
-8.0531 5.7345 1.2139 0.9609
-31.6714 -34.5227 5.7524 0.8279
-24.7675 -34.5648 5.2211 0.8425
-14.6612 -36.6494 4.8467 0.8529
22.4808 -44.9580 6.1718 0.8166
50.3334 -36.2922 7.6191 0.7787
50.1838 -27.6835 7.0372 0.7938
69.0256 -27.8500 9.1391 0.7408
54.6444 -1.1854 6.7111 0.8023
51.0098 5.0621 6.2940 0.8134
47.0242 16.6406 6.1247 0.8179
25.3598 21.4440 4.0778 0.8747
5.2478 5.6527 0.9471 0.9694
4.1064 5.6597 0.8586 0.9722
2.3075 5.6708 0.7517 0.9756
0.8308 5.6799 0.7048 0.9771
-0.5475 5.6883 0.7017 0.9772
-2.8093 5.7022 0.7805 0.9747
-3.7263 5.7079 0.8370 0.9729
-4.8032 5.7145 0.9166 0.9704
-6.1278 5.7226 1.0295 0.9668
-10.2759 5.7481 1.4457 0.9537
-14.0640 5.7714 1.8666 0.9406
-89.4374 24.6379 11.3906 0.6881
-74.6878 -36.5222 10.2082 0.7153
-25.3887 -34.5610 5.2655 0.8413
-15.1652 -36.6463 4.8697 0.8523
-13.4628 -88.3818 10.9771 0.6975
14.6693 -42.6533 5.5382 0.8338
27.5691 -33.1963 5.2983 0.8404
50.2283 -37.1272 7.6692 0.7775
51.9224 -21.6669 6.9081 0.7971
54.6400 -15.4003 6.9703 0.7955
54.5995 -8.4822 6.7844 0.8004
54.6404 -1.8321 6.7128 0.8023
51.3742 4.4853 6.3319 0.8123
50.4192 10.6247 6.3267 0.8125
48.8217 16.6295 6.3327 0.8123
35.1649 16.9386 4.7925 0.8544
26.3454 16.8679 3.8410 0.8816
3.2352 5.6651 0.8010 0.9741
-0.4796 5.6879 0.7009 0.9773
-1.1819 5.6922 0.7138 0.9768
-1.9216 5.6968 0.7382 0.9761
-2.7257 5.7017 0.7760 0.9749
-3.6304 5.7073 0.8305 0.9731
-4.6884 5.7138 0.9075 0.9707
-5.9833 5.7217 1.0165 0.9672
-9.9935 5.7464 1.4154 0.9546
-6.5421 2.7756 0.8726 0.9718
-85.7913 24.7290 10.9627 0.6978
-74.0060 -35.1102 10.0575 0.7188
-31.1612 -25.4153 4.9373 0.8504
-33.2003 -34.5133 5.8801 0.8245
-10.0424 -17.3457 2.4610 0.9224
-15.6742 -36.6432 4.8936 0.8516
-11.3211 -38.8441 4.9679 0.8495
14.2268 -43.0146 5.5629 0.8331
36.5526 -45.0880 7.1268 0.7914
46.8464 -45.3313 8.0041 0.7690
50.2226 -38.0498 7.7365 0.7757
51.5317 -22.2233 6.8906 0.7976
54.5954 -9.1443 6.7968 0.8000
54.6770 4.1225 6.7325 0.8017
54.3867 10.7905 6.8080 0.7998
35.3295 16.5060 4.7880 0.8546
27.0376 16.8637 3.9126 0.8795
5.5008 5.6512 0.9683 0.9687
3.3244 5.6646 0.8064 0.9739
2.4650 5.6698 0.7591 0.9754
0.2747 5.6833 0.6986 0.9773
-1.8433 5.6858 0.7339 0.9762
-2.6431 5.7012 0.7716 0.9750
-4.5758 5.7131 0.8987 0.9709
-7.4721 5.7309 1.1562 0.9628
-6.4846 2.8422 0.8693 0.9719
-74.7863 -34.4027 10.1076 0.7177
17.2070 -90.9471 11.3650 0.6886
19.4035 -42.5109 5.7377 0.8283
27.5890 -45.1202 6.4936 0.8080
50.1173 -38.9116 7.7906 0.7744
54.6325 -3.1270 6.7190 0.8021
35.7935 16.2097 4.8246 0.8535
27.7564 16.8592 3.9875 0.8773
5.6317 5.6504 0.9795 0.9684
2.5450 5.6693 0.7630 0.9753
-19.2056 61.7191 7.9366 0.7707
-2.5614 5.7007 0.7674 0.9751
-3.4428 5.7061 0.8183 0.9735
-21.7504 21.8074 3.7818 0.8833
-7.2904 5.7298 1.1385 0.9633
-9.4626 5.7431 1.3591 0.9564
-12.7376 5.7633 1.7166 0.9452
-34.7991 -34.5035 6.0170 0.8208
-14.3405 -18.1358 2.8389 0.9110
-21.1078 -34.5472 4.9709 0.8495
-16.7075 -36.6369 4.9441 0.8502
-14.7326 -78.0120 9.7480 0.7262
13.6980 -44.9555 5.7704 0.8275
18.9725 -42.9030 5.7599 0.8277
25.7677 -33.3684 5.1765 0.8437
44.5583 -45.2067 7.7938 0.7743
54.5977 -17.5017 7.0398 0.7937
54.5872 -10.4761 6.8248 0.7993
54.7102 9.5155 6.8184 0.7995
50.5476 15.2387 6.4824 0.8083
25.4480 19.5316 3.9388 0.8787
4.5279 5.6571 0.8897 0.9712
3.5064 5.6634 0.8179 0.9735
1.1071 5.6782 0.7103 0.9770
0.4096 5.6825 0.6995 0.9773
-0.2768 5.6867 0.6991 0.9773
-1.6908 5.6691 0.7264 0.9764
-2.4806 5.7002 0.7633 0.9753
-3.3511 5.7056 0.8125 0.9737
-9.2126 5.7416 1.3329 0.9572
-12.3414 5.7608 1.6723 0.9466
-8.9927 2.9415 1.1617 0.9626
-75.7128 -32.6817 10.1255 0.7172
-27.9580 -34.5103 5.4534 0.8361
-12.6921 -38.4179 4.9679 0.8495
-14.1111 -70.1612 8.7872 0.7495
-3.2525 -41.6812 5.1334 0.8449
15.4490 -52.9399 6.7713 0.8007
18.4841 -43.1720 5.7663 0.8276
26.1379 -45.1113 6.4016 0.8105
34.0987 -45.2533 6.9572 0.7958
50.1054 -40.8382 7.9368 0.7707
54.6245 -4.4251 6.7290 0.8018
54.6651 2.1753 6.7173 0.8021
54.7061 8.8494 6.8044 0.7998
50.6338 14.6137 6.4708 0.8087
38.1374 16.1953 5.0874 0.8462
25.4451 19.0553 3.9032 0.8798
4.6382 5.6565 0.8982 0.9710
3.5994 5.6629 0.8239 0.9733
1.9115 5.6732 0.7351 0.9762
0.4772 5.6820 0.7001 0.9773
-0.9033 5.6905 0.7075 0.9770
-1.6254 5.6950 0.7272 0.9764
-3.2606 5.7050 0.8068 0.9739
-5.4398 5.7184 0.9691 0.9687
-8.9720 5.7401 1.3078 0.9580
-11.9651 5.7585 1.6304 0.9479
-22.1296 -34.3651 5.0187 0.8481
-17.6539 -36.4056 4.9679 0.8495
-13.1456 -38.2651 4.9679 0.8495
17.7537 -42.8603 5.6962 0.8295
33.3070 -45.3079 6.9046 0.7972
42.5024 -45.2119 7.6191 0.7787
50.0993 -41.8292 8.0136 0.7687
28.0525 -18.1822 4.1046 0.8740
56.4723 -27.5913 7.7173 0.7762
54.5889 -18.9342 7.0944 0.7923
54.7142 -11.8486 6.8738 0.7980
54.6205 -5.0757 6.7354 0.8017
54.6611 1.5279 6.7142 0.8022
54.7020 8.1860 6.7913 0.8002
39.4083 16.1875 5.2310 0.8422
29.9127 16.7459 4.2092 0.8710
25.4422 18.5875 3.8688 0.8807
4.7205 5.6199 0.9012 0.9709
2.7900 5.6678 0.7757 0.9749
-0.1421 5.6858 0.6984 0.9773
-0.8343 5.6901 0.7061 0.9771
-4.1461 5.7105 0.8665 0.9720
-8.7403 5.7387 1.2838 0.9587
-11.6071 5.7563 1.5908 0.9491
-29.1187 -0.6416 3.5762 0.8892
-90.1905 -36.4250 11.9430 0.6757
-29.3595 -34.5368 5.5658 0.8330
24.8701 23.1338 2.9717 0.8725
4.7729 5.6556 0.6475 0.9707
3.7125 5.6622 0.5924 0.9732
2.8063 5.6677 0.5533 0.9749
1.9988 5.6659 0.5256 0.9762
-0.1289 5.6858 0.4976 0.9774
-0.8208 5.6900 0.5030 0.9772
-1.5385 5.6944 0.5161 0.9766
-4.1258 5.7103 0.6163 0.9721
-6.7450 5.7264 0.7741 0.9651
-11.5391 5.7559 1.1282 0.9495
-16.2449 5.7848 1.5087 0.9331
-90.2065 -36.1886 8.5034 0.6769
-18.4054 -36.6265 3.5862 0.8482
12.4838 -47.3164 4.2813 0.8216
16.9865 -42.7068 4.0211 0.8315
32.2164 -45.1488 4.8525 0.8004
41.2601 -45.1536 5.3513 0.7822
50.1504 -33.5218 5.2775 0.7849
54.4179 -27.5477 5.3362 0.7828
54.7156 -5.8663 4.8144 0.8018
21.3043 5.5535 1.9262 0.9154
41.0258 16.1775 3.8583 0.8377
25.3383 17.9676 2.7176 0.8827
24.8668 22.5880 2.9391 0.8738
4.8880 5.6549 0.6539 0.9704
2.8900 5.6672 0.5566 0.9748
22.6600 61.8911 5.7663 0.7675
0.6261 5.6811 0.5000 0.9773
-1.4663 5.6940 0.5144 0.9767
-4.0235 5.7097 0.6111 0.9723
-5.1621 5.7167 0.6739 0.9695
-8.4740 5.7371 0.8953 0.9597
-11.2012 5.7538 1.1017 0.9507
-15.6465 5.7811 1.4593 0.9352
-31.9869 -36.5666 4.2504 0.8228
-18.9496 -36.6232 3.6076 0.8474
13.4945 -53.7147 4.8455 0.8006
16.4193 -42.7464 4.0062 0.8320
23.2099 -43.7945 4.3364 0.8195
31.5696 -45.3679 4.8356 0.8010
52.8384 -27.5380 5.2129 0.7872
54.6697 -13.3345 4.9232 0.7978
54.7116 -6.5213 4.8205 0.8015
54.6596 0.1076 4.7821 0.8029
50.4308 12.5111 4.5459 0.8117
42.4684 16.1686 3.9757 0.8332
25.3356 17.5190 2.6949 0.8837
24.8635 22.0539 2.9077 0.8751
5.0054 5.6542 0.6607 0.9701
3.9062 5.6610 0.6017 0.9728
2.9747 5.6667 0.5599 0.9746
1.4023 5.6764 0.5115 0.9768
0.0056 5.6849 0.4974 0.9774
-3.9228 5.7091 0.6060 0.9726
-5.0399 5.7160 0.6667 0.9699
-6.4281 5.7245 0.7531 0.9660
-8.2599 5.7358 0.8798 0.9604
-15.0858 5.7777 1.4133 0.9372
-10.0503 -18.8736 1.8707 0.9177
-14.1619 -36.6525 3.4377 0.8540
-11.3500 -44.8029 4.0436 0.8306
12.8833 -53.9758 4.8549 0.8003
22.9798 -44.6284 4.3917 0.8175
30.6242 -45.1389 4.7722 0.8033
38.2215 -43.8687 5.0904 0.7917
50.1397 -35.2587 5.3627 0.7818
54.7075 -7.1781 4.8273 0.8013
54.6556 -0.5389 4.7820 0.8029
45.3596 5.0439 3.9929 0.8326
50.4269 11.8788 4.5325 0.8122
44.0019 16.1592 4.1010 0.8284
33.6920 17.2227 3.3105 0.8590
25.3328 17.0777 2.6729 0.8846
3.0604 5.6662 0.5634 0.9745
1.4736 5.6759 0.5130 0.9767
0.0729 5.6845 0.4974 0.9774
-0.6156 5.6888 0.5006 0.9773
-2.0733 5.6977 0.5305 0.9759
-3.8238 5.7085 0.6011 0.9728
-6.2760 5.7235 0.7431 0.9665
-8.0531 5.7345 0.8649 0.9611
-10.5707 5.7499 1.0528 0.9528
-14.5594 5.7745 1.3703 0.9390
-54.3431 -27.3749 5.3236 0.7832
-11.5512 -43.4330 3.9320 0.8349
-12.2236 -87.1599 7.7001 0.7023
15.8327 -44.3243 4.1178 0.8278
29.8357 -45.1162 4.7322 0.8048
37.8600 -44.5058 5.1120 0.7909
47.7952 -44.1088 5.6901 0.7702
50.1838 -27.6835 5.0142 0.7944
52.9914 -21.3806 4.9993 0.7950
54.7035 -7.8368 4.8348 0.8010
54.6516 -1.1855 4.7825 0.8029
48.2344 4.7867 4.2407 0.8231
47.0244 16.6406 4.3641 0.8185
34.6864 17.2165 3.3879 0.8560
25.5269 16.7729 2.6723 0.8846
25.3598 21.4440 2.9056 0.8752
3.1473 5.6656 0.5670 0.9743
2.3075 5.6708 0.5356 0.9757
0.8308 5.6799 0.5022 0.9772
0.1401 5.6841 0.4974 0.9774
-0.5475 5.6883 0.5000 0.9773
-1.2524 5.6927 0.5100 0.9769
-2.8093 5.7022 0.5561 0.9748
-3.7263 5.7079 0.5964 0.9730
-4.8032 5.7145 0.6531 0.9705
-6.1278 5.7226 0.7335 0.9669
-20.2005 -35.8631 3.6011 0.8477
-15.1652 -36.6463 3.4698 0.8528
-12.1021 -43.4296 3.9444 0.8344
-12.3700 -81.2074 7.1867 0.7190
21.9903 -45.3091 4.4062 0.8169
50.2283 -37.1272 5.4646 0.7782
51.3198 -21.4147 4.8663 0.7999
54.5644 -15.3790 4.9598 0.7964
54.6994 -8.4977 4.8430 0.8007
50.4192 10.6247 4.5080 0.8131
48.8218 16.6296 4.5123 0.8129
4.2090 5.6591 0.6170 0.9721
2.3859 5.6703 0.5382 0.9756
1.6176 5.6750 0.5163 0.9766
0.8995 5.6794 0.5031 0.9772
-0.4796 5.6879 0.4994 0.9773
-2.7257 5.7017 0.5529 0.9749
-3.6304 5.7073 0.5918 0.9732
-4.6884 5.7138 0.6466 0.9708
-9.9935 5.7464 1.0086 0.9548
-20.1524 5.8088 1.8349 0.9192
-35.1568 -36.5472 4.4367 0.8158
-13.2202 -80.3893 7.1276 0.7210
11.8369 -58.7501 5.2433 0.7861
28.3305 -45.1248 4.6615 0.8074
36.7632 -45.3478 5.1074 0.7910
46.7499 -45.2380 5.6915 0.7701
50.2226 -38.0498 5.5126 0.7765
54.6953 -9.1610 4.8519 0.8004
35.3295 16.5060 3.4116 0.8551
26.8788 16.7646 2.7715 0.8806
5.5008 5.6512 0.6900 0.9688
3.3244 5.6646 0.5746 0.9740
2.4650 5.6698 0.5409 0.9755
0.9685 5.6790 0.5040 0.9771
0.2747 5.6833 0.4978 0.9774
-0.4119 5.6875 0.4989 0.9774
-1.1118 5.6918 0.5074 0.9770
-3.5359 5.7067 0.5873 0.9734
-5.8183 5.6972 0.7124 0.9678
-9.7194 5.7428 0.9877 0.9557
-6.4846 2.8421 0.6194 0.9720
-89.7376 4.6040 7.8614 0.6971
-76.2508 -35.0764 7.3431 0.7139
-27.2862 -35.3594 3.9075 0.8358
-20.5527 -34.5506 3.5172 0.8509
-16.1882 -36.6401 3.5045 0.8514
-13.2148 -43.4228 3.9710 0.8334
-14.1978 -80.3833 7.1415 0.7205
16.7185 -88.3649 7.8681 0.6969
14.2190 -44.7595 4.1088 0.8281
19.8933 -43.5839 4.1915 0.8250
27.5890 -45.1203 4.6270 0.8087
35.7421 -45.1702 5.0394 0.7935
45.6498 -45.2312 5.6223 0.7726
48.6944 -21.6863 4.6636 0.8073
54.5558 -16.7793 4.9937 0.7952
54.6912 -9.8267 4.8615 0.8000
54.6803 3.4730 4.7935 0.8025
54.8144 10.2030 4.8780 0.7994
27.5934 16.7602 2.8245 0.8784
2.5450 5.6693 0.5437 0.9754
1.7635 5.6741 0.5198 0.9764
1.0377 5.6786 0.5050 0.9771
0.3421 5.6829 0.4981 0.9774
-19.2056 61.7191 5.6551 0.7714
-2.5614 5.7007 0.5468 0.9752
-4.4654 5.7124 0.6343 0.9713
-21.7504 21.8074 2.6946 0.8837
-12.7376 5.7633 1.2232 0.9454
-18.4635 5.7984 1.6931 0.9252
-90.1578 -16.2306 8.0146 0.6922
-13.4155 -42.2800 3.8808 0.8369
13.8210 -45.3592 4.1485 0.8266
26.9738 -45.3098 4.6134 0.8092
44.5258 -45.1736 5.5493 0.7752
50.1644 -30.8538 5.1525 0.7894
48.3309 -22.2132 4.6536 0.8077
54.5515 -17.4869 5.0118 0.7945
54.7284 -3.7825 4.7995 0.8023
18.4806 5.5714 1.6887 0.9254
36.9344 16.2027 3.5286 0.8505
28.3359 16.7556 2.8801 0.8762
25.3475 19.4545 2.7955 0.8796
5.7657 5.6495 0.7062 0.9681
4.5279 5.6571 0.6339 0.9713
3.5064 5.6634 0.5828 0.9736
1.1071 5.6782 0.5061 0.9770
0.4096 5.6825 0.4984 0.9774
-0.9725 5.6910 0.5051 0.9771
-1.6908 5.6691 0.5176 0.9765
-2.4805 5.7002 0.5439 0.9753
-3.3511 5.7056 0.5789 0.9738
-5.5709 5.7192 0.6985 0.9685
-7.1142 5.7287 0.7991 0.9640
-12.3414 5.7608 1.1916 0.9468
-68.3338 -20.1607 6.2332 0.7512
-17.2323 -36.6337 3.5419 0.8500
-11.3937 -56.6502 5.0555 0.7929
13.5411 -46.4022 4.2290 0.8236
26.1380 -45.1115 4.5614 0.8111
33.0475 -43.8583 4.8045 0.8021
43.5029 -45.1929 5.4881 0.7773
54.5471 -18.1998 5.0309 0.7938
54.7244 -4.4332 4.8035 0.8022
50.9752 2.0285 4.4633 0.8148
54.8062 8.8656 4.8573 0.8002
19.2868 5.5664 1.7562 0.9226
38.1374 16.1953 3.6250 0.8467
25.3446 18.9801 2.7702 0.8806
4.6382 5.6565 0.6400 0.9711
3.5994 5.6629 0.5870 0.9734
2.7074 5.6683 0.5496 0.9751
1.9115 5.6732 0.5238 0.9762
0.4772 5.6820 0.4989 0.9774
-0.2094 5.6863 0.4978 0.9774
-0.9033 5.6905 0.5041 0.9771
-2.4006 5.6997 0.5411 0.9755
-3.2606 5.7050 0.5749 0.9740
-4.2506 5.7111 0.6229 0.9718
-5.4398 5.7184 0.6905 0.9688
-8.9720 5.7401 0.9318 0.9581
-17.0162 5.7896 1.5725 0.9304
-23.5741 -36.6081 3.8094 0.8396
-11.8540 -55.5321 4.9679 0.7961
17.6745 -42.6690 4.0406 0.8307
24.6825 -43.7854 4.3975 0.8172
50.1988 -41.9123 5.7214 0.7691
28.0494 -18.1802 2.9244 0.8744
50.8790 -17.6474 4.7113 0.8055
54.6789 -11.8410 4.8947 0.7988
54.7204 -5.0850 4.8080 0.8020
54.6683 1.5281 4.7847 0.8028
54.8021 8.2010 4.8480 0.8005
20.1603 5.5611 1.8297 0.9195
39.4083 16.1875 3.7273 0.8428
29.9127 16.7459 2.9992 0.8714
7.0416 6.5805 0.8432 0.9620
3.6938 5.6623 0.5915 0.9732
1.9864 5.6728 0.5259 0.9762
1.2470 5.6773 0.5085 0.9769
0.5449 5.6816 0.4994 0.9773
-0.1421 5.6858 0.4976 0.9774
-0.8343 5.6901 0.5031 0.9772
-2.3214 5.6992 0.5384 0.9756
-3.1714 5.7045 0.5710 0.9741
-5.3116 5.7176 0.6828 0.9692
-6.7770 5.7266 0.7762 0.9650
-11.6071 5.7563 1.1335 0.9493
-16.3669 5.7856 1.5188 0.9327
5.6303 6.6717 0.4575 0.9656
3.7125 5.6622 0.3548 0.9732
1.2608 5.6772 0.3048 0.9770
-0.1289 5.6858 0.2981 0.9775
-6.7290 5.7129 0.4626 0.9653
-16.2449 5.7848 0.9037 0.9333
-25.9534 5.8445 1.3942 0.8989
-43.4345 -0.8562 2.2768 0.8403
-14.2167 -28.2910 1.6593 0.8809
-12.5111 -34.8077 1.9384 0.8623
-11.4168 -50.0082 2.6882 0.8143
12.6242 -91.3298 4.8319 0.6912
14.2216 -53.9026 2.9216 0.7999
17.6958 -44.4903 2.5093 0.8255
23.8711 -43.7826 2.6134 0.8189
31.7552 -27.2846 2.1942 0.8456
50.3496 -33.6550 3.1739 0.7846
43.1549 -21.8461 2.5349 0.8239
59.6562 -21.6420 3.3258 0.7755
20.9566 2.8336 1.1083 0.9188
21.3062 5.5540 1.1539 0.9156
41.0258 16.1775 2.3112 0.8381
31.8331 17.2341 1.8971 0.8650
25.3383 17.9676 1.6279 0.8830
7.3332 6.6612 0.5192 0.9611
5.7661 6.6709 0.4621 0.9653
3.8086 5.6616 0.3576 0.9730
2.8900 5.6672 0.3334 0.9748
1.3314 5.6768 0.3056 0.9769
0.6261 5.6811 0.2995 0.9774
-0.0616 5.6854 0.2980 0.9775
-1.4663 5.6940 0.3081 0.9767
-2.2238 5.6888 0.3201 0.9758
-5.1541 5.7080 0.4030 0.9697
-6.5756 5.7179 0.4567 0.9657
-24.5564 5.8359 1.3228 0.9038
-31.0223 -0.2445 1.6259 0.8831
-67.3003 -17.1192 3.6394 0.7572
-30.2069 -34.5317 2.4044 0.8321
-12.9219 -34.6573 1.9384 0.8623
-11.4006 -47.3487 2.5524 0.8228
11.6921 -92.6540 4.8943 0.6879
13.6226 -54.2246 2.9301 0.7994
31.0003 -27.2800 2.1641 0.8476
50.5932 -34.6905 3.2149 0.7821
42.8289 -22.3213 2.5311 0.8241
59.6616 -22.4459 3.3407 0.7747
59.6084 -14.5390 3.2155 0.7821
59.5588 -7.0991 3.1434 0.7864
22.3615 5.5475 1.2074 0.9118
24.9842 9.5120 1.4011 0.8985
32.7419 17.2285 1.9390 0.8623
25.3356 17.5190 1.6143 0.8839
7.4350 6.5949 0.5209 0.9610
2.9747 5.6667 0.3354 0.9747
1.4023 5.6764 0.3064 0.9769
0.0056 5.6849 0.2979 0.9775
-0.6838 5.6892 0.3003 0.9773
-2.9749 5.6945 0.3367 0.9746
-3.9130 5.6948 0.3621 0.9727
-8.2599 5.7358 0.5270 0.9605
-45.0510 -10.8940 2.4291 0.8306
-66.7788 -45.5946 4.2376 0.7233
-30.9315 -34.5272 2.4294 0.8305
-18.4055 -34.5637 2.0522 0.8548
-13.3627 -34.5840 1.9431 0.8620
-11.3500 -44.8029 2.4222 0.8310
13.7736 -57.7058 3.1092 0.7885
16.3175 -44.0301 2.4609 0.8285
43.0628 -23.0951 2.5609 0.8222
59.6134 -15.2896 3.2253 0.7815
23.5199 5.5404 1.2664 0.9077
33.6920 17.2227 1.9830 0.8594
25.1423 21.7753 1.7431 0.8753
6.0461 6.6691 0.4718 0.9646
4.0055 5.6604 0.3634 0.9726
3.0604 5.6662 0.3375 0.9745
2.2141 5.6310 0.3171 0.9761
1.4736 5.6759 0.3073 0.9768
0.7624 5.6803 0.3004 0.9773
-2.0697 5.6877 0.3172 0.9760
-4.9118 5.7053 0.3945 0.9703
-10.5707 5.7499 0.6306 0.9529
-22.1511 5.8211 1.2003 0.9123
-73.1086 -36.8279 4.2901 0.7204
-17.0958 -31.2087 1.8649 0.8672
-11.3726 -42.7614 2.3189 0.8376
12.9997 -57.4651 3.0877 0.7898
16.1913 -45.3280 2.5225 0.8247
22.4775 -44.9514 2.6339 0.8177
29.8474 -45.1340 2.8358 0.8051
24.7440 -29.0875 2.0014 0.8582
50.1838 -27.6835 3.0037 0.7949
59.6726 -24.0763 3.3723 0.7728
59.6185 -16.0447 3.2356 0.7809
47.0244 16.6406 2.6142 0.8189
25.5269 16.7729 1.6008 0.8848
25.3598 21.4440 1.7405 0.8754
4.1064 5.6597 0.3665 0.9724
3.1473 5.6656 0.3397 0.9744
1.5454 5.6755 0.3083 0.9767
-0.5475 5.6883 0.2995 0.9774
-1.2524 5.6927 0.3055 0.9769
-1.9949 5.6908 0.3160 0.9761
-3.7215 5.7004 0.3568 0.9731
-4.7944 5.7041 0.3905 0.9706
-6.1278 5.7226 0.4394 0.9670
-7.8531 5.7333 0.5096 0.9618
-10.2759 5.7481 0.6171 0.9539
-32.4274 -34.5180 2.4821 0.8272
-25.3888 -34.5610 2.2475 0.8422
-14.3094 -34.5783 1.9612 0.8608
12.6323 -59.0795 3.1662 0.7851
50.2283 -37.1272 3.2734 0.7787
59.6782 -24.9034 3.3890 0.7718
59.6236 -16.8049 3.2465 0.7803
59.4780 5.1928 3.1290 0.7873
50.4192 10.6247 2.7004 0.8135
26.1906 16.7688 1.6298 0.8829
25.3566 20.9320 1.7232 0.8766
3.2352 5.6651 0.3419 0.9742
1.6176 5.6750 0.3093 0.9766
0.8995 5.6794 0.3014 0.9772
-0.4796 5.6879 0.2991 0.9774
-1.1819 5.6922 0.3047 0.9770
-1.9208 5.6943 0.3149 0.9762
-2.7213 5.6926 0.3307 0.9750
-3.6255 5.6997 0.3540 0.9733
-7.6595 5.7321 0.5014 0.9624
-20.1524 5.8088 1.0991 0.9194
-31.1369 -25.3955 2.1057 0.8513
-33.2003 -34.5133 2.5098 0.8255
-26.0208 -34.5571 2.2671 0.8409
-20.0051 -34.5539 2.0925 0.8522
21.2181 -45.0674 2.6106 0.8191
28.3304 -45.1247 2.7923 0.8078
59.5297 -2.7013 3.1230 0.7877
54.3867 10.7905 2.9058 0.8008
35.3295 16.5060 2.0436 0.8554
3.3244 5.6646 0.3442 0.9740
2.4650 5.6698 0.3240 0.9755
1.6903 5.6746 0.3103 0.9766
0.9685 5.6790 0.3019 0.9772
0.2747 5.6833 0.2982 0.9775
-0.4119 5.6875 0.2989 0.9774
-1.1118 5.6918 0.3039 0.9770
-1.8433 5.6858 0.3133 0.9763
-2.6388 5.6919 0.3288 0.9752
-3.5311 5.6989 0.3514 0.9735
-4.5667 5.7016 0.3828 0.9712
-7.4721 5.7309 0.4935 0.9630
-6.4845 2.8421 0.3710 0.9720
-19.2740 5.8034 1.0549 0.9225
-33.9539 5.8937 1.8061 0.8711
-89.7800 4.6062 4.7113 0.6976
-57.0415 -26.2399 3.2905 0.7776
-20.5527 -34.5506 2.1069 0.8513
-15.2746 -34.5723 1.9808 0.8595
17.4006 -54.7748 3.0120 0.7944
27.5335 -45.0296 2.7661 0.8094
24.6959 -31.2102 2.0858 0.8526
50.5652 -39.2593 3.3550 0.7738
59.6339 -18.3412 3.2698 0.7789
59.5828 -10.7056 3.1726 0.7847
59.5344 -3.4076 3.1252 0.7875
59.4872 3.7784 3.1239 0.7876
59.1694 11.0136 3.1542 0.7858
17.7340 5.5760 0.9743 0.9282
27.5934 16.7602 1.6920 0.8787
25.3505 19.9376 1.6902 0.8788
4.4197 5.6578 0.3763 0.9717
1.7635 5.6741 0.3114 0.9765
0.3421 5.6829 0.2984 0.9775
-2.5572 5.6913 0.3270 0.9753
-3.4380 5.6982 0.3488 0.9737
-21.7504 21.8074 1.6142 0.8839
-12.7376 5.7633 0.7327 0.9455
-18.4635 5.7984 1.0142 0.9254
-31.6459 5.8795 1.6869 0.8790
-34.7991 -34.5035 2.5682 0.8218
-14.3362 -18.1304 1.2113 0.9116
-11.2936 -35.5926 1.9570 0.8611
-5.4021 -81.6735 4.2897 0.7205
13.7080 -44.9884 2.4648 0.8283
49.8756 -22.9232 2.8767 0.8026
59.6391 -19.1178 3.2822 0.7781
59.5876 -11.4357 3.1798 0.7842
59.5390 -4.1149 3.1277 0.7874
50.9543 2.6317 2.6740 0.8152
59.4445 10.3389 3.1621 0.7853
18.4806 5.5714 1.0116 0.9256
28.3359 16.7556 1.7252 0.8765
25.3475 19.4544 1.6746 0.8799
3.5064 5.6634 0.3491 0.9737
1.1071 5.6782 0.3032 0.9771
0.4096 5.6825 0.2986 0.9774
-0.2768 5.6867 0.2984 0.9775
-0.9725 5.6910 0.3026 0.9771
-2.4764 5.6907 0.3253 0.9754
-4.3475 5.6993 0.3757 0.9717
-5.5643 5.7125 0.4179 0.9686
-7.1034 5.7200 0.4780 0.9641
-8.9861 2.9393 0.4955 0.9628
-29.5376 5.8500 1.5781 0.8864
-35.6272 -34.4984 2.5990 0.8198
-16.2599 -34.5663 2.0020 0.8581
-11.6029 -35.1209 1.9384 0.8623
15.5709 -53.3579 2.9130 0.8004
24.7211 -32.8081 2.1529 0.8483
26.2317 -27.2507 1.9823 0.8594
50.5532 -41.2032 3.4179 0.7701
50.1593 -31.6745 3.1090 0.7885
59.6444 -19.9005 3.2952 0.7774
59.5925 -12.1689 3.1876 0.7838
59.4964 2.3676 3.1205 0.7878
19.2868 5.5664 1.0520 0.9227
38.1374 16.1953 2.1714 0.8471
3.5994 5.6629 0.3517 0.9735
1.9115 5.6732 0.3137 0.9763
-0.2094 5.6863 0.2982 0.9775
-0.9033 5.6905 0.3020 0.9772
-1.6254 5.6950 0.3104 0.9766
-2.3965 5.6901 0.3236 0.9756
-4.2410 5.6982 0.3723 0.9719
-5.4327 5.7110 0.4131 0.9689
-6.9233 5.7113 0.4704 0.9647
-17.0162 5.7896 0.9420 0.9305
-36.4385 -34.4584 2.6283 0.8180
-28.6373 -34.5061 2.3500 0.8356
-22.2681 -34.5801 2.1555 0.8481
-16.7605 -34.5632 2.0131 0.8574
-12.0175 -34.9812 1.9384 0.8623
-11.4334 -53.5619 2.8703 0.8030
13.9862 -91.6099 4.8567 0.6899
15.2187 -54.5417 2.9676 0.7971
24.7161 -33.6216 2.1869 0.8461
43.4888 -21.2478 2.5366 0.8238
59.5010 1.6632 3.1195 0.7879
20.1602 5.5611 1.0960 0.9196
25.3417 18.5141 1.6448 0.8819
3.6938 5.6623 0.3543 0.9733
-0.1421 5.6858 0.2981 0.9775
-0.8343 5.6901 0.3014 0.9772
-1.5527 5.6945 0.3093 0.9766
-2.3174 5.6895 0.3220 0.9757
-3.1667 5.6960 0.3415 0.9742
-4.1364 5.6971 0.3690 0.9722
-5.3042 5.7096 0.4084 0.9693
-6.7595 5.7119 0.4638 0.9652
-11.6071 5.7563 0.6790 0.9494
25.8760 24.0694 0.6169 0.8682
5.4099 6.4105 0.1464 0.9670
2.8063 5.6677 0.1104 0.9750
1.9988 5.6659 0.1049 0.9763
0.5582 5.6815 0.0996 0.9774
-0.1289 5.6858 0.0993 0.9775
-0.8208 5.6900 0.1003 0.9773
-2.2968 5.6767 0.1069 0.9758
-3.1409 5.6806 0.1133 0.9744
-4.0955 5.6683 0.1221 0.9724
-5.2452 5.6724 0.1349 0.9696
-8.6959 5.7384 0.1819 0.9592
-11.5061 5.7395 0.2244 0.9499
-16.2449 5.7848 0.3010 0.9333
-25.8893 5.8300 0.4632 0.8993
-17.1646 -34.1572 0.6673 0.8582
-13.2365 -36.8258 0.6831 0.8551
22.8468 -86.5941 1.5632 0.6989
20.6137 -51.8264 0.9736 0.8000
31.7552 -27.2846 0.7308 0.8458
44.6378 -22.5968 0.8733 0.8186
76.1721 -27.6336 1.4144 0.7231
20.9518 2.8330 0.3690 0.9189
31.8331 17.2341 0.6318 0.8652
25.4388 18.0388 0.5443 0.8827
23.0254 62.8889 1.1690 0.7650
1.3314 5.6768 0.1018 0.9769
-0.7522 5.6896 0.1002 0.9773
-2.2205 5.6803 0.1065 0.9759
-6.5844 5.7254 0.1523 0.9657
-11.1685 5.7370 0.2192 0.9510
-24.5405 5.8321 0.4403 0.9040
-31.0293 -0.2446 0.5416 0.8833
-29.8632 -34.1387 0.7917 0.8341
-19.2900 -28.3120 0.5980 0.8719
-17.6720 -34.1541 0.6712 0.8574
-13.6132 -36.5114 0.6802 0.8557
-10.2883 -88.5418 1.5559 0.7000
39.8651 -27.3345 0.8437 0.8242
73.3996 -27.6145 1.3689 0.7307
22.3615 5.5475 0.4022 0.9119
24.9843 9.5120 0.4666 0.8986
32.7419 17.2285 0.6458 0.8624
3.9062 5.6610 0.1201 0.9729
2.9747 5.6667 0.1117 0.9747
0.0056 5.6849 0.0992 0.9775
-0.6838 5.6892 0.1000 0.9773
-2.1447 5.6838 0.1060 0.9760
-6.4281 5.7245 0.1502 0.9662
-23.2819 5.8248 0.4189 0.9085
-45.0466 -10.8929 0.8089 0.8308
-30.5796 -34.1344 0.7999 0.8325
-26.7582 -38.2917 0.8154 0.8295
-18.1857 -34.1510 0.6754 0.8566
-14.1062 -36.5084 0.6832 0.8551
21.9079 -91.7849 1.6471 0.6856
21.6780 -42.1002 0.8266 0.8274
30.2656 -27.2755 0.7112 0.8496
38.8623 -27.3283 0.8293 0.8269
40.6884 -21.8216 0.8059 0.8313
70.9345 -27.6493 1.3289 0.7374
23.5199 5.5404 0.4218 0.9079
24.9983 9.1803 0.4648 0.8989
33.6920 17.2227 0.6605 0.8595
2.2141 5.6310 0.1056 0.9761
0.0729 5.6845 0.0992 0.9775
-0.6156 5.6888 0.0999 0.9774
-1.3233 5.6931 0.1020 0.9769
-2.0695 5.6873 0.1056 0.9761
-3.8059 5.6818 0.1194 0.9730
-6.2760 5.7235 0.1483 0.9666
-8.0531 5.7345 0.1726 0.9612
-10.5386 5.7325 0.2094 0.9531
-14.5594 5.7745 0.2734 0.9393
-22.1334 5.8165 0.3995 0.9125
-73.1387 -36.8431 1.4295 0.7206
-31.3338 -34.1546 0.8090 0.8307
-13.6728 -34.1786 0.6426 0.8631
16.6516 -46.6167 0.8640 0.8203
24.6924 -37.3387 0.7814 0.8360
29.5503 -27.2711 0.7019 0.8514
40.3801 -22.2753 0.8050 0.8315
68.3651 -27.5835 1.2868 0.7446
44.9186 4.4577 0.7877 0.8348
24.7239 5.5162 0.4422 0.9036
24.9983 8.8462 0.4629 0.8993
25.5270 16.7729 0.5331 0.8850
25.3598 21.4440 0.5797 0.8756
4.1064 5.6597 0.1221 0.9724
3.1473 5.6656 0.1131 0.9744
1.5454 5.6755 0.1027 0.9767
-0.5475 5.6883 0.0997 0.9774
-1.2524 5.6927 0.1017 0.9770
-4.7647 5.6687 0.1293 0.9708
-6.1278 5.7226 0.1463 0.9670
-7.8531 5.7333 0.1697 0.9618
-71.9905 -35.2033 1.3988 0.7257
-32.1172 -34.1878 0.8188 0.8289
-10.4673 -68.7166 1.2133 0.7572
24.6729 -38.2860 0.7950 0.8334
24.7396 -29.7893 0.6759 0.8565
80.9250 -22.8087 1.4676 0.7144
50.4192 10.6247 0.8994 0.8137
5.7032 5.9994 0.1445 0.9674
1.6176 5.6750 0.1030 0.9767
0.8995 5.6794 0.1004 0.9773
-1.1819 5.6922 0.1015 0.9770
-1.9208 5.6943 0.1049 0.9762
-3.6155 5.6838 0.1176 0.9734
-4.6507 5.6678 0.1280 0.9711
-9.9735 5.7349 0.2008 0.9550
-20.1524 5.8088 0.3661 0.9195
-72.6531 -34.4684 1.4036 0.7249
-31.1326 -25.3920 0.7012 0.8515
-32.8760 -34.1761 0.8277 0.8272
-27.2916 -36.2448 0.7919 0.8340
-14.6175 -34.1728 0.6488 0.8618
-10.9271 -66.4449 1.1754 0.7638
24.7352 -30.5112 0.6856 0.8546
28.1738 -27.2626 0.6843 0.8548
38.9581 -22.7090 0.7871 0.8349
63.8974 -27.5561 1.2146 0.7570
53.4089 10.5965 0.9504 0.8043
17.1100 5.6030 0.3143 0.9305
26.9900 16.8339 0.5552 0.8805
5.7609 5.9184 0.1442 0.9675
4.3134 5.6585 0.1242 0.9719
1.6903 5.6746 0.1034 0.9766
0.2747 5.6833 0.0993 0.9775
-1.1118 5.6918 0.1012 0.9771
-1.8433 5.6858 0.1043 0.9764
-2.6320 5.6772 0.1092 0.9753
-3.5214 5.6832 0.1167 0.9736
-4.5389 5.6670 0.1267 0.9714
-5.8183 5.6972 0.1421 0.9679
-7.4721 5.7309 0.1644 0.9630
-6.4845 2.8421 0.1236 0.9721
-19.2740 5.8034 0.3513 0.9226
-33.9538 5.8937 0.6015 0.8712
-89.7821 4.6063 1.5692 0.6979
-67.0940 -21.5327 1.2300 0.7543
-57.0367 -26.2377 1.0959 0.7779
-27.2862 -35.3593 0.7796 0.8364
-15.0968 -34.1699 0.6521 0.8612
20.6180 -45.1716 0.8667 0.8198
25.7656 -42.1383 0.8621 0.8207
27.5109 -27.2586 0.6760 0.8565
35.1690 -27.3056 0.7772 0.8368
45.7035 -27.3704 0.9299 0.8081
61.9597 -27.5941 1.1839 0.7624
81.0968 5.1509 1.4184 0.7225
17.6734 5.5569 0.3234 0.9286
25.0201 11.3308 0.4794 0.8959
27.7075 16.8295 0.5659 0.8784
3.4148 5.6640 0.1154 0.9739
1.7635 5.6741 0.1037 0.9765
0.3421 5.6829 0.0994 0.9775
-0.3443 5.6871 0.0994 0.9775
-1.0420 5.6914 0.1010 0.9771
-3.4286 5.6826 0.1158 0.9738
-4.4292 5.6661 0.1255 0.9716
-7.2904 5.7298 0.1619 0.9636
-9.4626 5.7431 0.1932 0.9567
-12.6697 5.7326 0.2427 0.9459
-18.4635 5.7984 0.3378 0.9255
-72.6824 -32.3988 1.3890 0.7273
-34.4962 -34.2032 0.8479 0.8234
-14.3330 -18.1263 0.4034 0.9117
-13.2670 -41.8122 0.7657 0.8390
-12.5462 -66.4350 1.1801 0.7630
26.3964 -86.6304 1.5808 0.6961
20.6093 -46.6044 0.8895 0.8156
25.0819 -42.1319 0.8559 0.8219
24.7259 -32.0193 0.7061 0.8506
26.8637 -27.2546 0.6680 0.8580
34.3165 -27.3004 0.7654 0.8391
60.0126 -27.5822 1.1529 0.7678
50.9495 2.6314 0.8905 0.8154
41.1297 7.1535 0.7287 0.8462
25.4178 19.5084 0.5593 0.8797
4.5279 5.6571 0.1265 0.9714
1.1071 5.6782 0.1010 0.9771
-0.2768 5.6867 0.0994 0.9775
-0.9725 5.6910 0.1008 0.9772
-1.6908 5.6691 0.1033 0.9766
-3.3372 5.6820 0.1150 0.9740
-5.5274 5.6746 0.1383 0.9688
-7.1142 5.7287 0.1594 0.9641
-9.2126 5.7416 0.1895 0.9575
-12.2737 5.7293 0.2364 0.9473
-8.9827 2.9382 0.1650 0.9629
-29.5376 5.8500 0.5256 0.8865
-66.6684 -19.6693 1.2133 0.7572
-16.0706 -34.1639 0.6590 0.8598
-13.2567 -40.1269 0.7376 0.8445
-13.2251 -65.7561 1.1708 0.7647
20.5807 -48.0687 0.9127 0.8112
24.7211 -32.8080 0.7170 0.8485
33.4893 -27.2953 0.7541 0.8413
43.3202 -27.3557 0.8943 0.8147
58.1647 -27.5708 1.1235 0.7730
40.8142 6.6022 0.7217 0.8476
19.2601 5.5587 0.3499 0.9229
25.0106 10.6209 0.4743 0.8970
25.4149 19.0328 0.5542 0.8807
25.8802 24.7654 0.6252 0.8665
3.5994 5.6629 0.1171 0.9735
2.7074 5.6683 0.1096 0.9752
1.9115 5.6732 0.1045 0.9763
1.1769 5.6777 0.1012 0.9771
-0.2094 5.6863 0.0993 0.9775
-0.9033 5.6905 0.1006 0.9772
-2.3904 5.6756 0.1075 0.9757
-3.2471 5.6814 0.1142 0.9742
-5.3971 5.6736 0.1367 0.9692
-6.9431 5.7276 0.1571 0.9646
-66.7069 -18.8259 1.2098 0.7578
-28.6373 -34.5061 0.7827 0.8358
-16.5654 -34.1609 0.6627 0.8591
20.5901 -49.7078 0.9391 0.8063
23.7434 -42.1195 0.8440 0.8241
24.7161 -33.6216 0.7284 0.8462
25.6140 -27.2469 0.6527 0.8610
32.6860 -27.2904 0.7432 0.8434
44.6426 -21.8115 0.8673 0.8197
79.8738 -27.7043 1.4757 0.7130
20.1359 5.5543 0.3646 0.9198
4.7205 5.6199 0.1281 0.9711
2.7900 5.6678 0.1103 0.9750
1.9864 5.6728 0.1049 0.9762
0.5449 5.6816 0.0996 0.9774
-0.1421 5.6858 0.0993 0.9775
-0.8343 5.6901 0.1004 0.9773
-1.5527 5.6945 0.1030 0.9767
-4.1148 5.6674 0.1222 0.9724
-5.2698 5.6726 0.1351 0.9695
-8.7403 5.7387 0.1825 0.9590
-11.5741 5.7399 0.2255 0.9496
-26.1592 5.8271 0.4678 0.8983
-30.9665 -36.4272 0.8345 0.8259
0.5582 5.6815 -0.0996 0.9774
-0.8208 5.6900 -0.1003 0.9773
-1.5385 5.6944 -0.1030 0.9767
-3.1325 5.6655 -0.1130 0.9744
-4.0841 5.6525 -0.1217 0.9725
-5.2115 5.6360 -0.1340 0.9698
-8.6959 5.7384 -0.1819 0.9592
-25.8846 5.8290 -0.4631 0.8993
-62.9294 6.3707 -1.1040 0.7764
-82.6774 -11.6775 -1.4575 0.7160
-82.6529 -33.1583 -1.5545 0.7003
-19.2341 -22.5200 -0.5169 0.8883
-14.8332 -22.3340 -0.4680 0.8983
-12.0336 -23.9468 -0.4678 0.8983
-7.6759 -73.6480 -1.2925 0.7436
23.8267 -90.3082 -1.6303 0.6882
15.7467 -39.5898 -0.7437 0.8433
24.7099 -34.6291 -0.7426 0.8435
24.8934 -27.2425 -0.6441 0.8627
31.7552 -27.2846 -0.7308 0.8458
40.9034 -27.3409 -0.8588 0.8213
67.2018 0.9272 -1.1731 0.7642
21.3062 5.5540 -0.3843 0.9157
43.5229 17.1622 -0.8166 0.8293
31.8331 17.2341 -0.6318 0.8652
25.8725 23.5015 -0.6101 0.8695
5.4692 6.3274 -0.1460 0.9671
3.8086 5.6616 -0.1191 0.9731
2.8900 5.6672 -0.1110 0.9749
22.9067 62.5649 -1.1630 0.7660
1.3314 5.6768 -0.1018 0.9769
-0.7522 5.6896 -0.1002 0.9773
-2.2205 5.6803 -0.1065 0.9759
-3.0453 5.6650 -0.1123 0.9746
-5.0887 5.6354 -0.1325 0.9701
-6.5844 5.7254 -0.1523 0.9657
-15.6465 5.7811 -0.2912 0.9354
-24.1319 5.7350 -0.4330 0.9055
-31.0363 -0.2446 -0.5418 0.8832
-82.4821 -10.6565 -1.4517 0.7170
-71.1735 -49.8396 -1.5166 0.7064
-15.1958 -22.3029 -0.4711 0.8977
-12.3518 -23.8719 -0.4692 0.8981
-9.4664 -25.3892 -0.4730 0.8973
-7.5562 -31.3822 -0.5634 0.8789
-7.5754 -65.1939 -1.1456 0.7691
15.2056 -39.5865 -0.7402 0.8440
22.2011 -41.8911 -0.8275 0.8272
31.0003 -27.2800 -0.7208 0.8477
39.8651 -27.3345 -0.8437 0.8242
42.3332 -22.0630 -0.8333 0.8261
87.9655 -21.4556 -1.5805 0.6961
67.2131 0.1322 -1.1732 0.7642
42.6212 5.2504 -0.7496 0.8421
24.9843 9.5120 -0.4666 0.8986
25.3356 17.5190 -0.5377 0.8841
5.5282 6.2447 -0.1456 0.9672
17.0233 44.8452 -0.8373 0.8254
-2.1447 5.6838 -0.1060 0.9760
-2.9593 5.6645 -0.1116 0.9748
-3.8903 5.6618 -0.1199 0.9729
-4.9684 5.6349 -0.1311 0.9704
-6.4281 5.7245 -0.1502 0.9662
-10.7918 5.7059 -0.2131 0.9523
-15.0858 5.7777 -0.2820 0.9374
-23.0539 5.7678 -0.4148 0.9093
-64.1587 8.0326 -1.1286 0.7721
-64.2064 0.2535 -1.1207 0.7735
-45.0391 -10.8911 -0.8089 0.8308
-82.6725 -30.9166 -1.5406 0.7025
-67.4273 -34.9720 -1.3258 0.7380
-66.9897 -45.7386 -1.4159 0.7229
-12.6607 -23.7755 -0.4702 0.8978
21.8202 -91.4175 -1.6405 0.6866
19.9439 -53.8155 -1.0018 0.7948
21.5673 -41.8852 -0.8223 0.8282
24.6990 -36.4054 -0.7679 0.8386
38.8623 -27.3283 -0.8293 0.8269
42.1001 -22.5787 -0.8339 0.8260
71.5529 -27.8904 -1.3405 0.7355
40.1656 4.4663 -0.7054 0.8507
23.5199 5.5404 -0.4218 0.9079
45.3410 16.6510 -0.8431 0.8243
25.8657 22.4018 -0.5973 0.8721
3.0604 5.6662 -0.1124 0.9746
2.2141 5.6310 -0.1056 0.9761
1.4736 5.6759 -0.1024 0.9768
0.0729 5.6845 -0.0992 0.9775
-1.3233 5.6931 -0.1020 0.9769
-2.8742 5.6640 -0.1109 0.9749
-3.7956 5.6664 -0.1190 0.9731
-4.8507 5.6343 -0.1298 0.9707
-10.4978 5.7103 -0.2086 0.9533
-14.5594 5.7745 -0.2734 0.9393
-37.3650 5.1276 -0.6583 0.8599
-64.2017 1.0128 -1.1208 0.7735
-70.9900 -7.4691 -1.2460 0.7516
-20.8540 -22.7314 -0.5385 0.8839
-15.8688 -22.1461 -0.4756 0.8967
-7.9968 -30.0680 -0.5431 0.8830
21.1494 -93.4911 -1.6731 0.6815
16.6415 -46.5885 -0.8635 0.8204
20.9272 -41.8510 -0.8167 0.8293
24.6932 -37.3401 -0.7814 0.8360
24.7440 -29.0875 -0.6666 0.8583
42.0899 -23.2185 -0.8390 0.8251
69.1203 -27.8882 -1.3010 0.7422
87.7225 -23.6082 -1.5857 0.6953
4.1064 5.6597 -0.1221 0.9724
3.1473 5.6656 -0.1131 0.9744
2.3075 5.6708 -0.1069 0.9758
1.5454 5.6755 -0.1027 0.9767
0.8308 5.6799 -0.1002 0.9773
-1.2524 5.6927 -0.1017 0.9770
-1.9949 5.6908 -0.1053 0.9762
-2.7903 5.6636 -0.1102 0.9751
-3.7007 5.6686 -0.1182 0.9733
-4.7354 5.6338 -0.1285 0.9710
-6.1278 5.7226 -0.1463 0.9670
-7.8531 5.7333 -0.1697 0.9618
-21.1078 5.8147 -0.3822 0.9161
-34.4173 5.1385 -0.6074 0.8700
-64.4027 1.7782 -1.1246 0.7728
-77.6977 -7.2467 -1.3621 0.7318
-68.0975 -56.8953 -1.5489 0.7012
-21.6877 -23.0860 -0.5529 0.8810
-8.2041 -29.4412 -0.5335 0.8849
24.7396 -29.7893 -0.6759 0.8565
48.8219 16.6296 -0.9003 0.8136
5.7032 5.9994 -0.1445 0.9674
3.2352 5.6651 -0.1139 0.9742
2.3859 5.6703 -0.1074 0.9757
1.6176 5.6750 -0.1030 0.9767
0.2074 5.6837 -0.0993 0.9775
-0.4796 5.6879 -0.0996 0.9774
-1.1819 5.6922 -0.1015 0.9770
-3.6054 5.6681 -0.1173 0.9735
-5.9833 5.7217 -0.1445 0.9674
-7.6595 5.7321 -0.1670 0.9624
-20.1524 5.8088 -0.3661 0.9195
-36.6131 5.9100 -0.6474 0.8621
-64.1924 2.5325 -1.1213 0.7734
-57.5659 -11.7755 -1.0256 0.7905
-82.4764 -27.5493 -1.5178 0.7062
-66.1952 -31.4046 -1.2789 0.7459
-70.3401 -44.4513 -1.4524 0.7169
-31.1259 -25.3865 -0.7011 0.8516
-16.7309 -22.2197 -0.4855 0.8947
-13.5368 -23.3815 -0.4716 0.8976
-10.5638 -24.6960 -0.4688 0.8981
-7.5172 -45.7102 -0.8086 0.8308
29.9109 -90.4355 -1.6626 0.6831
20.0342 -42.5528 -0.8210 0.8285
26.3244 -41.9295 -0.8642 0.8203
28.1738 -27.2626 -0.6843 0.8548
40.7839 -23.7731 -0.8238 0.8279
64.3263 -27.7410 -1.2228 0.7556
87.9083 6.6280 -1.5388 0.7028
36.8223 17.2034 -0.7094 0.8499
26.8789 16.7646 -0.5529 0.8810
25.3535 20.4300 -0.5683 0.8779
3.3244 5.6646 -0.1146 0.9741
1.6903 5.6746 -0.1034 0.9766
0.2747 5.6833 -0.0993 0.9775
-2.6252 5.6626 -0.1089 0.9753
-3.5117 5.6676 -0.1164 0.9737
-4.5115 5.6328 -0.1260 0.9715
-5.8183 5.6972 -0.1421 0.9679
-7.4721 5.7309 -0.1644 0.9630
-9.7194 5.7428 -0.1971 0.9558
-6.4844 2.8421 -0.1236 0.9721
-33.9538 5.8937 -0.6015 0.8712
-64.3934 3.3038 -1.1255 0.7726
-82.4909 -15.8600 -1.4662 0.7146
-82.5571 -26.4954 -1.5134 0.7069
-23.0935 -23.4456 -0.5744 0.8766
-13.7619 -23.1348 -0.4699 0.8979
28.7268 -90.4282 -1.6562 0.6841
19.9498 -43.7078 -0.8386 0.8251
24.6959 -31.2102 -0.6947 0.8528
45.7035 -27.3704 -0.9299 0.8081
63.1183 -28.1101 -1.2060 0.7585
87.9019 5.5831 -1.5374 0.7030
17.4037 5.4721 -0.3184 0.9296
34.8918 15.8014 -0.6686 0.8579
27.5934 16.7602 -0.5635 0.8788
25.3505 19.9376 -0.5629 0.8790
5.8185 5.8377 -0.1439 0.9676
1.7635 5.6741 -0.1037 0.9765
1.0377 5.6786 -0.1008 0.9772
-0.3443 5.6871 -0.0994 0.9775
-18.9238 60.8136 -1.1117 0.7751
-2.5453 5.6650 -0.1084 0.9755
-3.4193 5.6671 -0.1155 0.9739
-9.4626 5.7431 -0.1932 0.9567
-12.5242 5.6667 -0.2399 0.9465
-18.4635 5.7984 -0.3378 0.9255
-31.6459 5.8795 -0.5618 0.8792
-82.6172 -14.8731 -1.4653 0.7147
-69.9332 -41.9131 -1.4231 0.7217
-14.3300 -18.1225 -0.4033 0.9117
-14.0607 -23.0132 -0.4707 0.8977
-11.1780 -24.5115 -0.4702 0.8978
-8.7315 -27.5181 -0.5039 0.8909
-5.4001 -81.6444 -1.4281 0.7208
27.5514 -90.4210 -1.6499 0.6851
16.0450 -36.2828 -0.6925 0.8532
24.7259 -32.0193 -0.7061 0.8506
26.8637 -27.2546 -0.6680 0.8580
34.3165 -27.3004 -0.7654 0.8391
60.0126 -27.5822 -1.1528 0.7678
40.1811 6.9885 -0.7119 0.8495
18.1616 5.4752 -0.3311 0.9269
28.3360 16.7557 -0.5746 0.8766
25.3475 19.4545 -0.5577 0.8800
3.5064 5.6634 -0.1163 0.9737
2.6258 5.6688 -0.1090 0.9753
1.8373 5.6737 -0.1041 0.9764
1.1071 5.6782 -0.1010 0.9771
0.4096 5.6825 -0.0994 0.9775
-0.9725 5.6910 -0.1008 0.9772
-3.3282 5.6666 -0.1147 0.9741
-4.3038 5.6420 -0.1239 0.9720
-9.2126 5.7416 -0.1895 0.9575
-12.1759 5.6836 -0.2345 0.9477
-28.9340 5.7305 -0.5149 0.8887
-82.6023 -13.8638 -1.4620 0.7153
-82.5568 -35.6360 -1.5695 0.6979
-69.6596 -40.6370 -1.4077 0.7242
-18.3156 -22.6081 -0.5079 0.8901
-11.4678 -24.3791 -0.4703 0.8978
-7.5480 -37.5288 -0.6682 0.8580
-7.7623 -99.4746 -1.7416 0.6709
15.5332 -36.2797 -0.6889 0.8539
33.4893 -27.2953 -0.7541 0.8413
59.0196 -27.9761 -1.1401 0.7701
83.6957 -27.9253 -1.5401 0.7026
42.6314 6.8962 -0.7538 0.8413
19.1023 5.5132 -0.3470 0.9235
29.1084 16.7509 -0.5862 0.8743
25.3446 18.9801 -0.5527 0.8810
3.5994 5.6629 -0.1171 0.9735
1.9115 5.6732 -0.1045 0.9763
1.1769 5.6777 -0.1012 0.9771
0.4772 5.6820 -0.0995 0.9774
-0.2094 5.6863 -0.0993 0.9775
-0.9033 5.6905 -0.1006 0.9772
-2.3890 5.6723 -0.1074 0.9757
-5.3620 5.6367 -0.1358 0.9694
-6.9431 5.7276 -0.1571 0.9646
-8.9720 5.7401 -0.1859 0.9583
-11.8430 5.6997 -0.2294 0.9488
-17.0162 5.7896 -0.3137 0.9306
-27.5123 5.7878 -0.4907 0.8936
-62.9350 5.4732 -1.1027 0.7767
-82.4821 -12.8425 -1.4571 0.7161
-66.9660 -18.8990 -1.2145 0.7570
-69.2000 -39.2793 -1.3889 0.7274
-18.5894 -22.3992 -0.5081 0.8901
-14.5753 -22.6341 -0.4699 0.8979
-11.6802 -24.0868 -0.4673 0.8984
-9.1658 -26.6802 -0.4924 0.8933
-7.4890 -35.0838 -0.6262 0.8663
-7.7339 -85.9850 -1.5069 0.7080
25.2009 -90.3166 -1.6367 0.6872
20.5902 -49.7079 -0.9391 0.8063
24.7161 -33.6216 -0.7284 0.8462
28.0354 -18.1711 -0.5832 0.8749
42.6282 6.3792 -0.7524 0.8416
41.8069 17.1727 -0.7889 0.8346
0.5449 5.6816 -0.0996 0.9774
-0.1421 5.6858 -0.0993 0.9775
-0.8343 5.6901 -0.1004 0.9773
-1.5527 5.6945 -0.1030 0.9767
-5.2359 5.6361 -0.1343 0.9697
-8.7403 5.7387 -0.1825 0.9590
-16.3669 5.7856 -0.3030 0.9329
-26.1184 5.8180 -0.4671 0.8985
-62.9303 6.2236 -1.1038 0.7765
-29.1026 -0.6412 -0.5081 0.8901
-65.2013 -17.5711 -1.1787 0.7633
-82.6619 -33.3845 -1.5561 0.7000
-68.5240 -37.8310 -1.3663 0.7311
-71.4131 -51.5280 -1.5371 0.7031
-28.5185 -26.3369 -0.6776 0.8562
25.3731 23.6016 -1.8161 0.8704
2.8063 5.6677 -0.3314 0.9750
1.9988 5.6659 -0.3149 0.9762
0.5582 5.6815 -0.2992 0.9774
-0.8208 5.6900 -0.3013 0.9772
-1.5385 5.6944 -0.3091 0.9767
-2.2968 5.6767 -0.3209 0.9758
-3.1242 5.6504 -0.3384 0.9745
-4.0727 5.6368 -0.3645 0.9725
-5.1782 5.6000 -0.3997 0.9699
-11.3854 5.6792 -0.6668 0.9503
-45.0390 4.5596 -2.3725 0.8342
-44.3886 -6.2695 -2.3494 0.8356
-44.3013 -17.7726 -2.5016 0.8260
-41.8413 -22.9734 -2.5016 0.8260
-28.7211 -26.4008 -2.0445 0.8553
-14.7858 -22.2626 -1.4006 0.8985
-11.8982 -23.6771 -1.3887 0.8993
-9.1272 -25.3931 -1.4141 0.8976
-7.5349 -33.0046 -1.7742 0.8732
-4.6471 -44.5877 -2.3494 0.8356
6.5359 -47.2838 -2.5016 0.8260
16.5682 -41.6551 -2.3494 0.8356
21.4594 -39.3592 -2.3494 0.8356
24.6059 -34.4833 -2.2201 0.8439
21.3062 5.5540 -1.1539 0.9156
19.7320 13.9921 -1.2677 0.9077
25.3696 23.0448 -1.7962 0.8717
2.8900 5.6672 -0.3334 0.9748
1.3314 5.6768 -0.3056 0.9769
0.6261 5.6811 -0.2995 0.9774
-0.0616 5.6854 -0.2980 0.9775
-0.7522 5.6896 -0.3008 0.9773
-5.0565 5.5998 -0.3954 0.9702
-8.4740 5.7371 -0.5363 0.9598
-23.7712 5.6493 -1.2805 0.9068
-45.0090 5.0951 -2.3739 0.8341
-31.0433 -0.2447 -1.6270 0.8831
