ply
format ascii 1.0
element vertex 1553
property float32 x
property float32 y
property float32 z
property float32 I
end_header
36.7156 17.2041 2.1249 0.8501
26.9139 16.8265 1.6635 0.8806
6.9657 5.6247 0.4692 0.9648
0.9646 5.6791 0.3019 0.9772
-0.4146 5.6810 0.2985 0.9774
-1.1126 5.6808 0.3034 0.9771
-1.8461 5.6860 0.3133 0.9763
-3.5287 5.6909 0.3509 0.9735
-4.5783 5.7131 0.3837 0.9711
-5.8450 5.7209 0.4286 0.9678
-7.4743 5.7309 0.4936 0.9630
-4.9106 2.9010 0.2989 0.9774
-13.1564 5.7658 0.7528 0.9441
-88.2296 4.5395 4.6300 0.7020
-20.5867 -34.5555 2.1080 0.8512
-8.4585 -19.1077 1.0951 0.9197
-10.7972 -35.3796 1.9386 0.8623
16.9421 -90.0447 4.8018 0.6928
27.4390 -27.2581 2.0270 0.8565
52.1396 -40.5951 3.4631 0.7675
52.1880 -31.3541 3.1904 0.7836
61.1190 -3.5991 3.2087 0.7825
61.0706 3.7744 3.2067 0.7826
57.7020 10.6355 3.0750 0.7906
52.1367 16.2888 2.8626 0.8035
27.7128 16.7594 1.6973 0.8783
4.4388 5.6577 0.3769 0.9716
3.4315 5.6639 0.3471 0.9738
1.0513 5.6785 0.3027 0.9771
0.3558 5.6828 0.2984 0.9775
-1.7531 5.6853 0.3118 0.9765
-2.5348 5.6815 0.3260 0.9754
-4.4401 5.7123 0.3792 0.9714
-7.2438 5.7267 0.4839 0.9637
-9.4000 5.7427 0.5773 0.9568
-18.2656 5.7972 1.0043 0.9261
-88.6927 -15.6682 4.7202 0.6971
-35.0459 -34.5020 2.5774 0.8212
-27.5214 -34.5481 2.3149 0.8378
-21.3062 -34.5861 2.1289 0.8498
-11.3208 -35.2156 1.9386 0.8623
-9.7992 -50.8179 2.7123 0.8128
16.4022 -54.6275 2.9892 0.7958
25.8111 -43.7729 2.6632 0.8158
34.2076 -44.6885 2.9494 0.7982
51.7374 -41.5290 3.4769 0.7666
60.2831 -28.0338 3.4842 0.7662
18.6999 5.5393 1.0221 0.9249
37.4228 16.1997 2.1371 0.8493
28.6546 16.7537 1.7396 0.8755
7.4241 5.6393 0.4886 0.9633
3.5469 5.6632 0.3502 0.9736
2.6617 5.6686 0.3282 0.9752
0.4405 5.6823 0.2987 0.9774
-0.9383 5.6797 0.3017 0.9772
-2.4340 5.6806 0.3239 0.9755
-3.2977 5.6887 0.3446 0.9740
-7.0132 5.7155 0.4741 0.9644
-9.0910 5.7408 0.5635 0.9578
-17.3510 5.7916 0.9586 0.9294
-28.6761 5.8612 1.5339 0.8894
-65.5147 -18.8792 3.5732 0.7610
-17.9851 -28.2480 1.7550 0.8745
-11.7911 -34.8936 1.9303 0.8628
16.2500 -57.1869 3.1157 0.7881
18.5630 -44.2254 2.5136 0.8252
24.9406 -43.7676 2.6400 0.8173
26.3347 -27.7610 2.0054 0.8579
44.9324 -21.7115 2.6153 0.8188
61.1813 -12.9783 3.2777 0.7784
61.1310 -5.4233 3.2163 0.7821
38.9765 16.1901 2.2119 0.8445
5.9984 5.6481 0.4318 0.9675
6.5640 10.1427 0.6332 0.9528
1.9640 5.6729 0.3146 0.9762
1.2264 5.6775 0.3044 0.9770
-0.1611 5.6822 0.2979 0.9775
-1.5697 5.6840 0.3090 0.9767
-2.3348 5.6803 0.3219 0.9757
-3.1854 5.6876 0.3416 0.9742
-17.5026 23.9512 1.5547 0.8880
-5.3440 5.7178 0.4102 0.9691
-6.7989 5.7107 0.4653 0.9651
-26.5966 5.8484 1.4272 0.8967
-27.5208 -0.6783 1.4427 0.8956
-29.2289 -34.5377 2.3712 0.8342
-22.7423 -34.5768 2.1689 0.8472
-15.5159 -31.2190 1.8270 0.8697
-9.7601 -43.6139 2.3422 0.8361
-8.7451 -87.5020 4.6086 0.7031
17.7420 -44.0909 2.4908 0.8267
24.4156 -44.3634 2.6538 0.8164
32.0007 -27.2862 2.2040 0.8450
44.5232 -22.3343 2.6105 0.8191
61.2417 -21.9677 3.4098 0.7706
61.1876 -13.9314 3.2888 0.7777
61.1371 -6.3394 3.2212 0.7818
61.0884 1.0523 3.2020 0.7829
44.5034 6.1703 2.3546 0.8353
21.0272 5.5557 1.1398 0.9166
30.6879 16.7412 1.8320 0.8693
26.9287 19.2226 1.7339 0.8759
6.1783 5.6470 0.4387 0.9670
3.7732 5.6450 0.3558 0.9732
2.8693 5.6673 0.3329 0.9749
2.0585 5.6723 0.3162 0.9761
-0.0769 5.6855 0.2980 0.9775
-0.7659 5.6785 0.3003 0.9773
-1.4791 5.6834 0.3078 0.9768
-2.2387 5.6848 0.3202 0.9758
-6.6050 5.7171 0.4578 0.9656
-8.5150 5.7373 0.5381 0.9597
-29.4461 -0.2888 1.5433 0.8887
-23.4816 -34.5727 2.1903 0.8459
-12.8761 -34.6771 1.9386 0.8623
-7.5546 -65.7230 3.4671 0.7672
14.5161 -57.5228 3.1091 0.7885
23.9287 -45.0477 2.6732 0.8152
31.4733 -45.1440 2.8841 0.8022
26.3243 -29.4527 2.0702 0.8537
31.0487 -27.2803 2.1661 0.8474
52.1695 -35.7169 3.3135 0.7763
44.9234 -23.3756 2.6540 0.8164
61.2487 -23.0014 3.4288 0.7695
61.1432 -7.2582 3.2269 0.7814
61.0943 0.1461 3.2018 0.7829
22.5351 2.7844 1.1900 0.9131
-28.1493 -34.1493 0.7725 0.8377
-18.1600 -28.4046 0.5885 0.8738
-12.4168 -36.5188 0.6733 0.8570
-3.6182 -41.6479 0.7297 0.8460
24.4358 -86.6134 1.5708 0.6977
22.1520 -53.0555 1.0036 0.7945
23.8946 -42.1159 0.8452 0.8239
46.1762 -22.4197 0.8960 0.8144
80.5113 -27.7082 1.4862 0.7113
42.3443 6.4311 0.7476 0.8425
41.5662 17.1742 0.7850 0.8353
29.8595 16.7949 0.5980 0.8719
6.0209 5.6480 0.1441 0.9675
6.3386 9.7542 0.2031 0.9545
2.7779 5.6679 0.1102 0.9751
1.9759 5.6728 0.1049 0.9763
1.2375 5.6774 0.1014 0.9770
-2.3168 5.6668 0.1069 0.9758
-3.1541 5.6566 0.1130 0.9744
-17.4334 23.9507 0.5171 0.8882
-5.3238 5.7177 0.1364 0.9692
-6.7920 5.7267 0.1551 0.9651
-8.7306 5.7196 0.1822 0.9591
-11.5689 5.7234 0.2253 0.9497
-16.4152 5.7859 0.3038 0.9327
-26.2751 5.8295 0.4698 0.8979
-63.5961 -17.1806 1.1499 0.7683
-88.5598 -35.8243 1.6675 0.6824
-29.0061 -34.1440 0.7820 0.8359
-12.1928 -34.1877 0.6336 0.8648
-9.3878 -41.5834 0.7441 0.8432
-8.8785 -87.1805 1.5296 0.7043
24.0622 -90.3996 1.6329 0.6878
23.0714 -42.1082 0.8381 0.8252
26.2733 -36.6638 0.7873 0.8349
26.3289 -28.7007 0.6798 0.8557
41.0681 -27.3419 0.8612 0.8209
76.7258 -27.6849 1.4238 0.7216
46.3981 6.3442 0.8174 0.8292
30.8240 16.7403 0.6123 0.8691
6.2015 5.6469 0.1464 0.9670
4.8767 5.6550 0.1303 0.9706
3.7823 5.6357 0.1185 0.9732
2.0705 5.6722 0.1054 0.9761
1.3259 5.6768 0.1018 0.9769
0.6212 5.6812 0.0998 0.9774
-0.7532 5.6651 0.0998 0.9774
-3.0445 5.6558 0.1121 0.9746
-5.1668 5.7167 0.1345 0.9696
-6.5896 5.7255 0.1524 0.9657
-11.1428 5.7199 0.2186 0.9511
-29.4434 -0.2334 0.5140 0.8889
-65.2337 -45.6568 1.3898 0.7272
-29.8846 -34.1387 0.7920 0.8340
-9.3709 -38.8185 0.6970 0.8523
23.4782 -93.7802 1.6874 0.6793
22.1233 -57.7474 1.0794 0.7808
23.8464 -45.0974 0.8904 0.8154
26.2585 -37.8154 0.8036 0.8318
26.3236 -29.5634 0.6909 0.8535
30.9306 -27.2796 0.7199 0.8479
39.7646 -27.3339 0.8423 0.8244
45.2714 17.1514 0.8450 0.8239
26.9948 18.5968 0.5722 0.8771
1.4149 5.6763 0.1021 0.9769
0.7065 5.6806 0.0999 0.9774
0.0182 5.6849 0.0992 0.9775
-0.6683 5.6691 0.0996 0.9774
-1.3747 5.6690 0.1018 0.9769
-2.1256 5.6739 0.1058 0.9761
-5.0139 5.7158 0.1327 0.9700
-81.7730 -9.3329 1.4366 0.7195
-65.1842 -15.5506 1.1697 0.7648
-71.5787 -36.8359 1.4051 0.7247
-12.7545 -18.1198 0.3868 0.9152
-11.1697 -43.4354 0.7828 0.8358
33.1224 -90.4517 1.6814 0.6802
23.3000 -45.6914 0.8953 0.8145
30.0148 -27.2739 0.7079 0.8502
69.9030 -27.5930 1.3118 0.7403
23.9990 5.5375 0.4299 0.9062
46.7329 16.9167 0.8675 0.8197
26.6105 13.4456 0.5204 0.8876
26.9912 18.0099 0.5664 0.8783
7.1710 6.1506 0.1649 0.9629
3.0969 5.6659 0.1127 0.9745
0.7922 5.6801 0.1001 0.9773
-0.5836 5.6731 0.0995 0.9774
-2.8307 5.6542 0.1104 0.9750
-4.8650 5.7149 0.1310 0.9704
-6.2051 5.7231 0.1473 0.9668
-7.9542 5.7324 0.1711 0.9615
-7.3600 2.9685 0.1385 0.9687
-21.6039 5.8126 0.3905 0.9144
-70.6005 -35.0180 1.3756 0.7296
-31.7166 -34.1331 0.8133 0.8299
-11.6906 -42.8175 0.7747 0.8373
-9.7709 -66.4520 1.1724 0.7644
22.2006 -45.1791 0.8787 0.8176
27.4511 -42.1490 0.8780 0.8177
26.3125 -31.3776 0.7148 0.8489
48.1713 16.6336 0.8895 0.8156
35.3587 17.2124 0.6864 0.8544
26.6210 17.1977 0.5532 0.8809
7.2526 6.0362 0.1647 0.9630
3.2065 5.6653 0.1136 0.9743
1.5948 5.6752 0.1029 0.9767
0.1868 5.6838 0.0993 0.9775
-0.4991 5.6770 0.0995 0.9775
-1.1976 5.6679 0.1011 0.9771
-3.6268 5.6601 0.1173 0.9735
-4.7199 5.7140 0.1294 0.9708
-6.0222 5.7220 0.1450 0.9673
-4.9135 2.8052 0.0988 0.9776
-13.7141 5.7693 0.2597 0.9422
-20.3616 5.8036 0.3696 0.9188
-32.6869 -34.1473 0.8251 0.8277
-19.8976 -34.5546 0.6960 0.8526
-11.6757 -40.3953 0.7340 0.8452
-10.7793 -66.4458 1.1750 0.7639
16.7717 -50.3812 0.9268 0.8086
22.1901 -46.9032 0.9057 0.8125
26.5640 -42.1407 0.8695 0.8193
36.1594 -27.3015 0.7909 0.8342
47.1420 -27.3792 0.9516 0.8040
64.1718 -27.5577 1.2190 0.7562
82.6868 6.3428 1.4475 0.7177
50.5469 16.6189 0.9288 0.8083
5.4904 5.6512 0.1375 0.9690
3.3180 5.6646 0.1146 0.9741
-1.1099 5.6673 0.1008 0.9772
-1.8416 5.6720 0.1041 0.9764
-3.5090 5.6592 0.1162 0.9737
-5.8450 5.7209 0.1428 0.9678
-7.4743 5.7309 0.1644 0.9630
-4.9105 2.9009 0.0996 0.9774
-33.9360 5.8935 0.6012 0.8713
-88.2317 4.5396 1.5421 0.7023
-65.0450 -20.8522 1.1923 0.7609
-71.1083 -32.6786 1.3660 0.7312
-22.7290 -38.1514 0.7752 0.8372
-11.6624 -38.2146 0.6974 0.8523
28.5997 -90.3627 1.6544 0.6844
25.6936 -42.1326 0.8614 0.8208
26.3005 -33.3229 0.7410 0.8438
27.4390 -27.2581 0.6751 0.8566
35.0701 -27.3050 0.7758 0.8371
45.5557 -27.3695 0.9276 0.8085
82.6792 5.1099 1.4459 0.7179
57.3721 10.5746 1.0183 0.7918
7.4152 5.8081 0.1644 0.9630
5.6547 5.6502 0.1395 0.9685
4.4388 5.6577 0.1255 0.9716
3.4315 5.6639 0.1156 0.9739
0.3558 5.6828 0.0994 0.9775
-0.3301 5.6838 0.0994 0.9775
-1.0228 5.6668 0.1005 0.9772
-1.7488 5.6714 0.1036 0.9765
-3.3933 5.6583 0.1152 0.9739
-4.4401 5.7123 0.1263 0.9715
-5.6730 5.7198 0.1406 0.9683
-7.2473 5.7295 0.1613 0.9637
-12.6360 5.7626 0.2424 0.9460
-88.4377 -15.6231 1.5676 0.6982
-65.0929 -19.8079 1.1876 0.7617
-73.2161 -32.3406 1.3971 0.7260
-29.0278 -36.4391 0.8132 0.8300
-23.6010 -38.3111 0.7854 0.8353
-15.7347 -34.1660 0.6566 0.8603
-11.7410 -36.5229 0.6696 0.8577
-9.7991 -50.8176 0.9034 0.8130
26.2942 -34.3506 0.7551 0.8411
26.6320 -27.2532 0.6651 0.8586
34.0088 -27.2985 0.7612 0.8399
44.0469 -27.3602 0.9051 0.8127
45.9668 -21.3763 0.8849 0.8164
85.1886 -27.7345 1.5638 0.6988
62.3819 10.5439 1.1043 0.7764
18.6999 5.5393 0.3404 0.9249
39.7006 17.1857 0.7551 0.8411
28.7732 16.8230 0.5818 0.8752
9.0745 6.8930 0.1989 0.9554
1.8704 5.6735 0.1043 0.9764
1.1386 5.6780 0.1011 0.9771
0.4405 5.6823 0.0995 0.9775
-2.6810 62.0471 1.0840 0.7800
-0.9361 5.6662 0.1002 0.9773
-1.6569 5.6708 0.1031 0.9766
-4.3051 5.7114 0.1248 0.9718
-65.1404 -18.7713 1.1833 0.7625
-17.9777 -28.2363 0.5843 0.8747
-7.7678 -91.4065 1.6012 0.6928
25.6904 -90.4096 1.6406 0.6866
22.1537 -52.7802 0.9991 0.7953
23.9999 -42.1168 0.8461 0.8237
26.3347 -27.7610 0.6679 0.8581
81.0152 -27.7113 1.4946 0.7100
42.3954 6.5205 0.7487 0.8423
41.3488 17.1755 0.7815 0.8360
29.7678 16.8169 0.5968 0.8722
9.1082 6.7079 0.1974 0.9558
5.9984 5.6481 0.1438 0.9676
6.3388 9.7948 0.2036 0.9544
2.7648 5.6680 0.1101 0.9751
1.9640 5.6729 0.1048 0.9763
0.5253 5.6818 0.0996 0.9774
-0.8499 5.6657 0.1000 0.9773
-3.1681 5.6567 0.1132 0.9744
-17.5026 23.9511 0.5178 0.8881
-6.8181 5.7269 0.1554 0.9650
-11.6247 5.7239 0.2262 0.9495
-26.5385 5.8357 0.4743 0.8970
-63.6029 -17.3108 1.1506 0.7682
-88.5683 -36.0216 1.6689 0.6821
-28.8964 -34.1447 0.7808 0.8361
-12.1206 -34.1881 0.6331 0.8649
-9.3901 -41.9608 0.7505 0.8420
22.1400 -55.0204 1.0352 0.7888
23.1750 -42.1091 0.8390 0.8251
42.5724 -21.3557 0.8314 0.8265
77.1883 -27.6878 1.4314 0.7203
46.3987 6.4330 0.8176 0.8291
6.1783 5.6470 0.1461 0.9671
2.0585 5.6723 0.1053 0.9761
1.3147 5.6769 0.1017 0.9770
-0.0769 5.6855 0.0992 0.9775
-1.4756 5.6697 0.1023 0.9768
-2.2332 5.6708 0.1064 0.9759
-5.1864 5.7168 0.1347 0.9696
-6.6149 5.7256 0.1527 0.9656
-15.7498 5.7818 0.2929 0.9351
-29.7720 -34.1393 0.7907 0.8343
-12.6932 -34.1846 0.6365 0.8643
23.4827 -93.0547 1.6752 0.6812
23.9554 -45.0981 0.8914 0.8152
26.2572 -37.6622 0.8014 0.8322
26.3243 -29.4527 0.6895 0.8538
39.9264 -27.3349 0.8446 0.8240
73.5345 -27.6153 1.3711 0.7303
22.5316 2.7840 0.3963 0.9132
22.3155 5.5434 0.4014 0.9121
45.0201 17.1530 0.8409 0.8247
31.7881 16.7344 0.6271 0.8661
-70.0238 -52.1708 -1.5242 0.7052
-18.8196 -22.8310 -0.5164 0.8884
-14.2038 -22.2167 -0.4603 0.8999
-6.4267 -30.5713 -0.5453 0.8825
-3.6176 -41.6407 -0.7296 0.8460
25.4811 -90.3183 -1.6380 0.6870
16.5121 -39.5476 -0.7481 0.8424
23.7725 -41.9007 -0.8409 0.8247
26.2868 -35.5567 -0.7718 0.8379
32.8596 -27.2914 -0.7456 0.8429
42.4319 -27.3503 -0.8812 0.8171
43.9880 -21.3573 -0.8535 0.8223
80.7538 -27.7917 -1.4907 0.7106
44.2129 6.7149 -0.7806 0.8362
19.6249 5.4582 -0.3556 0.9217
37.7328 15.5903 -0.7126 0.8493
4.7330 5.6559 -0.1287 0.9709
21.6791 33.3612 -0.6945 0.8529
2.7779 5.6679 -0.1102 0.9751
1.9759 5.6728 -0.1049 0.9763
1.2375 5.6774 -0.1014 0.9770
-0.1502 5.6710 -0.0990 0.9776
-1.5506 5.6565 -0.1024 0.9768
-2.3111 5.6528 -0.1066 0.9759
-3.1371 5.6261 -0.1124 0.9746
-17.4333 23.9507 -0.5171 0.8882
-5.3238 5.7177 -0.1364 0.9692
-11.4453 5.6623 -0.2229 0.9502
-16.4152 5.7859 -0.3038 0.9327
-26.0295 5.7750 -0.4654 0.8988
-27.5447 -0.6271 -0.4809 0.8956
-69.6901 -50.3321 -1.5005 0.7090
-19.4672 -22.9155 -0.5248 0.8867
-6.6363 -29.3954 -0.5260 0.8864
-5.9675 -58.5961 -1.0281 0.7901
23.2542 -87.3637 -1.5780 0.6965
21.5153 -53.7598 -1.0107 0.7932
26.2800 -36.6731 -0.7875 0.8349
42.3766 -21.3574 -0.8283 0.8271
76.7258 -27.6849 -1.4238 0.7216
90.9142 -20.8793 -1.6282 0.6885
68.8003 1.0558 -1.2010 0.7594
44.2087 6.0449 -0.7788 0.8365
20.9740 5.4996 -0.3785 0.9169
30.8240 16.7403 -0.6123 0.8691
26.9282 19.1460 -0.5767 0.8762
3.7823 5.6357 -0.1185 0.9732
2.0705 5.6722 -0.1054 0.9761
1.3259 5.6768 -0.1018 0.9769
0.6212 5.6812 -0.0998 0.9774
-0.7532 5.6651 -0.0998 0.9774
-1.4606 5.6559 -0.1020 0.9769
-3.9717 5.6302 -0.1203 0.9728
-15.6573 5.7812 -0.2913 0.9354
-29.4501 -0.2335 -0.5141 0.8889
-81.0941 -10.4762 -1.4273 0.7210
-81.0572 -31.3985 -1.5173 0.7063
-66.0039 -35.2150 -1.3058 0.7413
-65.3407 -45.7316 -1.3921 0.7268
-15.1553 -22.2237 -0.4695 0.8980
-12.0197 -23.2032 -0.4561 0.9007
-9.2195 -24.6872 -0.4600 0.8999
23.3904 -93.4295 -1.6811 0.6802
17.9660 -46.8958 -0.8766 0.8180
26.2728 -37.8361 -0.8040 0.8317
26.3236 -29.5634 -0.6909 0.8535
30.9306 -27.2796 -0.7199 0.8479
43.6736 -22.8296 -0.8602 0.8211
89.3155 -21.9118 -1.6052 0.6922
22.5601 2.7445 -0.3967 0.9131
22.4289 5.5269 -0.4032 0.9117
45.2714 17.1514 -0.8450 0.8239
31.9318 16.7335 -0.6293 0.8657
26.9245 18.5484 -0.5707 0.8774
3.9222 5.6609 -0.1202 0.9728
2.9889 5.6666 -0.1118 0.9747
-1.3714 5.6554 -0.1016 0.9770
-2.9212 5.6250 -0.1106 0.9750
-3.8475 5.6296 -0.1190 0.9731
-5.0139 5.7158 -0.1327 0.9700
-8.1668 5.7035 -0.1739 0.9609
-10.6581 5.6724 -0.2107 0.9528
-88.3765 11.3249 -1.5552 0.7002
-66.2579 -7.5622 -1.1640 0.7658
-80.9950 -30.0005 -1.5076 0.7078
-65.5451 -33.7309 -1.2867 0.7446
-20.7832 -23.0429 -0.5416 0.8833
-9.6370 -24.6816 -0.4625 0.8994
-7.0659 -27.4770 -0.4952 0.8927
22.4942 -95.8631 -1.7187 0.6744
26.3182 -30.4550 -0.7026 0.8513
43.7137 -23.6826 -0.8678 0.8196
69.8956 -27.5901 -1.3116 0.7404
89.3069 -23.3194 -1.6111 0.6912
26.6105 13.4456 -0.5204 0.8876
7.1710 6.1506 -0.1649 0.9629
5.1754 5.6532 -0.1338 0.9698
4.0473 5.6601 -0.1215 0.9725
2.2629 5.6711 -0.1066 0.9759
1.5045 5.6757 -0.1025 0.9768
0.7922 5.6801 -0.1001 0.9773
-1.2827 5.6549 -0.1012 0.9771
-2.0249 5.6592 -0.1049 0.9762
-2.8178 5.6286 -0.1099 0.9751
-3.7259 5.6290 -0.1178 0.9734
-4.8650 5.7149 -0.1310 0.9704
-6.2051 5.7231 -0.1473 0.9668
-7.9542 5.7324 -0.1711 0.9615
-5.0089 2.7619 -0.0998 0.9774
-21.4065 5.7595 -0.3869 0.9151
-35.8335 5.1332 -0.6319 0.8652
-75.1222 -7.4468 -1.3177 0.7393
-54.8584 -12.2302 -0.9811 0.7986
-81.1743 -28.7051 -1.5029 0.7086
-64.8950 -32.1880 -1.2644 0.7484
-68.8488 -45.2050 -1.4376 0.7193
-21.9971 -23.6732 -0.5641 0.8787
-16.3761 -22.5468 -0.4864 0.8945
-12.7149 -22.8585 -0.4566 0.9006
-7.3117 -26.7797 -0.4845 0.8949
-5.9306 -40.3339 -0.7116 0.8495
31.6070 -90.4459 -1.6724 0.6816
17.8125 -36.2492 -0.7050 0.8508
26.3125 -31.3776 -0.7148 0.8489
29.1287 -27.2685 -0.6965 0.8525
37.3209 -27.3188 -0.8073 0.8311
42.3599 -23.7687 -0.8478 0.8234
67.0557 -27.6255 -1.2659 0.7482
25.6874 5.5271 -0.4586 0.9002
35.3587 17.2124 -0.6864 0.8544
26.6210 17.1977 -0.5532 0.8809
5.3307 5.6522 -0.1356 0.9694
1.5948 5.6752 -0.1029 0.9767
-1.1947 5.6544 -0.1009 0.9771
-2.7165 5.6334 -0.1092 0.9753
-3.6066 5.6284 -0.1167 0.9736
-4.7199 5.7140 -0.1294 0.9708
-6.0222 5.7220 -0.1450 0.9673
-7.7105 5.7324 -0.1677 0.9623
-4.9135 2.8052 -0.0988 0.9776
-13.7141 5.7693 -0.2597 0.9422
-62.6113 2.2908 -1.0936 0.7783
-81.0818 -16.8181 -1.4454 0.7180
-81.1601 -27.3527 -1.4949 0.7099
-57.9757 -27.6923 -1.1215 0.7733
-65.9768 -54.0881 -1.4892 0.7108
-13.0308 -22.6295 -0.4558 0.9008
-10.2672 -24.1552 -0.4581 0.9003
18.5580 -91.1698 -1.6240 0.6892
16.7682 -50.3708 -0.9265 0.8087
17.1689 -36.2897 -0.7007 0.8516
26.4283 -41.9255 -0.8651 0.8201
47.1420 -27.3792 -0.9516 0.8040
64.6375 -27.7577 -1.2279 0.7547
55.2595 11.0352 -0.9836 0.7982
50.5469 16.6190 -0.9288 0.8083
36.7130 17.2029 -0.7077 0.8503
26.9139 16.8265 -0.5540 0.8807
7.3340 5.9220 -0.1645 0.9630
4.3054 5.6585 -0.1241 0.9720
3.3180 5.6646 -0.1146 0.9741
2.4598 5.6699 -0.1079 0.9756
1.6859 5.6746 -0.1033 0.9766
0.9646 5.6791 -0.1005 0.9772
-0.4146 5.6810 -0.0994 0.9775
-1.1073 5.6539 -0.1006 0.9772
-1.8371 5.6581 -0.1038 0.9765
-3.4896 5.6279 -0.1156 0.9739
-5.8450 5.7209 -0.1428 0.9678
-7.4743 5.7309 -0.1644 0.9630
-4.9104 2.9009 -0.0996 0.9774
-19.2719 5.8034 -0.3513 0.9226
-62.6056 3.2211 -1.0942 0.7782
-81.0601 -15.5630 -1.4407 0.7188
-63.6045 -29.2301 -1.2218 0.7558
-68.3029 -42.0011 -1.3996 0.7256
-24.6509 -24.9991 -0.6128 0.8690
-17.6132 -22.7960 -0.5028 0.8911
-13.3604 -22.4260 -0.4556 0.9008
18.0784 -57.1200 -1.0458 0.7869
25.5624 -41.9174 -0.8570 0.8217
27.4390 -27.2581 -0.6751 0.8566
35.0700 -27.3050 -0.7758 0.8371
57.3721 10.5746 -1.0183 0.7918
7.4152 5.8081 -0.1644 0.9630
5.6547 5.6502 -0.1395 0.9685
4.4388 5.6577 -0.1255 0.9716
3.4315 5.6639 -0.1156 0.9739
2.5601 5.6692 -0.1086 0.9754
1.7777 5.6741 -0.1038 0.9765
0.3558 5.6828 -0.0994 0.9775
-1.0204 5.6533 -0.1003 0.9773
-2.5176 5.6430 -0.1079 0.9756
-4.4401 5.7123 -0.1263 0.9715
-5.6730 5.7198 -0.1406 0.9683
-12.6360 5.7626 -0.2424 0.9460
-18.2656 5.7972 -0.3345 0.9262
-95.2385 -5.1772 -1.6648 0.6828
-65.2973 -19.8701 -1.1914 0.7610
-26.1520 -25.7462 -0.6406 0.8635
-13.7147 -22.2629 -0.4564 0.9007
-6.1723 -88.1006 -1.5416 0.7024
16.5596 -95.8105 -1.6972 0.6777
27.1216 -90.3284 -1.6462 0.6857
26.2942 -34.3506 -0.7551 0.8411
34.0088 -27.2985 -0.7612 0.8399
44.0469 -27.3602 -0.9051 0.8127
85.7531 -27.9182 -1.5741 0.6971
62.3819 10.5439 -1.1043 0.7764
18.6999 5.5393 -0.3404 0.9249
28.6547 16.7537 -0.5794 0.8756
26.9363 20.4610 -0.5904 0.8734
5.8240 5.6492 -0.1416 0.9681
2.6617 5.6686 -0.1093 0.9753
1.8704 5.6735 -0.1043 0.9764
1.1386 5.6780 -0.1011 0.9771
0.4405 5.6823 -0.0995 0.9775
-2.6809 62.0471 -1.0840 0.7800
-1.6529 5.6571 -0.1029 0.9767
-9.0211 5.6968 -0.1862 0.9582
-28.6761 5.8612 -0.5109 0.8895
-70.0184 -52.3717 -1.5262 0.7048
-30.3711 -29.0255 -0.7333 0.8453
-18.5810 -22.6281 -0.5111 0.8895
-14.1176 -22.1736 -0.4588 0.9002
-12.3404 -36.5192 -0.6729 0.8571
-6.3506 -30.4940 -0.5437 0.8828
-6.2222 -73.2181 -1.2826 0.7453
16.6047 -39.5599 -0.7489 0.8423
23.8773 -41.9017 -0.8418 0.8245
26.2877 -35.4183 -0.7699 0.8382
42.6094 -27.3513 -0.8838 0.8166
57.0440 -27.5639 -1.1059 0.7761
81.0151 -27.7113 -1.4946 0.7100
37.5573 15.6006 -0.7099 0.8498
26.9325 19.8348 -0.5838 0.8748
21.5905 33.3617 -0.6936 0.8530
2.7648 5.6680 -0.1101 0.9751
1.9640 5.6729 -0.1048 0.9763
0.5253 5.6818 -0.0996 0.9774
-0.1611 5.6822 -0.0992 0.9775
-17.5026 23.9511 -0.5178 0.8881
-6.8181 5.7269 -0.1554 0.9650
-8.7493 5.7083 -0.1823 0.9591
-11.5001 5.6625 -0.2237 0.9500
-16.5159 5.7865 -0.3055 0.9324
-26.2206 5.7658 -0.4686 0.8982
-61.3523 5.9020 -1.0758 0.7815
-27.5123 -0.6781 -0.4804 0.8957
-80.9927 -11.8424 -1.4288 0.7207
-66.5029 -36.9221 -1.3277 0.7376
-69.7678 -50.5881 -1.5042 0.7084
-14.4912 -22.0321 -0.4603 0.8999
-11.5888 -23.3175 -0.4545 0.9011
-8.8344 -24.9188 -0.4615 0.8996
-6.5864 -29.4320 -0.5264 0.8863
-6.0023 -60.0581 -1.0535 0.7855
23.3933 -87.2262 -1.5763 0.6968
21.5291 -53.5023 -1.0067 0.7940
26.2808 -36.5290 -0.7855 0.8352
32.0007 -27.2862 -0.7341 0.8451
90.8665 -20.6888 -1.6267 0.6888
68.8536 1.1860 -1.2020 0.7592
30.6879 16.7412 -0.6102 0.8695
26.9287 19.2226 -0.5775 0.8760
6.1783 5.6470 -0.1461 0.9671
4.8583 5.6551 -0.1301 0.9706
3.7732 5.6450 -0.1185 0.9732
1.3147 5.6769 -0.1017 0.9770
0.6104 5.6812 -0.0997 0.9774
-0.0769 5.6855 -0.0992 0.9775
-1.4720 5.6560 -0.1020 0.9769
-3.0419 5.6256 -0.1116 0.9747
-6.6149 5.7256 -0.1527 0.9656
-11.0789 5.6608 -0.2172 0.9514
-15.7498 5.7818 -0.2929 0.9351
-29.4594 -0.2890 -0.5142 0.8888
-46.1703 -11.8336 -0.8319 0.8264
-65.9983 -35.3716 -1.3070 0.7411
-65.1062 -45.7501 -1.3889 0.7274
-20.1040 -23.0532 -0.5339 0.8848
-12.0523 -23.3735 -0.4590 0.9001
-9.1903 -24.7507 -0.4608 0.8998
-5.9753 -51.9839 -0.9134 0.8111
26.3243 -29.4527 -0.6895 0.8538
31.0487 -27.2803 -0.7214 0.8476
68.7850 0.1644 -1.2006 0.7594
22.3020 5.5400 -0.4011 0.9122
45.0201 17.1530 -0.8409 0.8247
31.7881 16.7344 -0.6270 0.8661
-38.2754 -28.5169 -2.5015 0.8260
-32.4651 -30.9101 -2.3493 0.8356
-14.0719 -22.0104 -1.3691 0.9006
-8.4379 -24.8166 -1.3737 0.9003
-6.3416 -30.1663 -1.6155 0.8838
-3.6080 -41.5300 -2.1847 0.8462
7.3419 -47.1627 -2.5015 0.8260
16.5121 -39.5476 -2.2460 0.8423
26.1828 -35.4160 -2.3082 0.8383
26.4382 -27.9753 -2.0173 0.8571
30.7679 -25.5542 -2.0961 0.8520
45.1327 -15.5326 -2.5015 0.8260
47.6100 1.4373 -2.4963 0.8263
42.0284 6.3831 -2.2279 0.8434
19.3885 5.3925 -1.0547 0.9226
21.3083 11.9851 -1.2812 0.9067
26.6306 19.5355 -1.7309 0.8761
1.9759 5.6728 -0.3148 0.9762
1.2375 5.6774 -0.3045 0.9770
-0.1502 5.6710 -0.2973 0.9775
-0.8383 5.6611 -0.2999 0.9773
-1.5469 5.6428 -0.3066 0.9768
-2.3054 5.6389 -0.3193 0.9759
-5.3238 5.7177 -0.4094 0.9692
-16.4152 5.7859 -0.9122 0.9327
-45.0893 4.4231 -2.3744 0.8340
-27.5359 -0.6269 -1.4435 0.8955
-44.2475 -17.8991 -2.5015 0.8260
-11.6259 -23.2822 -1.3638 0.9010
0.9094 -47.7220 -2.5015 0.8260
6.6416 -47.2664 -2.5015 0.8260
12.2773 -46.1247 -2.5015 0.8260
16.6558 -41.6174 -2.3493 0.8356
21.5396 -39.3125 -2.3493 0.8356
24.0010 -33.4929 -2.1594 0.8479
26.2919 -28.6602 -2.0383 0.8557
31.7548 -27.1798 -2.1906 0.8458
37.3134 -24.8421 -2.3493 0.8356
40.0300 -20.1747 -2.3493 0.8356
46.5197 -10.6837 -2.5015 0.8260
47.4668 -5.0120 -2.5015 0.8260
42.0245 5.7462 -2.2229 0.8438
21.3694 15.1937 -1.3741 0.9003
4.8767 5.6550 -0.3913 0.9705
2.8826 5.6673 -0.3332 0.9749
1.3259 5.6768 -0.3055 0.9769
0.6212 5.6812 -0.2995 0.9774
-1.4571 5.6423 -0.3054 0.9769
-3.0168 5.6042 -0.3336 0.9748
-3.9489 5.5979 -0.3590 0.9729
-15.6573 5.7812 -0.8747 0.9353
-23.3979 5.5566 -1.2603 0.9082
-43.3664 -11.0280 -2.3451 0.8359
-44.5082 -17.2408 -2.5015 0.8260
-19.9012 -22.7341 -1.5835 0.8860
-15.0875 -22.1243 -1.4034 0.8983
-11.9184 -23.0077 -1.3580 0.9014
-9.0947 -24.3530 -1.3624 0.9011
-3.3497 -28.6661 -1.5125 0.8908
0.2015 -47.7303 -2.5015 0.8260
16.1466 -42.1467 -2.3654 0.8346
25.5674 -36.8202 -2.3493 0.8356
26.2195 -29.4465 -2.0663 0.8539
29.2868 -25.8298 -2.0465 0.8552
36.9408 -25.3928 -2.3493 0.8356
39.7264 -20.7662 -2.3493 0.8356
46.3561 -11.3725 -2.5015 0.8260
21.2937 11.1588 -1.2599 0.9082
21.3599 14.7149 -1.3593 0.9013
7.0891 6.2653 -0.4958 0.9628
3.9222 5.6609 -0.3609 0.9728
2.9889 5.6666 -0.3358 0.9747
1.4149 5.6763 -0.3066 0.9768
0.7065 5.6806 -0.3000 0.9773
0.0182 5.6849 -0.2979 0.9775
-0.6683 5.6691 -0.2992 0.9774
-1.3681 5.6419 -0.3042 0.9770
-2.9130 5.6093 -0.3312 0.9750
-3.8257 5.5976 -0.3553 0.9732
-5.0139 5.7158 -0.3985 0.9700
-6.3941 5.7243 -0.4498 0.9662
-14.9590 5.7769 -0.8404 0.9378
-45.0956 0.3114 -2.3634 0.8347
-43.6030 -10.4021 -2.3493 0.8356
-44.7590 -16.5787 -2.5015 0.8260
-39.5061 -26.7860 -2.5015 0.8260
-33.8080 -29.4353 -2.3493 0.8356
-12.2341 -22.7830 -1.3553 0.9016
-9.4817 -24.2841 -1.3662 0.9008
-5.7413 -43.5231 -2.3007 0.8388
-0.5065 -47.7280 -2.5015 0.8260
5.2366 -47.4426 -2.5015 0.8260
26.2140 -30.3346 -2.1011 0.8516
29.8986 -27.1684 -2.1172 0.8506
36.5602 -25.9379 -2.3493 0.8356
39.4140 -21.3532 -2.3493 0.8356
39.8422 -15.7270 -2.2448 0.8423
47.2973 -6.4178 -2.5015 0.8260
41.7281 4.4493 -2.1993 0.8453
23.9990 5.5375 -1.2908 0.9061
21.2385 7.6881 -1.1837 0.9135
21.2868 10.7557 -1.2499 0.9089
21.3507 14.2462 -1.3452 0.9023
7.1710 6.1506 -0.4951 0.9629
5.1753 5.6532 -0.4017 0.9698
4.0473 5.6601 -0.3647 0.9725
3.0969 5.6659 -0.3384 0.9745
0.7922 5.6801 -0.3006 0.9773
-1.2797 5.6414 -0.3032 0.9771
-2.8107 5.6143 -0.3290 0.9752
-3.7049 5.5974 -0.3518 0.9735
-5.0087 2.7619 -0.2998 0.9774
-7.3575 2.9675 -0.4158 0.9687
-21.2455 5.7162 -1.1530 0.9156
-44.6165 -4.4228 -2.3497 0.8356
-43.7525 -9.7542 -2.3493 0.8356
-36.4593 -30.8050 -2.5015 0.8260
-21.7631 -23.4213 -1.6756 0.8798
-16.1704 -22.2636 -1.4421 0.8956
-9.7829 -23.9986 -1.3582 0.9014
-7.2240 -26.4582 -1.4374 0.8960
-5.4477 -37.0504 -1.9626 0.8607
4.5324 -47.5150 -2.5015 0.8260
10.2133 -46.6252 -2.5015 0.8260
15.7365 -45.0314 -2.4999 0.8261
17.8125 -36.2492 -2.1167 0.8506
27.5851 -25.8235 -1.9803 0.8595
36.1714 -26.4774 -2.3493 0.8356
39.0929 -21.9355 -2.3493 0.8356
45.9984 -12.7425 -2.5015 0.8260
47.1969 -7.1186 -2.5015 0.8260
44.6395 4.0911 -2.3493 0.8356
21.2801 10.3590 -1.2404 0.9096
4.1749 5.6593 -0.3686 0.9722
3.2065 5.6653 -0.3412 0.9743
1.5948 5.6752 -0.3089 0.9767
0.8782 5.6796 -0.3012 0.9772
-0.4991 5.6770 -0.2987 0.9774
-1.9257 5.6447 -0.3126 0.9764
-6.0222 5.7220 -0.4354 0.9673
-7.7105 5.7324 -0.5035 0.9622
-4.9134 2.8051 -0.2965 0.9776
-30.2358 4.7900 -1.6044 0.8846
-45.1363 1.6514 -2.3671 0.8345
-43.8923 -9.1042 -2.3493 0.8356
-16.7640 -22.3752 -1.4652 0.8941
-12.9684 -22.5213 -1.3620 0.9011
-7.4508 -25.7780 -1.4063 0.8981
-5.6654 -34.9231 -1.8542 0.8679
-1.9221 -47.6920 -2.5015 0.8260
3.8270 -47.5770 -2.5015 0.8260
9.5206 -46.7716 -2.5015 0.8260
15.0759 -45.2873 -2.5015 0.8260
23.3950 -28.7542 -1.9427 0.8620
35.7747 -27.0110 -2.3493 0.8356
38.7632 -22.5130 -2.3493 0.8356
47.6846 -2.0988 -2.5015 0.8260
21.2285 6.9796 -1.1711 0.9144
-0.4146 5.6810 -0.2985 0.9774
-1.1062 5.6485 -0.3017 0.9772
-2.6099 5.6241 -0.3249 0.9755
-4.5783 5.7131 -0.3837 0.9711
-5.8450 5.7209 -0.4286 0.9678
-7.4743 5.7309 -0.4936 0.9630
-4.9104 2.9008 -0.2989 0.9774
-13.1564 5.7658 -0.7528 0.9441
-19.2719 5.8034 -1.0548 0.9225
-30.4178 5.2826 -1.6180 0.8837
-45.1411 2.3226 -2.3689 0.8344
-44.0225 -8.4521 -2.3493 0.8356
-17.2328 -22.3037 -1.4771 0.8932
-13.2617 -22.2602 -1.3579 0.9014
-8.4611 -19.1133 -1.0954 0.9197
-5.8830 -33.1458 -1.7642 0.8739
3.1209 -47.6286 -2.5015 0.8260
8.8258 -46.9076 -2.5015 0.8260
14.4026 -45.5059 -2.5015 0.8260
18.5674 -40.8004 -2.3493 0.8356
26.1965 -33.1911 -2.2160 0.8442
27.5452 -27.3636 -2.0348 0.8560
34.9343 -27.1993 -2.3203 0.8375
38.4250 -23.0854 -2.3493 0.8356
33.7538 -15.0919 -1.9377 0.8623
44.1094 8.1301 -2.3506 0.8356
21.2937 9.5952 -1.2240 0.9107
21.4848 12.9930 -1.3159 0.9043
7.4152 5.8081 -0.4936 0.9630
5.6547 5.6502 -0.4189 0.9685
4.4388 5.6577 -0.3769 0.9716
3.4315 5.6639 -0.3471 0.9738
1.0513 5.6785 -0.3027 0.9771
0.3558 5.6828 -0.2984 0.9775
-1.0202 5.6526 -0.3010 0.9773
-1.7403 5.6438 -0.3095 0.9766
-2.5113 5.6289 -0.3230 0.9756
-3.3562 5.5966 -0.3420 0.9742
-5.6730 5.7198 -0.4222 0.9682
-9.3012 5.6824 -0.5712 0.9573
-12.6360 5.7626 -0.7278 0.9459
-18.2656 5.7972 -1.0043 0.9261
-27.9371 5.2798 -1.4900 0.8924
-45.1356 2.9941 -2.3707 0.8343
-44.1431 -7.7981 -2.3493 0.8356
-45.5481 -13.8603 -2.4951 0.8264
-41.0250 -24.3962 -2.5015 0.8260
-17.9229 -22.4990 -1.5075 0.8912
-10.8589 -23.5789 -1.3605 0.9012
8.1291 -47.0334 -2.5015 0.8260
22.7688 -38.6135 -2.3493 0.8356
23.3708 -30.5315 -2.0151 0.8573
26.7351 -27.3586 -2.0047 0.8579
32.8606 -26.3768 -2.2083 0.8447
33.2258 -15.4512 -1.9204 0.8635
45.3860 -14.7761 -2.5015 0.8260
46.8335 -9.2111 -2.5015 0.8260
44.1997 7.4707 -2.3493 0.8356
18.6999 5.5393 -1.0221 0.9249
22.0887 9.5619 -1.2614 0.9081
26.6349 20.2320 -1.7529 0.8746
2.6617 5.6686 -0.3282 0.9752
-0.9345 5.6566 -0.3005 0.9773
-1.6489 5.6433 -0.3081 0.9767
-2.4139 5.6336 -0.3212 0.9757
-4.3051 5.7114 -0.3748 0.9718
-9.0194 5.6957 -0.5590 0.9582
-11.8169 5.6023 -0.6854 0.9490
-27.1372 5.5467 -1.4516 0.8950
-44.2539 -7.1426 -2.3493 0.8356
-44.6792 -12.8751 -2.4368 0.8301
-38.2218 -28.5888 -2.5015 0.8260
-18.5498 -22.5901 -1.5319 0.8895
-13.9652 -21.9343 -1.3627 0.9011
-8.3950 -24.8434 -1.3743 0.9003
-3.5281 -41.5159 -2.1836 0.8463
26.1837 -35.2782 -2.3024 0.8386
26.4389 -27.8708 -2.0133 0.8574
37.7234 -24.2150 -2.3493 0.8356
33.1231 -16.0052 -1.9279 0.8630
45.1618 -15.4477 -2.5015 0.8260
46.6917 -9.9047 -2.5015 0.8260
47.5440 -4.2179 -2.5015 0.8260
42.0289 6.4641 -2.2285 0.8434
23.0058 9.5562 -1.3056 0.9050
21.3093 12.0384 -1.2827 0.9066
26.6311 19.6129 -1.7333 0.8759
4.7151 5.6560 -0.3859 0.9709
1.9640 5.6729 -0.3146 0.9762
0.5253 5.6818 -0.2990 0.9774
-0.1611 5.6822 -0.2979 0.9775
-0.8491 5.6606 -0.3000 0.9773
-3.1354 5.5984 -0.3363 0.9746
-17.2824 23.6497 -1.5351 0.8893
-8.7493 5.7083 -0.5475 0.9590
-25.7554 5.6635 -1.3820 0.8998
-45.0934 4.3379 -2.3742 0.8341
-44.3549 -6.4854 -2.3493 0.8356
-43.6368 -11.8766 -2.3701 0.8343
-44.2138 -17.9822 -2.5015 0.8260
-41.7305 -23.1686 -2.5015 0.8260
-19.2584 -22.7562 -1.5624 0.8874
-14.4119 -21.9116 -1.3745 0.9003
-11.5232 -23.1854 -1.3569 0.9015
-4.4578 -44.6043 -2.3493 0.8356
0.9991 -47.7202 -2.5015 0.8260
6.7305 -47.2538 -2.5015 0.8260
37.3601 -24.7719 -2.3493 0.8356
33.3251 -16.7170 -1.9539 0.8613
47.7236 0.8220 -2.5015 0.8260
42.0250 5.8267 -2.2235 0.8437
20.5718 5.4354 -1.1151 0.9183
21.3706 15.2551 -1.3761 0.9002
3.7732 5.6450 -0.3558 0.9732
1.3147 5.6769 -0.3054 0.9769
-0.0769 5.6855 -0.2980 0.9775
-1.4685 5.6424 -0.3056 0.9769
-3.0300 5.6036 -0.3339 0.9748
-3.9647 5.5979 -0.3595 0.9729
-6.6149 5.7256 -0.4585 0.9656
-11.0116 5.6264 -0.6481 0.9517
-15.7498 5.7818 -0.8793 0.9350
-23.4851 5.5307 -1.2645 0.9079
-45.0567 5.0099 -2.3759 0.8339
-29.4660 -0.2890 -1.5443 0.8887
-44.4757 -17.3244 -2.5015 0.8260
-42.0696 -22.5471 -2.5015 0.8260
-39.0529 -27.4425 -2.5015 0.8260
-14.9043 -21.9441 -1.3902 0.8992
-9.0372 -24.3384 -1.3606 0.9012
-3.2959 -28.6733 -1.5126 0.8908
0.2912 -47.7298 -2.5015 0.8260
21.0286 -39.5881 -2.3493 0.8356
25.6366 -36.7721 -2.3493 0.8356
26.2202 -29.3362 -2.0620 0.8542
29.2535 -25.7029 -2.0408 0.8556
36.9884 -25.3234 -2.3493 0.8356
39.7653 -20.6916 -2.3493 0.8356
46.3774 -11.2854 -2.5015 0.8260
47.3979 -5.6265 -2.5015 0.8260
22.1047 5.4910 -1.1937 0.9128
21.2946 11.2103 -1.2612 0.9081
-24.8157 -14.2012 -2.5015 0.8915
-22.9279 -17.0823 -2.5015 0.8915
-17.0796 -20.7201 -2.3493 0.8978
-11.0889 -23.0562 -2.2383 0.9024
-8.3358 -24.5163 -2.2655 0.9012
-5.5241 -26.2778 -2.3493 0.8978
-2.4702 -28.4333 -2.4970 0.8917
0.9687 -28.5754 -2.5015 0.8915
4.3980 -28.2515 -2.5015 0.8915
7.7634 -27.5176 -2.5015 0.8915
11.0162 -26.3844 -2.5015 0.8915
14.1090 -24.8682 -2.5015 0.8915
16.6875 -22.5723 -2.4559 0.8934
24.0321 -15.4903 -2.5015 0.8915
27.0355 -9.3044 -2.5015 0.8915
22.4954 6.2566 -2.0428 0.9105
13.6094 5.6231 -1.2883 0.9426
23.0828 12.9832 -2.3170 0.8991
8.4386 6.1903 -0.9156 0.9588
6.0209 5.6480 -0.7222 0.9674
14.9858 23.0612 -2.4062 0.8954
2.7779 5.6679 -0.5522 0.9750
1.9759 5.6728 -0.5256 0.9762
1.2375 5.6774 -0.5084 0.9769
0.5361 5.6817 -0.4993 0.9773
-2.2997 5.6250 -0.5317 0.9759
-3.1139 5.5845 -0.5594 0.9747
-16.1720 22.2178 -2.4042 0.8955
-5.3238 5.7177 -0.6835 0.9691
-16.4152 5.7859 -1.5227 0.9325
-26.2426 5.8223 -2.3518 0.8977
-26.8452 -0.6112 -2.3493 0.8978
-28.2987 -4.0834 -2.5015 0.8915
-25.0236 -13.8315 -2.5015 0.8915
-20.9687 -19.3796 -2.4980 0.8917
-17.3851 -20.4645 -2.3493 0.8978
-14.4903 -21.9408 -2.3004 0.8998
-8.6787 -24.3345 -2.2603 0.9015
-2.7206 -26.7140 -2.3493 0.8978
0.5448 -28.5866 -2.5015 0.8915
3.9784 -28.3137 -2.5015 0.8915
7.3544 -27.6298 -2.5015 0.8915
20.8794 -17.8712 -2.4045 0.8955
28.4337 -3.0023 -2.5015 0.8915
26.6046 3.6378 -2.3493 0.8978
14.1903 5.6182 -1.3353 0.9406
3.7823 5.6357 -0.5938 0.9731
2.8826 5.6673 -0.5563 0.9748
2.0705 5.6722 -0.5283 0.9760
0.6212 5.6812 -0.5000 0.9773
-0.7532 5.6651 -0.5000 0.9773
-3.0090 5.5898 -0.5554 0.9748
-5.1668 5.7167 -0.6742 0.9695
-6.5896 5.7255 -0.7637 0.9656
-8.4579 5.7220 -0.8934 0.9598
-22.4685 5.3358 -2.0204 0.9114
-26.6614 -10.3276 -2.5015 0.8915
-23.4245 -16.3947 -2.5015 0.8915
-15.0068 -22.0060 -2.3303 0.8986
-11.7594 -22.7007 -2.2367 0.9024
-3.1165 -26.6707 -2.3493 0.8978
0.1207 -28.5915 -2.5015 0.8915
13.3652 -25.2757 -2.5015 0.8915
17.9604 -20.1709 -2.3629 0.8972
23.5621 -16.1963 -2.5015 0.8915
26.7476 -10.1022 -2.5015 0.8915
27.7684 -6.8124 -2.5015 0.8915
28.3861 -3.4237 -2.5015 0.8915
28.5918 0.0146 -2.5015 0.8915
22.4226 2.7278 -1.9762 0.9133
8.6185 5.9373 -0.9156 0.9588
7.0891 6.2653 -0.8277 0.9627
5.0241 5.6541 -0.6617 0.9701
2.9889 5.6666 -0.5605 0.9746
0.7065 5.6806 -0.5008 0.9773
0.0182 5.6849 -0.4974 0.9774
-1.3667 5.6363 -0.5074 0.9770
-2.1097 5.6316 -0.5261 0.9761
-2.9056 5.5949 -0.5516 0.9750
-5.0139 5.7158 -0.6652 0.9699
-8.1668 5.7035 -0.8715 0.9608
-10.5524 5.6162 -1.0458 0.9531
-26.6344 3.4130 -2.3493 0.8978
-26.8117 -9.9310 -2.5015 0.8915
-23.6651 -16.0454 -2.5015 0.8915
-12.0944 -22.5230 -2.2366 0.9024
-6.6876 -26.0060 -2.3493 0.8978
3.1369 -28.4192 -2.5015 0.8915
6.5316 -27.8358 -2.5015 0.8915
12.9888 -25.4712 -2.5015 0.8915
15.9557 -23.7215 -2.5012 0.8916
17.7197 -20.5050 -2.3710 0.8969
20.0975 -18.2623 -2.3758 0.8967
25.1395 -13.6197 -2.5015 0.8915
28.5889 -0.4095 -2.5015 0.8915
21.6073 7.8216 -2.0104 0.9119
8.7056 5.8088 -0.9156 0.9588
7.1710 6.1506 -0.8265 0.9628
5.1753 5.6532 -0.6705 0.9697
4.0473 5.6601 -0.6088 0.9724
2.2629 5.6711 -0.5342 0.9758
1.5045 5.6757 -0.5137 0.9767
0.1025 5.6844 -0.4974 0.9774
-0.5836 5.6731 -0.4989 0.9774
-2.0149 5.6312 -0.5233 0.9763
-2.8035 5.6000 -0.5479 0.9752
-4.8650 5.7149 -0.6566 0.9703
-5.0086 2.7618 -0.5004 0.9773
-26.8458 0.5837 -2.3493 0.8978
-28.4524 -2.8205 -2.5015 0.8915
-25.6141 -12.7047 -2.5015 0.8915
-21.8399 -18.4529 -2.5015 0.8915
-7.0726 -25.9040 -2.3493 0.8978
-0.7274 -28.5825 -2.5015 0.8915
2.7150 -28.4626 -2.5015 0.8915
6.1180 -27.9296 -2.5015 0.8915
9.4323 -26.9912 -2.5015 0.8915
12.6096 -25.6610 -2.5015 0.8915
24.9347 -13.9912 -2.5015 0.8915
26.4362 -10.8912 -2.5015 0.8915
28.2720 -4.2642 -2.5015 0.8915
28.5796 -0.8334 -2.5015 0.8915
21.6001 7.4585 -1.9993 0.9123
21.6676 10.5477 -2.1084 0.9078
7.2526 6.0362 -0.8255 0.9628
2.3607 5.6705 -0.5374 0.9756
1.5948 5.6752 -0.5157 0.9766
0.1868 5.6838 -0.4975 0.9774
-0.4991 5.6770 -0.4986 0.9774
-1.9210 5.6308 -0.5205 0.9764
-3.5666 5.5660 -0.5784 0.9738
-4.7199 5.7140 -0.6484 0.9707
-7.7105 5.7324 -0.8406 0.9622
-13.7141 5.7693 -1.3017 0.9420
-20.2151 5.7618 -1.8390 0.9191
-27.9959 -5.8069 -2.5015 0.8915
-27.0945 -9.1314 -2.5015 0.8915
-25.7998 -12.3233 -2.5015 0.8915
-22.1112 -18.1269 -2.5015 0.8915
-16.1006 -21.4897 -2.3493 0.8978
-7.3797 -25.5320 -2.3252 0.8988
2.2925 -28.4997 -2.5015 0.8915
5.7030 -28.0172 -2.5015 0.8915
12.2275 -25.8453 -2.5015 0.8915
15.2468 -24.1873 -2.5015 0.8915
17.2715 -21.2280 -2.3943 0.8959
19.4123 -18.7205 -2.3594 0.8974
22.7747 -17.1956 -2.4967 0.8917
24.7244 -14.3595 -2.5015 0.8915
26.2718 -11.2821 -2.5015 0.8915
27.4378 -8.0409 -2.5015 0.8915
28.2057 -4.6831 -2.5015 0.8915
28.5641 -1.2572 -2.5015 0.8915
26.7735 2.0538 -2.3493 0.8978
26.3322 5.2585 -2.3493 0.8978
21.6582 10.1485 -2.0925 0.9084
21.7347 13.5884 -2.2426 0.9022
5.4904 5.6512 -0.6893 0.9689
2.4598 5.6699 -0.5407 0.9755
1.6859 5.6746 -0.5179 0.9765
0.9646 5.6791 -0.5040 0.9771
0.2713 5.6833 -0.4978 0.9774
-1.1062 5.6485 -0.5036 0.9772
-1.8281 5.6304 -0.5179 0.9765
-2.6034 5.6099 -0.5411 0.9755
-3.4522 5.5675 -0.5731 0.9740
-4.5783 5.7131 -0.6405 0.9710
-7.4743 5.7309 -0.8240 0.9629
-19.2719 5.8034 -1.7609 0.9224
-28.0790 -5.3910 -2.5015 0.8915
-25.9797 -11.9392 -2.5015 0.8915
-24.3554 -14.9768 -2.5015 0.8915
-16.4176 -21.2485 -2.3493 0.8978
-8.4137 -19.0063 -1.8185 0.9199
-4.6926 -26.4389 -2.3493 0.8978
-1.5750 -28.5484 -2.5015 0.8915
1.8695 -28.5306 -2.5015 0.8915
8.6275 -27.2591 -2.5015 0.8915
14.8864 -24.4108 -2.5015 0.8915
22.3788 -17.4238 -2.4813 0.8924
24.5087 -14.7246 -2.5015 0.8915
26.1015 -11.6705 -2.5015 0.8915
27.3155 -8.4470 -2.5015 0.8915
26.4073 4.8673 -2.3493 0.8978
21.5865 6.7442 -1.9786 0.9132
21.7319 13.1425 -2.2219 0.9031
7.4152 5.8081 -0.8241 0.9629
4.4388 5.6577 -0.6291 0.9715
2.5601 5.6692 -0.5442 0.9753
1.0513 5.6785 -0.5052 0.9771
-1.0202 5.6526 -0.5025 0.9772
-1.7360 5.6300 -0.5154 0.9766
-3.3421 5.5731 -0.5685 0.9742
-5.6730 5.7198 -0.7048 0.9682
-7.2473 5.7295 -0.8083 0.9636
-18.2656 5.7972 -1.6766 0.9259
-26.7933 1.7774 -2.3493 0.8978
-28.1559 -4.9739 -2.5015 0.8915
-26.1539 -11.5526 -2.5015 0.8915
-24.5749 -14.6139 -2.5015 0.8915
-22.6392 -17.4630 -2.5015 0.8915
-19.3831 -19.0823 -2.3797 0.8965
-16.7310 -21.0027 -2.3493 0.8978
-13.4404 -21.8176 -2.2419 0.9022
-7.9475 -24.7223 -2.2719 0.9010
11.4556 -26.1966 -2.5015 0.8915
14.5227 -24.6289 -2.5015 0.8915
21.8512 -17.5397 -2.4514 0.8936
24.2876 -15.0865 -2.5015 0.8915
27.1873 -8.8512 -2.5015 0.8915
28.0544 -5.5176 -2.5015 0.8915
28.5203 1.3384 -2.4979 0.8917
26.4766 4.4751 -2.3493 0.8978
18.6999 5.5393 -1.7063 0.9247
12.9919 5.6240 -1.2386 0.9447
22.2150 12.9885 -2.2514 0.9018
21.6771 16.4660 -2.3816 0.8965
5.8240 5.6492 -0.7099 0.9679
3.5469 5.6632 -0.5846 0.9735
1.1386 5.6780 -0.5066 0.9770
0.4405 5.6823 -0.4986 0.9774
-0.9345 5.6566 -0.5016 0.9772
-7.0288 5.7282 -0.7933 0.9642
-9.0194 5.6957 -0.9333 0.9581
-26.7640 2.1746 -2.3493 0.8978
-26.8312 -1.0597 -2.3493 0.8978
-28.2265 -4.5558 -2.5015 0.8915
-26.3224 -11.1634 -2.5015 0.8915
-24.7890 -14.2478 -2.5015 0.8915
-22.8957 -17.1253 -2.5015 0.8915
-20.2799 -19.3814 -2.4542 0.8935
-17.0407 -20.7522 -2.3493 0.8978
-13.9239 -21.8694 -2.2682 0.9011
-11.0464 -23.0788 -2.2385 0.9024
4.4511 -28.2432 -2.5015 0.8915
7.8151 -27.5030 -2.5015 0.8915
11.0657 -26.3636 -2.5015 0.8915
16.7097 -22.5136 -2.4529 0.8935
24.0612 -15.4451 -2.5015 0.8915
25.7439 -12.4396 -2.5015 0.8915
27.0530 -9.2535 -2.5015 0.8915
27.9694 -5.9331 -2.5015 0.8915
28.5771 0.9165 -2.5015 0.8915
26.5401 4.0819 -2.3493 0.8978
22.3361 6.2575 -2.0294 0.9111
5.9984 5.6481 -0.7208 0.9675
14.9432 23.0904 -2.4063 0.8954
1.9640 5.6729 -0.5252 0.9762
1.2264 5.6775 -0.5082 0.9769
-1.5545 5.6292 -0.5109 0.9768
-2.3118 5.6244 -0.5320 0.9759
-5.3440 5.7178 -0.6847 0.9691
-6.8181 5.7269 -0.7790 0.9649
-8.7493 5.7083 -0.9140 0.9589
-11.3040 5.5660 -1.1024 0.9507
-26.2517 5.7726 -2.3516 0.8977
-27.5882 -7.5087 -2.5015 0.8915
-26.4851 -10.7717 -2.5015 0.8915
-23.1472 -16.7839 -2.5015 0.8915
-14.4258 -21.9327 -2.2967 0.9000
-11.3818 -22.9009 -2.2374 0.9024
-8.6354 -24.3575 -2.2610 0.9014
-2.6742 -26.7572 -2.3526 0.8977
4.0317 -28.3061 -2.5015 0.8915
7.4063 -27.6159 -2.5015 0.8915
10.6735 -26.5248 -2.5015 0.8915
18.2491 -19.8181 -2.3570 0.8975
25.5566 -12.8200 -2.5015 0.8915
27.8783 -6.3475 -2.5015 0.8915
28.4393 -2.9489 -2.5015 0.8915
14.1235 5.6224 -1.3300 0.9408
8.5181 6.0805 -0.9156 0.9588
3.7732 5.6450 -0.5940 0.9731
2.0585 5.6723 -0.5279 0.9761
1.3147 5.6769 -0.5098 0.9769
0.6104 5.6812 -0.4999 0.9773
-1.4657 5.6317 -0.5091 0.9769
-3.9420 5.5658 -0.5967 0.9730
-5.1864 5.7168 -0.6753 0.9695
-22.5493 5.3103 -2.0268 0.9112
-26.6877 2.9675 -2.3493 0.8978
-26.8509 -0.2634 -2.3493 0.8978
-28.3492 -3.7165 -2.5015 0.8915
-27.6966 -7.0987 -2.5015 0.8915
-26.6420 -10.3777 -2.5015 0.8915
-23.3936 -16.4387 -2.5015 0.8915
-14.9406 -21.9976 -2.3265 0.8987
-11.7169 -22.7232 -2.2368 0.9024
-8.9770 -24.1763 -2.2563 0.9016
-6.2520 -26.1141 -2.3493 0.8978
-3.0664 -26.6765 -2.3493 0.8978
3.6114 -28.3628 -2.5015 0.8915
10.2789 -26.6802 -2.5015 0.8915
16.3167 -23.4041 -2.4961 0.8918
17.9907 -20.1287 -2.3619 0.8973
20.5243 -18.0333 -2.3903 0.8961
23.5924 -16.1521 -2.5015 0.8915
28.5917 0.0683 -2.5015 0.8915
22.4346 2.7720 -1.9777 0.9132
21.9756 5.4590 -1.9810 0.9131
-17.6821 -10.1189 -2.5015 0.9212
-16.3370 -12.1718 -2.5015 0.9212
-14.7547 -14.0480 -2.5015 0.9212
-10.9739 -17.1646 -2.5015 0.9212
-8.7472 -18.1871 -2.4780 0.9219
-6.5424 -19.2417 -2.4954 0.9214
0.6903 -20.3611 -2.5015 0.9212
3.1337 -20.1303 -2.5015 0.9212
7.8494 -18.7999 -2.5015 0.9212
10.0532 -17.7195 -2.5015 0.9212
12.1111 -16.3820 -2.5015 0.9212
15.6722 -13.0166 -2.5015 0.9212
17.1238 -11.0374 -2.5015 0.9212
18.3268 -8.8981 -2.5015 0.9212
19.9213 -4.2651 -2.5015 0.9212
20.2896 -1.8385 -2.5015 0.9212
18.9163 2.8729 -2.3493 0.9258
16.7195 9.4041 -2.3554 0.9256
8.2574 6.0575 -1.2574 0.9596
1.9759 5.6728 -0.7376 0.9761
1.2375 5.6774 -0.7135 0.9769
-0.8383 5.6611 -0.7027 0.9772
-1.5428 5.6280 -0.7165 0.9768
-3.1057 5.5700 -0.7830 0.9746
-5.3238 5.7177 -0.9593 0.9690
-6.7920 5.7267 -1.0908 0.9648
-11.0617 5.4725 -1.5153 0.9515
-18.6790 4.1442 -2.3493 0.9258
-19.0418 1.8679 -2.3493 0.9258
-18.8860 -7.6398 -2.5015 0.9212
-17.8303 -9.8555 -2.5015 0.9212
-14.9615 -13.8275 -2.5015 0.9212
-13.1901 -15.5265 -2.5015 0.9212
-11.2273 -16.9999 -2.5015 0.9212
-9.0330 -18.0895 -2.4826 0.9217
-4.4864 -19.8726 -2.5015 0.9212
0.3882 -20.3691 -2.5015 0.9212
5.2403 -19.6873 -2.5015 0.9212
11.8668 -16.5599 -2.5015 0.9212
13.7721 -15.0127 -2.5015 0.9212
18.1928 -9.1690 -2.5015 0.9212
19.8559 -4.5601 -2.5015 0.9212
20.2601 -2.1393 -2.5015 0.9212
20.3704 0.3126 -2.5015 0.9212
18.9568 2.5921 -2.3493 0.9258
18.5075 4.8528 -2.3493 0.9258
8.2563 5.8702 -1.2439 0.9600
4.8767 5.6550 -0.9169 0.9704
3.7823 5.6357 -0.8334 0.9730
2.8826 5.6673 -0.7807 0.9747
-0.0662 5.6854 -0.6981 0.9773
-3.0012 5.5753 -0.7774 0.9748
-6.5896 5.7255 -1.0718 0.9654
-10.7208 5.5033 -1.4797 0.9526
-18.6155 4.4208 -2.3493 0.9258
-20.3699 -0.1615 -2.5012 0.9212
-20.2049 -2.6102 -2.5015 0.9212
-18.9973 -7.3588 -2.5015 0.9212
-17.9745 -9.5899 -2.5015 0.9212
-16.6908 -11.6818 -2.5015 0.9212
-15.1649 -13.6042 -2.5015 0.9212
-11.4782 -16.8315 -2.5015 0.9212
-4.7807 -19.8039 -2.5015 0.9212
-2.3645 -20.2351 -2.5015 0.9212
0.0860 -20.3726 -2.5015 0.9212
7.2883 -19.0244 -2.5015 0.9212
9.5232 -18.0099 -2.5015 0.9212
13.5479 -15.2153 -2.5015 0.9212
15.2792 -13.4757 -2.5015 0.9212
19.0587 -7.1982 -2.5015 0.9212
20.2262 -2.4395 -2.5015 0.9212
16.9775 8.8969 -2.3535 0.9257
7.0891 6.2653 -1.1617 0.9626
1.4149 5.6763 -0.7183 0.9767
0.7065 5.6806 -0.7029 0.9772
0.0182 5.6849 -0.6980 0.9774
-2.8981 5.5805 -0.7721 0.9750
-3.7830 5.5352 -0.8232 0.9733
-5.0139 5.7158 -0.9336 0.9698
-6.3941 5.7243 -1.0537 0.9660
-8.1668 5.7035 -1.2231 0.9607
-10.3867 5.5280 -1.4447 0.9537
-18.9780 2.4319 -2.3493 0.9258
-20.2414 -2.3102 -2.5015 0.9212
-19.8167 -4.7275 -2.5015 0.9212
-18.1148 -9.3223 -2.5015 0.9212
-16.8623 -11.4330 -2.5015 0.9212
-15.3651 -13.3777 -2.5015 0.9212
-11.7266 -16.6594 -2.5015 0.9212
-5.0739 -19.7308 -2.5015 0.9212
2.2351 -20.2498 -2.5015 0.9212
4.6540 -19.8340 -2.5015 0.9212
11.3704 -16.9045 -2.5015 0.9212
15.0777 -13.7008 -2.5015 0.9212
17.9128 -9.7046 -2.5015 0.9212
19.7118 -5.1471 -2.5015 0.9212
17.9907 6.5125 -2.3493 0.9258
17.1007 8.6406 -2.3525 0.9257
8.4601 5.6450 -1.2488 0.9598
5.1753 5.6532 -0.9411 0.9696
4.0473 5.6601 -0.8544 0.9723
3.0969 5.6659 -0.7928 0.9743
-0.5836 5.6731 -0.7002 0.9773
-1.2795 5.6404 -0.7101 0.9770
-2.0098 5.6172 -0.7325 0.9762
-3.6677 5.5411 -0.8159 0.9736
-7.9542 5.7324 -1.2038 0.9613
-5.0084 2.7617 -0.7023 0.9772
-19.2072 -6.7921 -2.5015 0.9212
-17.0300 -11.1816 -2.5015 0.9212
-15.5618 -13.1484 -2.5015 0.9212
-11.9724 -16.4837 -2.5015 0.9212
-0.5183 -20.3662 -2.5015 0.9212
1.9345 -20.2807 -2.5015 0.9212
4.3593 -19.9009 -2.5015 0.9212
6.7208 -19.2322 -2.5015 0.9212
8.9848 -18.2845 -2.5015 0.9212
11.1184 -17.0714 -2.5015 0.9212
14.8728 -13.9230 -2.5015 0.9212
17.7669 -9.9692 -2.5015 0.9212
18.8368 -7.7604 -2.5015 0.9212
20.1449 -3.0384 -2.5015 0.9212
18.0854 6.2449 -2.3493 0.9258
8.7392 5.6457 -1.2775 0.9589
7.2526 6.0362 -1.1586 0.9627
5.3307 5.6522 -0.9540 0.9692
4.1749 5.6593 -0.8635 0.9721
3.2065 5.6653 -0.7993 0.9741
2.3607 5.6705 -0.7542 0.9756
0.1868 5.6838 -0.6983 0.9773
-1.1926 5.6445 -0.7084 0.9770
-1.9162 5.6169 -0.7287 0.9764
-3.5544 5.5470 -0.8089 0.9738
-6.0222 5.7220 -1.0200 0.9671
-4.9133 2.8051 -0.6947 0.9775
-18.4004 5.2446 -2.3493 0.9258
-18.8975 2.9938 -2.3493 0.9258
-19.1204 0.6996 -2.3493 0.9258
-19.9482 -4.1377 -2.5015 0.9212
-18.3833 -8.7808 -2.5015 0.9212
-17.1940 -10.9278 -2.5015 0.9212
-15.7551 -12.9161 -2.5015 0.9212
-14.0876 -14.7170 -2.5015 0.9212
-7.8893 -18.5608 -2.4763 0.9219
-5.6539 -19.5612 -2.5001 0.9212
-3.2623 -20.1099 -2.5015 0.9212
-0.8204 -20.3562 -2.5015 0.9212
1.6335 -20.3071 -2.5015 0.9212
6.4348 -19.3298 -2.5015 0.9212
8.7126 -18.4158 -2.5015 0.9212
10.8639 -17.2344 -2.5015 0.9212
12.8576 -15.8029 -2.5015 0.9212
16.2589 -12.2759 -2.5015 0.9212
17.6171 -10.2317 -2.5015 0.9212
18.7196 -8.0389 -2.5015 0.9212
19.5505 -5.7295 -2.5015 0.9212
20.3530 -0.8958 -2.5015 0.9212
20.2549 1.5537 -2.4943 0.9214
18.7627 3.7469 -2.3493 0.9258
18.1760 5.9759 -2.3493 0.9258
9.0410 5.6524 -1.3092 0.9579
7.3340 5.9220 -1.1574 0.9627
3.3180 5.6646 -0.8061 0.9739
2.4598 5.6699 -0.7589 0.9754
1.6859 5.6746 -0.7269 0.9764
-0.4146 5.6810 -0.6994 0.9773
-1.1062 5.6485 -0.7067 0.9771
-1.8236 5.6166 -0.7251 0.9765
-7.4743 5.7309 -1.1565 0.9628
-11.8790 5.2060 -1.5925 0.9491
-18.8510 3.2738 -2.3493 0.9258
-19.4002 -6.2194 -2.5015 0.9212
-18.5116 -8.5072 -2.5015 0.9212
-15.9450 -12.6810 -2.5015 0.9212
-12.4561 -16.1213 -2.5015 0.9212
-5.9394 -19.4619 -2.4984 0.9213
-1.1222 -20.3418 -2.5015 0.9212
1.3321 -20.3292 -2.5015 0.9212
3.7671 -20.0214 -2.5015 0.9212
6.1474 -19.4231 -2.5015 0.9212
8.4385 -18.5430 -2.5015 0.9212
10.6071 -17.3936 -2.5015 0.9212
17.4634 -10.4918 -2.5015 0.9212
20.0459 -3.6346 -2.5015 0.9212
20.3168 1.2557 -2.4993 0.9212
18.8162 3.4682 -2.3493 0.9258
18.2626 5.7057 -2.3493 0.9258
17.4466 7.8616 -2.3496 0.9258
1.7777 5.6741 -0.7301 0.9763
-0.3301 5.6838 -0.6991 0.9773
-1.0202 5.6526 -0.7053 0.9771
-1.7327 5.6191 -0.7220 0.9766
-4.4401 5.7123 -0.8883 0.9713
-5.6730 5.7198 -0.9892 0.9681
-7.2473 5.7295 -1.1344 0.9635
-9.1918 5.6156 -1.3226 0.9575
-18.8004 3.5530 -2.3493 0.9258
-20.0621 -3.5441 -2.5015 0.9212
-18.6357 -8.2317 -2.5015 0.9212
-14.5179 -14.2926 -2.5015 0.9212
-3.8574 -20.0042 -2.5015 0.9212
1.0304 -20.3467 -2.5015 0.9212
3.4697 -20.0751 -2.5015 0.9212
8.1625 -18.6661 -2.5015 0.9212
10.3480 -17.5491 -2.5015 0.9212
12.3832 -16.1773 -2.5015 0.9212
14.2387 -14.5708 -2.5015 0.9212
15.8876 -12.7528 -2.5015 0.9212
19.3719 -6.3068 -2.5015 0.9212
19.9898 -3.9315 -2.5015 0.9212
20.3175 -1.4991 -2.5015 0.9212
18.3453 5.4342 -2.3493 0.9258
9.6947 5.6683 -1.3789 0.9558
15.3296 11.6444 -2.3637 0.9254
5.8240 5.6492 -0.9962 0.9678
4.5753 5.6569 -0.8933 0.9711
1.8704 5.6735 -0.7335 0.9762
-0.9345 5.6566 -0.7040 0.9772
-2.4019 5.6056 -0.7488 0.9757
-4.3051 5.7114 -0.8782 0.9716
-7.0288 5.7282 -1.1133 0.9641
-8.9235 5.6351 -1.2958 0.9584
-18.7456 3.8315 -2.3493 0.9258
-19.0703 1.5495 -2.3493 0.9258
-20.3569 -0.8040 -2.5015 0.9212
-18.7557 -7.9543 -2.5015 0.9212
-17.6631 -10.1521 -2.5015 0.9212
-14.7283 -14.0757 -2.5015 0.9212
-12.9288 -15.7447 -2.5015 0.9212
-10.9409 -17.1842 -2.5013 0.9212
-8.7118 -18.2011 -2.4776 0.9219
10.0865 -17.7006 -2.5015 0.9212
12.1419 -16.3592 -2.5015 0.9212
18.3435 -8.8637 -2.5015 0.9212
19.2763 -6.5935 -2.5015 0.9212
18.9108 2.9085 -2.3493 0.9258
16.7027 9.4359 -2.3555 0.9256
5.9984 5.6481 -1.0116 0.9673
4.7151 5.6560 -0.9041 0.9708
10.5355 16.2796 -2.3809 0.9248
2.7648 5.6680 -0.7743 0.9749
-0.1611 5.6822 -0.6980 0.9774
-1.5541 5.6275 -0.7168 0.9767
-2.3061 5.6104 -0.7448 0.9759
-11.4312 15.6429 -2.3789 0.9249
-16.5159 5.7865 -2.1488 0.9319
-20.1584 -2.9475 -2.5015 0.9212
-19.6577 -5.3502 -2.5015 0.9212
-18.8717 -7.6753 -2.5015 0.9212
-17.8117 -9.8890 -2.5015 0.9212
-14.9355 -13.8557 -2.5015 0.9212
-11.1953 -17.0210 -2.5015 0.9212
-8.9967 -18.1019 -2.4820 0.9218
-4.4491 -19.8810 -2.5015 0.9212
0.4265 -20.3683 -2.5015 0.9212
9.8229 -17.8483 -2.5015 0.9212
11.8979 -16.5375 -2.5015 0.9212
15.5023 -13.2184 -2.5015 0.9212
16.9794 -11.2583 -2.5015 0.9212
18.2100 -9.1348 -2.5015 0.9212
19.1764 -6.8787 -2.5015 0.9212
19.8644 -4.5228 -2.5015 0.9212
20.2641 -2.1012 -2.5015 0.9212
18.4984 4.8876 -2.3493 0.9258
16.8341 9.1835 -2.3545 0.9256
8.2564 5.8937 -1.2455 0.9599
4.8583 5.6551 -0.9154 0.9704
1.3147 5.6769 -0.7155 0.9768
-0.0769 5.6855 -0.6981 0.9773
-0.7640 5.6646 -0.7018 0.9772
-1.4657 5.6317 -0.7145 0.9768
-2.2113 5.6152 -0.7410 0.9760
-3.0143 5.5746 -0.7781 0.9748
-3.9194 5.5339 -0.8326 0.9730
-10.7643 5.5001 -1.4842 0.9525
-15.7498 5.7818 -2.0600 0.9346
-18.6237 4.3858 -2.3493 0.9258
-19.0160 2.1144 -2.3493 0.9258
-20.3718 -0.1998 -2.5015 0.9212
-20.1999 -2.6482 -2.5015 0.9212
-19.7349 -5.0581 -2.5015 0.9212
-18.9834 -7.3945 -2.5015 0.9212
-17.9564 -9.6237 -2.5015 0.9212
-16.6688 -11.7132 -2.5015 0.9212
-15.1393 -13.6327 -2.5015 0.9212
-13.3901 -15.3543 -2.5015 0.9212
-9.2835 -18.0040 -2.4872 0.9216
-4.7434 -19.8129 -2.5015 0.9212
-2.3264 -20.2395 -2.5015 0.9212
2.5733 -20.2096 -2.5015 0.9212
7.3241 -19.0107 -2.5015 0.9212
13.5764 -15.1898 -2.5015 0.9212
19.0722 -7.1624 -2.5015 0.9212
