ply
format ascii 1.0
element vertex 1588
property float32 x
property float32 y
property float32 z
property float32 I
end_header
-23.2623 -34.3581 8.0653 0.8444
-13.5469 -36.6562 7.5963 0.8528
22.9626 -90.3428 18.1192 0.6840
53.1807 -27.5401 11.6412 0.7835
51.7391 12.9715 10.3683 0.8046
6.3349 5.6460 1.6495 0.9660
4.9818 5.6543 1.4648 0.9698
3.8869 5.6611 1.3348 0.9724
26.9004 51.5339 11.2998 0.7891
2.1382 5.6718 1.1782 0.9756
0.6812 5.6808 1.1121 0.9770
-0.6965 5.6893 1.1141 0.9769
-2.1642 5.6983 1.1848 0.9755
-2.9950 5.7034 1.2522 0.9741
-6.4550 5.7246 1.6771 0.9655
-30.1948 0.0611 5.8693 0.8842
-64.8024 -44.4173 15.2712 0.7260
-24.0674 -34.5691 8.1877 0.8423
-14.0354 -36.5088 7.6029 0.8527
16.1366 -43.3351 8.9885 0.8283
23.2603 -45.0033 9.8471 0.8135
31.0702 -45.6477 10.7334 0.7985
41.2015 -47.1472 12.1708 0.7748
45.9952 16.9569 9.5288 0.8189
6.5022 5.6450 1.6738 0.9655
3.0442 5.6513 1.2477 0.9742
1.4672 5.6759 1.1396 0.9764
0.7563 5.6803 1.1139 0.9769
-3.8314 5.7085 1.3364 0.9724
-19.7658 22.9175 5.8827 0.8840
-6.2870 5.7236 1.6526 0.9659
-8.0619 5.7305 1.9226 0.9605
-27.2649 -2.8882 5.3294 0.8943
-67.2869 -15.4795 13.4209 0.7548
-60.6848 -30.6181 13.2123 0.7581
-18.9359 -34.6111 7.6688 0.8515
-14.6400 -36.6495 7.6713 0.8514
15.5504 -43.4839 8.9766 0.8285
22.5408 -45.0393 9.7899 0.8145
30.1518 -45.5626 10.6201 0.8004
41.1940 -48.3960 12.3537 0.7718
51.1666 -47.1942 13.5305 0.7530
50.9860 -36.7433 12.2161 0.7741
51.0364 -28.1386 11.3284 0.7886
47.0142 16.6406 9.6942 0.8161
34.6825 17.2166 7.5265 0.8540
26.1891 17.2087 6.0913 0.8801
0.1410 5.6841 1.1052 0.9771
-0.5465 5.6883 1.1108 0.9770
-1.9957 5.6972 1.1734 0.9757
-3.7240 5.7079 1.3248 0.9726
-64.7408 -22.4415 13.3189 0.7564
-59.5518 -29.0802 12.8821 0.7633
-25.4228 -34.5608 8.3397 0.8396
29.2534 -45.4808 10.5114 0.8022
41.1860 -49.6830 12.5442 0.7688
51.1591 -48.4352 13.6941 0.7505
50.9798 -37.7570 12.3313 0.7722
51.2754 10.7463 10.1835 0.8078
6.8065 5.6052 1.7139 0.9647
4.2198 5.6590 1.3722 0.9716
3.2447 5.6650 1.2690 0.9737
1.6257 5.6750 1.1475 0.9762
0.9073 5.6794 1.1180 0.9768
0.2151 5.6837 1.1056 0.9771
-1.1736 5.6922 1.1297 0.9766
-3.6186 5.7072 1.3136 0.9728
-7.6349 5.7319 1.8558 0.9618
-88.2580 3.6282 17.1701 0.6977
-65.2742 -21.6788 13.3695 0.7556
-26.0934 -34.5217 8.4115 0.8383
-20.0906 -34.5534 7.7693 0.8497
29.7084 -90.4343 18.5029 0.6785
28.3739 -45.4021 10.4069 0.8040
51.1512 -49.7063 13.8640 0.7478
55.1258 10.8059 10.9193 0.7954
51.1385 16.6152 10.4518 0.8032
27.0195 16.7637 6.1808 0.8785
26.2125 21.0194 6.5310 0.8720
3.3430 5.6644 1.2785 0.9736
0.9832 5.6789 1.1203 0.9768
0.2892 5.6832 1.1061 0.9771
-0.3972 5.6874 1.1082 0.9770
-1.8303 5.6962 1.1630 0.9759
-3.5149 5.7066 1.3028 0.9731
-5.8108 5.7207 1.5850 0.9673
-73.2497 -33.4357 15.6515 0.7203
-19.4456 -32.4637 7.3558 0.8571
19.3956 -42.8595 9.1444 0.8256
27.5127 -45.3265 10.3066 0.8057
41.1695 -52.3810 12.9503 0.7622
51.1432 -51.0100 14.0407 0.7450
57.9148 10.5714 11.4435 0.7867
36.1833 16.2326 7.7087 0.8508
27.8135 16.7588 6.3120 0.8761
3.4429 5.6638 1.2884 0.9734
2.5699 5.6692 1.2099 0.9750
1.7865 5.6740 1.1563 0.9761
1.0594 5.6785 1.1228 0.9767
-1.0133 5.6555 1.1168 0.9769
-1.7486 5.6957 1.1581 0.9760
-2.5351 5.7005 1.2127 0.9749
-4.4297 5.7122 1.4051 0.9710
-5.6605 5.7198 1.5642 0.9677
-9.1608 -11.4855 2.8557 0.9419
-16.8295 -36.4917 7.8113 0.8490
-12.5396 -38.9398 7.9519 0.8465
-13.7241 -70.9935 14.0552 0.7448
26.6684 -45.2537 10.2102 0.8073
41.1608 -53.7973 13.1668 0.7588
46.1168 -47.2101 12.8284 0.7642
50.9106 -40.8782 12.6913 0.7664
51.0146 -31.6967 11.6744 0.7829
62.3494 10.5441 12.2916 0.7728
51.4029 15.2334 10.4212 0.8038
37.4068 16.1998 7.9237 0.8470
28.6422 16.7537 6.4500 0.8735
26.2057 19.9153 6.3979 0.8745
5.8209 5.6492 1.5767 0.9675
3.5443 5.6632 1.2986 0.9731
2.6592 5.6686 1.2171 0.9748
1.8679 5.6735 1.1610 0.9760
0.4377 5.6823 1.1078 0.9770
-1.6677 5.6952 1.1535 0.9761
-2.4465 5.7000 1.2057 0.9750
-7.0397 5.7282 1.7642 0.9637
-67.6510 -19.5704 13.6892 0.7505
-35.5251 -43.3692 10.8973 0.7958
-22.0508 -34.7286 7.9964 0.8457
-9.1864 -19.2558 4.1471 0.9167
-10.5267 -50.8897 10.1014 0.8092
15.7300 -55.0463 11.1282 0.7919
25.7959 -45.1053 10.1002 0.8092
41.1845 -55.3054 13.4036 0.7550
57.2994 -27.5654 12.3597 0.7717
86.2224 13.4289 16.9620 0.7008
38.7636 16.1914 8.1658 0.8427
3.6474 5.6626 1.3093 0.9729
1.9499 5.6730 1.1660 0.9759
1.2130 5.6775 1.1285 0.9766
-0.8628 5.6608 1.1131 0.9769
26.3792 -45.1130 8.2771 0.8093
43.8466 -45.1927 9.9731 0.7749
51.1724 -41.3755 10.4228 0.7660
57.8735 -19.0627 9.6507 0.7813
55.4389 -11.1004 8.9549 0.7953
28.8645 16.7524 5.2859 0.8736
26.2049 19.7745 5.1996 0.8755
5.8604 5.6490 1.2892 0.9676
4.6042 5.6567 1.1552 0.9709
2.6827 5.6685 0.9933 0.9749
-0.2292 5.6864 0.9014 0.9772
-1.6466 5.6951 0.9390 0.9763
-2.4235 5.6999 0.9810 0.9752
-3.2864 5.7052 1.0428 0.9737
-4.2807 5.7113 1.1305 0.9715
-87.1931 41.6131 15.3022 0.6762
-65.8035 -18.7937 10.8390 0.7579
-63.0310 -46.9231 12.4457 0.7274
-67.9908 -64.6888 14.8640 0.6838
-23.4198 -36.6090 6.8833 0.8386
-11.7858 -34.6391 5.7952 0.8623
-10.3951 -49.4053 7.9964 0.8151
12.7501 -45.1995 7.4383 0.8268
24.9817 -44.0285 8.0177 0.8146
33.3233 -45.0681 8.8774 0.7969
42.2100 -44.6547 9.7322 0.7797
51.1095 -32.9310 9.6297 0.7817
55.7385 -11.9171 9.0276 0.7939
55.5592 8.4599 8.9011 0.7964
51.2471 14.2761 8.4258 0.8062
29.7406 16.7470 5.4059 0.8709
26.2016 19.2418 5.1488 0.8766
4.7274 5.6559 1.1675 0.9706
3.6746 5.6624 1.0691 0.9730
1.9715 5.6729 0.9512 0.9760
1.2332 5.6774 0.9202 0.9767
0.5317 5.6817 0.9038 0.9772
-0.1551 5.6859 0.9009 0.9772
-0.8425 5.6568 0.9058 0.9771
-1.5664 5.6946 0.9354 0.9764
-2.3362 5.6993 0.9756 0.9754
-4.1652 5.7106 1.1195 0.9718
-5.3347 5.7178 1.2386 0.9688
-6.8065 5.7268 1.4089 0.9646
-8.7197 5.6990 1.6499 0.9587
-28.2558 -0.6787 4.4766 0.8918
-65.0381 -47.1138 12.7198 0.7224
-68.9901 -63.9492 14.8992 0.6832
-18.6728 -28.3682 5.3791 0.8715
-12.2902 -34.6360 5.8209 0.8617
14.9173 -55.6446 9.1244 0.7919
32.9742 -45.8324 8.9426 0.7956
51.4523 -34.1080 9.7772 0.7788
55.9731 -12.7316 9.0917 0.7926
55.4718 -5.7380 8.8328 0.7978
55.5131 0.9719 8.7938 0.7986
51.2426 13.5585 8.3953 0.8068
40.5986 16.1801 6.9220 0.8378
30.6574 16.7413 5.5325 0.8681
26.1984 18.7194 5.0998 0.8777
4.8532 5.6551 1.1803 0.9703
2.8591 5.6556 1.0037 0.9747
1.3107 5.6769 0.9228 0.9767
0.6064 5.6813 0.9049 0.9771
-0.7718 5.6897 0.9094 0.9770
-1.4868 5.6941 0.9321 0.9764
-5.1963 5.7169 1.2236 0.9692
-6.6281 5.7257 1.3872 0.9652
-8.5338 5.7374 1.6287 0.9592
-5.6263 2.8674 1.0002 0.9748
-30.2508 -0.3327 4.7915 0.8847
-89.2963 -34.9161 15.1859 0.6782
-66.2067 -46.6583 12.8285 0.7203
-31.7978 -36.5677 7.6752 0.8218
-24.7806 -36.6007 7.0007 0.8361
-17.7289 -34.5094 6.1449 0.8546
13.9830 -55.0137 8.9904 0.7946
41.1592 -45.8791 9.7622 0.7791
54.0602 -27.9955 9.6423 0.7815
74.1257 -27.6689 12.5316 0.7258
55.4673 -6.4686 8.8447 0.7976
55.5086 0.2491 8.7918 0.7987
51.2383 12.8459 8.3665 0.8074
44.7285 17.1547 7.5875 0.8236
26.1952 18.2066 5.0526 0.8788
3.8869 5.6611 1.0876 0.9726
2.1382 5.6718 0.9600 0.9758
1.3887 5.6764 0.9256 0.9766
0.6812 5.6808 0.9062 0.9771
-1.4078 5.6936 0.9289 0.9765
-2.1642 5.6983 0.9654 0.9756
-2.9950 5.7034 1.0203 0.9742
-3.9406 5.7092 1.0987 0.9723
-6.4550 5.7246 1.3665 0.9657
-60.6251 15.0407 9.8932 0.7765
-30.2525 0.0612 4.7915 0.8847
-88.9940 -33.4688 15.0591 0.6804
-65.6942 -45.0285 12.6145 0.7243
-32.6388 -36.5626 7.7626 0.8200
-25.4788 -36.5964 7.0627 0.8348
-18.1016 -34.1342 6.1195 0.8552
-10.9266 -43.4368 7.0940 0.8341
13.7693 -57.2869 9.3318 0.7877
16.3461 -43.8979 7.4191 0.8272
23.3072 -45.0940 8.0398 0.8142
30.7245 -45.1398 8.6484 0.8016
51.4402 -36.0625 9.9500 0.7754
71.2332 -27.6511 12.1024 0.7338
55.5042 -0.4736 8.7913 0.7987
55.5456 6.2499 8.8531 0.7974
26.1921 17.7032 5.0071 0.8798
6.5022 5.6450 1.3638 0.9657
5.1134 5.6535 1.2074 0.9696
3.9958 5.6604 1.0974 0.9723
3.0442 5.6513 1.0167 0.9743
1.4672 5.6759 0.9285 0.9765
0.7563 5.6803 0.9076 0.9771
0.0670 5.6846 0.9004 0.9772
-0.6213 5.6888 0.9064 0.9771
-1.3292 5.6931 0.9260 0.9766
-2.0795 5.6977 0.9607 0.9757
-19.7658 22.9175 4.7933 0.8846
-6.2870 5.7236 1.3466 0.9662
-66.7440 -15.3546 10.8473 0.7578
-33.4996 -36.5573 7.8535 0.8181
-19.3419 -35.3531 6.3826 0.8494
-11.5289 -43.4331 7.1174 0.8336
15.8398 -44.2931 7.4504 0.8265
22.2100 -44.3783 7.8600 0.8179
29.9968 -45.3284 8.6090 0.8024
38.2773 -44.9694 9.3533 0.7873
51.4651 -47.4695 11.0892 0.7531
68.4329 -27.5946 11.6867 0.7417
55.4583 -7.9360 8.8732 0.7970
55.4998 -1.1963 8.7923 0.7987
55.5411 5.5181 8.8401 0.7977
51.2797 11.4460 8.3218 0.8083
47.0142 16.6406 7.8990 0.8171
34.6825 17.2166 6.1327 0.8549
26.1891 17.2087 4.9633 0.8808
6.6746 5.6439 1.3844 0.9652
3.1478 5.6656 1.0265 0.9741
2.3082 5.6708 0.9697 0.9755
1.5461 5.6755 0.9317 0.9765
0.8317 5.6799 0.9092 0.9770
-0.5465 5.6883 0.9051 0.9771
-1.9957 5.6972 0.9561 0.9758
-2.8075 5.7022 1.0067 0.9746
-3.7240 5.7079 1.0794 0.9728
-19.7519 23.5135 4.8638 0.8831
-6.1238 5.7226 1.3275 0.9666
-7.8473 5.7332 1.5393 0.9614
-86.4829 23.8629 14.2094 0.6954
-72.9211 -35.6087 12.8530 0.7199
-26.4343 -35.9358 7.0657 0.8347
20.7247 -42.7938 7.5309 0.8248
29.0272 -45.1291 8.4986 0.8047
38.4232 -46.3501 9.5356 0.7836
51.4574 -48.7176 11.2233 0.7505
50.9798 -37.7570 10.0478 0.7734
51.4795 -29.2631 9.3788 0.7868
66.0026 -27.6190 11.3321 0.7484
55.4953 -1.9195 8.7948 0.7986
51.2754 10.7463 8.2977 0.8088
35.8322 17.2095 6.2959 0.8513
5.3859 5.6519 1.2365 0.9689
3.2447 5.6650 1.0340 0.9739
2.3945 5.6703 0.9749 0.9754
0.9073 5.6794 0.9109 0.9770
0.2151 5.6837 0.9008 0.9772
-0.4717 5.6879 0.9040 0.9772
-1.1736 5.6922 0.9205 0.9767
-3.6186 5.7072 1.0703 0.9730
-5.9651 5.7216 1.3091 0.9671
-87.0179 25.2340 14.3501 0.6929
-87.6953 3.6050 13.9013 0.7009
-88.8472 -18.0175 14.3585 0.6927
-66.1060 -21.9551 11.0325 0.7542
-66.2537 -68.6254 15.1081 0.6796
-26.4283 -34.9648 6.9419 0.8374
-14.8858 -34.6201 5.9687 0.8585
-14.5699 -87.5430 14.0562 0.6981
14.7189 -44.8053 7.4696 0.8261
51.4214 -39.1308 10.2344 0.7697
51.4741 -30.1536 9.4486 0.7854
5.5273 5.6510 1.2520 0.9685
3.3430 5.6644 1.0418 0.9737
1.7058 5.6745 0.9385 0.9763
-0.3972 5.6874 0.9030 0.9772
-1.0965 5.6917 0.9181 0.9768
-4.5506 5.7129 1.1568 0.9709
-5.8108 5.7207 1.2915 0.9675
-7.4297 5.7306 1.4861 0.9627
-9.6612 5.7443 1.7802 0.9555
-89.0537 -16.8551 14.3551 0.6928
-59.4427 -27.1333 10.3492 0.7675
-65.9229 -66.5269 14.8338 0.6843
-26.8034 -34.5174 6.9217 0.8378
-9.1836 -15.3316 2.8306 0.9302
13.9110 -44.2826 7.3516 0.8286
36.5218 -46.4677 9.3609 0.7871
51.4685 -31.0575 9.5210 0.7839
51.3073 15.9347 8.5092 0.8045
36.1833 16.2326 6.2812 0.8516
26.2091 20.4617 5.2664 0.8740
3.4429 5.6638 1.0498 0.9735
1.7865 5.6740 0.9422 0.9762
0.3634 5.6827 0.9019 0.9772
-0.3229 5.6870 0.9022 0.9772
-4.4297 5.7122 1.1449 0.9711
-7.2314 5.7294 1.4613 0.9633
-9.3782 5.7426 1.7417 0.9564
-89.2765 40.8212 15.5480 0.6720
-87.4158 -15.3693 14.0577 0.6981
-66.2072 -20.0905 10.9583 0.7556
-77.7704 -34.2831 13.4613 0.7088
-68.8552 -67.6996 15.2940 0.6763
-27.5275 -34.5129 6.9921 0.8363
-22.5845 -36.6142 6.8136 0.8401
-15.9633 -34.6135 6.0372 0.8570
-13.2128 -68.3488 11.0258 0.7543
13.4922 -44.9893 7.4391 0.8268
18.7738 -42.9664 7.4265 0.8270
44.1753 -45.2226 10.0128 0.7741
51.4082 -41.2778 10.4422 0.7657
51.0146 -31.6967 9.5125 0.7841
59.8859 -27.8553 10.4609 0.7653
55.4401 -10.9047 8.9491 0.7955
55.4820 -4.0928 8.8114 0.7983
51.3028 15.2037 8.4749 0.8052
26.2057 19.9153 5.2131 0.8752
5.8209 5.6492 1.2847 0.9677
4.5725 5.6569 1.1521 0.9710
2.6592 5.6686 0.9917 0.9750
1.8679 5.6735 0.9460 0.9761
0.4377 5.6823 0.9027 0.9772
-0.2486 5.6865 0.9015 0.9772
-10.2931 62.0939 9.9689 0.7750
-1.6676 5.6952 0.9399 0.9763
-2.4465 5.7000 0.9824 0.9752
-3.3123 5.7053 1.0449 0.9736
-4.3113 5.7115 1.1334 0.9714
-5.5141 5.7189 1.2582 0.9683
-7.0397 5.7282 1.4375 0.9639
-9.1070 5.7409 1.7051 0.9573
-66.1536 -19.1372 10.9073 0.7566
-63.0668 -47.2841 12.4845 0.7267
-69.7630 -66.8286 15.3011 0.6762
-29.9630 -36.5790 7.4891 0.8257
-23.2454 -36.6101 6.8686 0.8389
-11.6549 -34.6399 5.7886 0.8624
18.4865 -43.8566 7.5381 0.8247
58.2470 -28.0213 10.2375 0.7697
58.2063 -19.7949 9.7375 0.7796
55.5187 1.8843 8.7984 0.7985
4.6950 5.6561 1.1643 0.9707
3.6474 5.6626 1.0668 0.9731
-0.1745 5.6860 0.9010 0.9772
-0.8628 5.6608 0.9069 0.9771
18.5596 -42.8730 5.7362 0.8284
43.8733 -45.2202 7.7362 0.7758
55.4389 -11.1004 6.9421 0.7962
55.5220 2.4193 6.8237 0.7993
37.7534 16.1977 5.0442 0.8474
28.8650 16.7526 4.0978 0.8742
5.8604 5.6490 0.9994 0.9677
4.6042 5.6567 0.8955 0.9710
2.6827 5.6685 0.7700 0.9750
1.8892 5.6734 0.7342 0.9762
1.1561 5.6779 0.7115 0.9769
0.4572 5.6822 0.6999 0.9773
-0.2292 5.6864 0.6988 0.9773
-10.2222 62.9935 7.8358 0.7732
-1.6466 5.6951 0.7279 0.9764
-6.9906 5.7279 1.1097 0.9642
-9.0381 5.7405 1.3147 0.9578
-12.0673 5.7591 1.6418 0.9475
-28.4914 -34.5421 5.4978 0.8349
-9.1967 -19.1098 2.6040 0.9181
-12.5266 -36.8163 4.7750 0.8549
-10.6475 -50.6052 6.3496 0.8119
33.5015 -45.3091 6.9188 0.7968
51.1095 -32.9310 7.4653 0.7827
56.7980 -27.5624 7.7517 0.7754
55.4435 -19.0660 7.1989 0.7896
55.4763 -5.0094 6.8393 0.7989
51.7479 14.4157 6.5958 0.8053
29.7405 16.7470 4.1908 0.8715
6.0142 5.6480 1.0130 0.9673
4.7274 5.6559 0.9051 0.9707
3.6746 5.6624 0.8288 0.9732
2.7733 5.6679 0.7748 0.9749
1.9715 5.6729 0.7374 0.9761
-0.8425 5.6568 0.7022 0.9772
-1.5664 5.6946 0.7252 0.9765
-3.1878 5.7046 0.8024 0.9740
-89.3293 -36.2769 11.8382 0.6780
-18.6459 -28.3273 4.1640 0.8723
-13.0082 -36.6596 4.7762 0.8549
-10.5434 -47.0605 5.9215 0.8234
14.6828 -54.7700 6.9624 0.7957
24.1036 -43.8000 6.1385 0.8175
32.4203 -45.0625 6.8162 0.7995
53.0367 -45.2165 8.5575 0.7551
55.4832 -12.6201 6.9865 0.7951
55.6901 7.7393 6.9036 0.7972
51.7435 13.6910 6.5719 0.8060
40.5986 16.1801 5.3662 0.8385
30.6574 16.7413 4.2889 0.8687
6.1723 5.6470 1.0272 0.9668
4.8532 5.6551 0.9150 0.9704
3.7798 5.6617 0.8359 0.9729
2.0544 5.6723 0.7407 0.9760
1.3107 5.6769 0.7154 0.9768
-0.7718 5.6897 0.7050 0.9771
-1.4868 5.6941 0.7226 0.9766
-4.0518 5.7099 0.8597 0.9722
-65.6796 -46.2867 9.8658 0.7234
-23.3843 -34.5383 5.1213 0.8453
-15.9958 -31.1360 4.2980 0.8684
-9.8786 -87.1743 10.7722 0.7022
16.3500 -42.2189 5.5590 0.8332
23.6756 -44.3806 6.1762 0.8165
40.9668 -45.6647 7.5326 0.7810
51.6491 -45.2079 8.4279 0.7583
51.1973 -34.9070 7.6083 0.7790
55.3800 -20.6717 7.2581 0.7880
55.6026 -6.4843 6.8734 0.7980
55.5086 0.2491 6.8157 0.7996
52.3002 6.5753 6.4722 0.8086
51.7391 12.9715 6.5494 0.8066
26.2957 18.2764 3.9320 0.8789
1.3887 5.6764 0.7175 0.9767
0.6812 5.6808 0.7025 0.9772
-0.0070 5.6850 0.6980 0.9773
-0.6965 5.6893 0.7038 0.9772
-2.1642 5.6983 0.7484 0.9757
-3.9406 5.7092 0.8518 0.9724
-5.0612 5.7161 0.9374 0.9697
-10.9327 5.7522 1.5168 0.9514
-67.7582 -16.5196 8.5633 0.7550
-9.2252 -17.3959 2.4177 0.9237
13.0181 -54.1615 6.8396 0.7989
15.9602 -42.8613 5.6157 0.8317
23.2811 -45.0436 6.2257 0.8152
51.6964 -27.6310 7.1973 0.7896
55.4738 -14.1467 7.0293 0.7940
55.5981 -7.2187 6.8839 0.7978
55.5042 -0.4736 6.8153 0.7996
51.7029 5.8175 6.3884 0.8108
51.7347 12.2567 6.5281 0.8071
45.9952 16.9569 6.0191 0.8207
33.5907 17.2233 4.6350 0.8589
26.2926 17.7711 3.8966 0.8799
6.5022 5.6450 1.0573 0.9659
5.1134 5.6535 0.9360 0.9697
3.0442 5.6513 0.7882 0.9745
1.4672 5.6759 0.7198 0.9767
0.7563 5.6803 0.7036 0.9772
-2.0795 5.6977 0.7447 0.9759
-3.8314 5.7085 0.8442 0.9727
-6.2870 5.7236 1.0439 0.9663
-10.5917 5.7501 1.4798 0.9526
-72.3839 -36.5208 9.9548 0.7213
-31.6034 -34.4880 5.7436 0.8282
-24.7139 -34.5301 5.2138 0.8427
-10.4634 -39.4190 5.0076 0.8484
-12.3749 -88.5319 10.9760 0.6975
18.4869 -81.5740 10.2700 0.7138
15.6113 -43.6542 5.6925 0.8296
16.1584 -32.2865 4.4330 0.8646
49.1624 -45.3455 8.2120 0.7637
51.1362 -28.1936 7.1698 0.7903
53.0968 -21.4105 7.0295 0.7940
73.6149 -19.7972 9.3599 0.7355
55.4998 -1.1963 6.8161 0.7995
47.0142 16.6406 6.1235 0.8179
34.6825 17.2166 4.7543 0.8555
6.6746 5.6439 1.0733 0.9654
5.2480 5.6527 0.9471 0.9694
3.1478 5.6656 0.7958 0.9742
2.3081 5.6708 0.7518 0.9756
1.5461 5.6755 0.7223 0.9766
0.8317 5.6799 0.7048 0.9771
0.1410 5.6841 0.6981 0.9773
-0.5465 5.6883 0.7017 0.9772
-2.8075 5.7022 0.7804 0.9747
-3.7240 5.7079 0.8368 0.9729
-19.7519 23.5135 3.7706 0.8836
-6.1238 5.7226 1.0291 0.9668
-7.8473 5.7332 1.1933 0.9616
-89.5649 -19.3802 11.2517 0.6912
-25.4229 -34.5608 5.2680 0.8412
-19.4953 -34.5571 4.8717 0.8522
-15.1947 -36.6462 4.8710 0.8522
-10.8885 -38.9673 4.9679 0.8495
-13.5277 -88.3717 10.9771 0.6975
19.1881 -90.0954 11.3104 0.6899
15.1767 -44.2471 5.7435 0.8282
29.0272 -45.1291 6.5884 0.8055
27.6759 -33.3857 5.3246 0.8397
51.5294 -29.2915 7.2778 0.7875
52.7188 -22.0603 7.0169 0.7943
55.4107 -15.6779 7.0707 0.7929
52.3867 4.5167 6.4561 0.8090
35.8322 17.2095 4.8808 0.8520
26.2575 16.7684 3.8254 0.8820
6.8065 5.6052 1.0826 0.9651
5.3859 5.6519 0.9586 0.9690
2.3945 5.6703 0.7558 0.9755
1.6257 5.6750 0.7248 0.9765
0.9073 5.6794 0.7062 0.9771
0.2151 5.6837 0.6984 0.9773
-1.1736 5.6922 0.7136 0.9768
-2.7156 5.7017 0.7754 0.9749
-3.6186 5.7072 0.8297 0.9731
-5.9651 5.7216 1.0149 0.9672
-7.6349 5.7319 1.1722 0.9623
-26.0934 -34.5217 5.3134 0.8400
-20.0906 -34.5534 4.9077 0.8512
19.9814 -42.6666 5.7848 0.8271
73.5759 -21.8563 9.4242 0.7339
55.5844 -9.4371 6.9226 0.7968
55.4909 -2.6429 6.8211 0.7994
55.5321 4.0604 6.8367 0.7990
55.1258 10.8058 6.8974 0.7974
26.2126 21.0195 4.1255 0.8734
5.5273 5.6510 0.9706 0.9686
3.3430 5.6644 0.8076 0.9738
1.7058 5.6745 0.7275 0.9764
0.9832 5.6789 0.7077 0.9770
0.2892 5.6832 0.6987 0.9773
-0.3972 5.6874 0.7000 0.9773
-1.8303 5.6962 0.7346 0.9762
-7.4297 5.7306 1.1521 0.9629
-88.7071 4.8040 10.9079 0.6991
-41.4809 -13.1794 5.3441 0.8391
-73.5740 -33.5837 9.9304 0.7219
-31.0950 -24.6037 4.8686 0.8523
-34.1940 -34.5072 5.9648 0.8222
-26.8034 -34.5174 5.3659 0.8385
-20.7869 -34.7030 4.9669 0.8496
-16.3226 -36.6393 4.9250 0.8507
-11.8994 -38.6706 4.9679 0.8495
-2.3936 -41.6852 5.1267 0.8451
16.9414 -53.9290 6.9407 0.7963
45.3535 -45.2354 7.8651 0.7725
50.9670 -39.8435 7.9433 0.7705
51.5184 -31.0876 7.3881 0.7847
55.4864 -3.3674 6.8254 0.7993
55.5276 3.3338 6.8302 0.7992
55.7248 10.1716 6.9552 0.7959
36.1833 16.2326 4.8693 0.8523
26.2795 20.5166 4.0936 0.8743
5.6722 5.6501 0.9830 0.9683
2.5699 5.6692 0.7643 0.9752
-1.0133 5.6555 0.7055 0.9771
-1.7486 5.6957 0.7316 0.9763
-4.4297 5.7122 0.8876 0.9713
-7.2314 5.7294 1.1328 0.9635
-41.9861 -12.7407 5.3874 0.8379
-16.8295 -36.4917 4.9341 0.8505
-12.3911 -38.4787 4.9635 0.8497
14.1241 -47.0963 6.0371 0.8202
26.5861 -45.1141 6.4296 0.8097
50.9604 -40.9182 8.0246 0.7684
51.0146 -31.6967 7.3744 0.7850
71.4466 -23.2646 9.2259 0.7387
55.5232 2.6086 6.8249 0.7993
37.4068 16.1998 5.0052 0.8485
26.2761 19.9688 4.0522 0.8755
3.5443 5.6632 0.8203 0.9734
2.6592 5.6686 0.7688 0.9751
1.8679 5.6735 0.7334 0.9762
1.1360 5.6780 0.7110 0.9769
0.4378 5.6823 0.6998 0.9773
-2.4465 5.7000 0.7616 0.9753
-4.3113 5.7115 0.8786 0.9716
-7.0397 5.7282 1.1144 0.9641
-9.1070 5.7409 1.3218 0.9575
-12.1750 5.7598 1.6537 0.9472
-89.9746 -38.2716 12.0054 0.6743
-35.9744 -34.4612 6.1168 0.8181
-28.2956 -34.5434 5.4827 0.8353
-21.8212 -34.3670 4.9985 0.8487
-9.1508 -19.1811 2.6094 0.9179
-12.5292 -37.2384 4.8242 0.8536
25.0312 -43.7682 6.1908 0.8161
33.7416 -45.3106 6.9366 0.7964
57.2994 -27.5654 7.8073 0.7739
55.6113 -11.6923 6.9775 0.7953
55.4775 -4.8194 6.8374 0.7990
55.6958 8.6745 6.9210 0.7968
38.7636 16.1914 5.1581 0.8443
29.5078 16.7484 4.1660 0.8722
26.3029 19.4543 4.0170 0.8765
5.9737 5.6483 1.0094 0.9674
3.6474 5.6626 0.8270 0.9732
1.2130 5.6775 0.7128 0.9769
-0.1744 5.6860 0.6985 0.9773
-0.8628 5.6608 0.7031 0.9772
18.4190 -42.5482 4.0563 0.8301
26.3791 -45.1127 4.5721 0.8107
33.7776 -44.4598 4.8850 0.7992
43.8733 -45.2202 5.5123 0.7765
49.5597 -23.2575 4.7896 0.8027
55.5387 -11.1204 4.9555 0.7966
55.5807 -4.2901 4.8771 0.7994
55.5292 2.4196 4.8628 0.8000
55.6638 9.2188 4.9363 0.7973
19.0259 5.5680 1.7344 0.9235
37.7534 16.1976 3.5942 0.8479
26.2049 19.7746 2.8721 0.8765
5.8604 5.6490 0.7121 0.9678
2.6827 5.6685 0.5487 0.9751
1.8892 5.6734 0.5232 0.9763
1.1561 5.6779 0.5069 0.9770
-2.4235 5.6999 0.5419 0.9754
-6.9906 5.7279 0.7907 0.9644
-12.0673 5.7591 1.1698 0.9477
-66.3378 -18.9463 6.0359 0.7580
-42.0330 -39.9917 5.0759 0.7922
14.4833 -93.0806 8.2415 0.6851
13.3340 -47.2695 4.2969 0.8210
17.8205 -42.6814 4.0465 0.8305
50.9519 -42.3060 5.7940 0.7665
51.0099 -32.8669 5.3089 0.7838
55.5248 1.6955 4.8600 0.8001
55.6592 8.4751 4.9257 0.7977
19.9669 5.5623 1.8134 0.9201
2.7733 5.6679 0.5521 0.9750
1.9715 5.6729 0.5254 0.9762
0.5317 5.6817 0.4993 0.9773
-0.1551 5.6859 0.4976 0.9774
-3.1878 5.7046 0.5717 0.9741
-4.1652 5.7106 0.6184 0.9720
-5.3347 5.7178 0.6842 0.9691
-8.7197 5.6990 0.9114 0.9590
-30.9752 -36.5728 4.1931 0.8249
-11.3366 -50.6010 4.5368 0.8120
-9.5131 -94.9876 8.3519 0.6816
14.3714 -53.6085 4.8558 0.8002
24.0936 -43.7818 4.3721 0.8182
41.6307 -45.2066 5.3766 0.7813
53.0364 -45.2163 6.0975 0.7559
51.0041 -33.8109 5.3537 0.7822
54.9417 -27.5510 5.3773 0.7813
55.3923 -19.8586 5.1482 0.7896
55.5295 -12.6307 4.9823 0.7956
49.4478 6.8719 4.3677 0.8184
20.9672 5.5478 1.8975 0.9166
40.5986 16.1801 3.8236 0.8391
26.1984 18.7194 2.8170 0.8787
4.8532 5.6551 0.6520 0.9705
3.7798 5.6617 0.5956 0.9730
2.0544 5.6723 0.5278 0.9761
1.3107 5.6769 0.5097 0.9769
0.6064 5.6813 0.4999 0.9773
-0.0810 5.6855 0.4975 0.9774
-0.7718 5.6897 0.5023 0.9772
-1.4868 5.6941 0.5149 0.9766
-4.0518 5.7099 0.6125 0.9723
-6.6281 5.7257 0.7663 0.9654
-8.5338 5.7374 0.8997 0.9596
-5.6261 2.8673 0.5525 0.9750
-8.0950 2.9617 0.7541 0.9660
-30.1741 -0.3318 2.6401 0.8859
-66.6189 -17.1637 6.0187 0.7586
-31.7978 -36.5678 4.2396 0.8232
-16.0202 -31.1835 3.0672 0.8687
-13.5469 -36.6563 3.4190 0.8548
16.6110 -42.8928 4.0242 0.8314
31.5957 -45.1448 4.8209 0.8015
51.1973 -34.9070 5.4212 0.7797
53.1807 -27.5401 5.2396 0.7863
55.5248 -13.3923 4.9971 0.7951
55.5673 -6.4802 4.8945 0.7988
55.5159 0.2491 4.8571 0.8002
45.9269 5.7741 4.0497 0.8304
51.2884 12.8585 4.6260 0.8087
32.5522 17.2297 3.2223 0.8625
4.9818 5.6543 0.6593 0.9702
-0.0070 5.6850 0.4974 0.9774
-1.4078 5.6936 0.5131 0.9767
-2.1642 5.6983 0.5333 0.9758
-2.9950 5.7034 0.5636 0.9745
-3.9406 5.7092 0.6069 0.9725
-5.0612 5.7161 0.6680 0.9698
-6.4550 5.7246 0.7548 0.9660
-10.9327 5.7522 1.0808 0.9516
-15.1777 5.7783 1.4209 0.9369
-60.5662 15.0261 5.4596 0.7784
-46.8632 -11.4255 4.2201 0.8239
-53.0202 -27.6230 5.2305 0.7866
-25.4789 -36.5965 3.9013 0.8361
-14.0354 -36.5089 3.4220 0.8547
-10.9266 -43.4368 3.9186 0.8354
-11.0291 -87.1673 7.6870 0.7027
13.8658 -57.6883 5.1908 0.7880
16.4639 -44.2141 4.1277 0.8274
23.3071 -45.0939 4.4410 0.8156
30.7121 -45.1216 4.7753 0.8032
38.7886 -44.3861 5.1571 0.7892
48.9148 -43.9524 5.7533 0.7679
51.1913 -35.8880 5.4696 0.7780
51.5071 -27.5298 5.1095 0.7910
55.5201 -14.1585 5.0128 0.7945
55.5627 -7.2141 4.9019 0.7985
55.5115 -0.4737 4.8568 0.8002
51.2840 12.1500 4.6110 0.8093
33.5907 17.2233 3.3026 0.8594
3.9958 5.6604 0.6062 0.9726
3.0442 5.6513 0.5616 0.9746
2.2227 5.6713 0.5329 0.9758
0.7563 5.6803 0.5013 0.9773
0.0670 5.6846 0.4974 0.9774
-1.3292 5.6931 0.5115 0.9768
-2.9006 5.7028 0.5598 0.9746
-19.7658 22.9175 2.6477 0.8856
-10.5917 5.7501 1.0544 0.9528
-14.5940 5.7747 1.3731 0.9389
-74.3809 -37.5284 7.2889 0.7157
-26.0864 -36.4477 3.9213 0.8353
12.9398 -57.0975 5.1221 0.7905
15.8521 -44.3274 4.1187 0.8278
38.2410 -44.9267 5.1617 0.7891
48.3718 -44.6164 5.7573 0.7678
55.5153 -14.9297 5.0295 0.7939
55.5582 -7.9503 4.9102 0.7982
55.5070 -1.1965 4.8574 0.8002
49.1302 4.8812 4.3195 0.8202
45.6258 16.1492 4.2344 0.8234
26.1891 17.2087 2.7416 0.8818
5.2480 5.6527 0.6748 0.9695
3.1478 5.6656 0.5670 0.9743
2.3081 5.6708 0.5357 0.9757
0.1410 5.6841 0.4974 0.9774
-2.8075 5.7022 0.5561 0.9748
-3.7240 5.7079 0.5963 0.9730
-7.8473 5.7332 0.8503 0.9617
-10.2669 5.7481 1.0294 0.9539
-21.0081 5.7967 1.9066 0.9162
-26.4343 -35.9358 3.9030 0.8360
-15.1947 -36.6462 3.4708 0.8527
-12.1354 -43.4294 3.9451 0.8344
18.9248 -88.8592 7.9485 0.6943
15.0971 -44.0150 4.0710 0.8296
29.0272 -45.1291 4.6945 0.8062
37.4609 -45.1893 5.1354 0.7900
50.9798 -37.7570 5.5502 0.7751
55.4180 -15.6800 5.0388 0.7935
55.5537 -8.6892 4.9194 0.7979
49.5187 4.2694 4.3484 0.8191
51.2754 10.7463 4.5835 0.8103
48.9989 16.6285 4.5270 0.8124
6.8065 5.6052 0.7714 0.9652
5.3859 5.6519 0.6830 0.9691
4.2198 5.6590 0.6176 0.9721
2.3945 5.6703 0.5385 0.9756
0.9073 5.6794 0.5032 0.9772
0.2151 5.6837 0.4976 0.9774
-0.4717 5.6879 0.4993 0.9773
-1.9126 5.6967 0.5257 0.9762
-2.7156 5.7017 0.5525 0.9750
-4.6741 5.7137 0.6458 0.9708
-7.6349 5.7319 0.8353 0.9624
-20.0288 5.8081 1.8245 0.9197
-58.9944 -27.8626 5.7080 0.7695
14.6521 -44.6021 4.1073 0.8282
19.8674 -42.4230 4.0984 0.8285
35.4197 -43.8776 4.9335 0.7974
46.5517 -45.2367 5.6790 0.7706
55.4132 -16.4609 5.0574 0.7929
55.5393 4.0609 4.8720 0.7996
53.7907 10.5442 4.7956 0.8024
51.1388 16.6153 4.7043 0.8058
27.0195 16.7637 2.7819 0.8801
5.5273 5.6510 0.6916 0.9688
4.3350 5.6583 0.6236 0.9718
3.3430 5.6644 0.5754 0.9739
1.7058 5.6745 0.5184 0.9765
-0.3972 5.6874 0.4988 0.9774
-1.0965 5.6917 0.5071 0.9770
-1.8303 5.6962 0.5234 0.9763
-3.5149 5.7066 0.5864 0.9734
-5.8108 5.7207 0.7134 0.9678
-7.4297 5.7306 0.8209 0.9630
-13.0553 5.7652 1.2486 0.9443
-19.0767 5.8022 1.7445 0.9231
-88.7927 4.8086 7.7797 0.6997
-16.3226 -36.6393 3.5092 0.8512
-12.5275 -40.7119 3.7266 0.8428
19.3024 -42.6536 4.0960 0.8286
27.5046 -45.3131 4.6376 0.8083
45.3211 -45.2030 5.6002 0.7734
51.0202 -30.7870 5.2134 0.7872
49.3341 -22.1702 4.7325 0.8048
55.5349 3.3342 4.8674 0.7998
55.6696 10.1616 4.9509 0.7967
26.2092 20.4617 2.9091 0.8750
5.6722 5.6501 0.7004 0.9684
3.4429 5.6638 0.5799 0.9737
1.0594 5.6785 0.5054 0.9771
0.3634 5.6827 0.4982 0.9774
-0.3229 5.6870 0.4983 0.9774
-1.7486 5.6957 0.5213 0.9764
-2.5351 5.7005 0.5458 0.9753
-5.6605 5.7198 0.7040 0.9682
-7.2314 5.7294 0.8072 0.9636
-12.6018 5.7621 1.2123 0.9459
-18.2041 5.7968 1.6715 0.9262
-67.7418 -20.5562 6.1935 0.7526
-27.5276 -34.5129 3.8623 0.8376
-16.8295 -36.4917 3.5158 0.8510
-12.5396 -38.9398 3.5791 0.8485
-10.7775 -55.7508 4.9679 0.7961
15.7220 -91.1615 8.0933 0.6897
14.0304 -46.7840 4.2732 0.8219
18.7623 -42.9401 4.0997 0.8285
26.5861 -45.1141 4.5814 0.8104
33.7544 -44.1172 4.8599 0.8001
44.1750 -45.2222 5.5308 0.7758
51.4082 -41.2778 5.7681 0.7674
49.2686 -22.9168 4.7539 0.8040
55.6650 9.4137 4.9392 0.7972
18.7934 5.5695 1.7149 0.9243
37.4068 16.1998 3.5664 0.8490
5.8209 5.6492 0.7097 0.9680
2.6592 5.6686 0.5478 0.9752
1.8679 5.6735 0.5226 0.9763
1.1360 5.6780 0.5066 0.9770
0.4377 5.6823 0.4986 0.9774
-0.2486 5.6865 0.4980 0.9774
-1.6677 5.6952 0.5192 0.9765
-3.3123 5.7053 0.5772 0.9739
-4.3113 5.7115 0.6261 0.9717
-5.5141 5.7189 0.6950 0.9686
-7.0397 5.7282 0.7940 0.9642
-29.9630 -36.5790 4.1368 0.8271
-23.2454 -36.6101 3.7941 0.8402
-9.1490 -19.1773 1.8589 0.9182
-12.5292 -37.2384 3.4374 0.8541
-10.5267 -50.8896 4.5465 0.8117
42.9833 -45.1642 5.4548 0.7785
51.0531 -42.0977 5.7894 0.7667
50.1331 -24.1179 4.8672 0.7998
55.5353 -11.6764 4.9649 0.7962
55.5259 1.8845 4.8607 0.8001
38.7636 16.1914 3.6753 0.8448
29.5078 16.7484 2.9685 0.8726
26.2025 19.3800 2.8513 0.8773
4.6950 5.6561 0.6431 0.9709
2.7495 5.6681 0.5512 0.9750
1.9499 5.6730 0.5248 0.9762
-0.8628 5.6608 0.5010 0.9773
26.0142 -44.4887 2.7009 0.8135
25.5713 -33.6583 2.2153 0.8442
51.1724 -41.3756 3.4488 0.7683
28.9443 -18.1206 1.7898 0.8722
50.7400 -23.8114 2.9374 0.7989
60.4479 -12.1033 3.2308 0.7812
60.3985 -4.6619 3.1748 0.7845
60.3505 2.6297 3.1658 0.7851
60.3027 9.9871 3.2034 0.7828
19.0259 5.5680 1.0389 0.9237
28.8645 16.7524 1.7490 0.8749
6.9133 6.6638 0.5032 0.9623
4.6042 5.6567 0.3822 0.9712
2.6827 5.6685 0.3287 0.9752
1.8892 5.6734 0.3134 0.9763
0.4572 5.6822 0.2988 0.9774
-1.6436 5.6846 0.3101 0.9766
-2.4194 5.6903 0.3241 0.9755
-4.2711 5.6985 0.3732 0.9719
-9.0381 5.7405 0.5611 0.9580
-12.0673 5.7591 0.7008 0.9479
-28.3030 5.8589 1.5147 0.8907
-28.4914 -34.5422 2.3466 0.8358
-22.1224 -34.5811 2.1514 0.8484
-11.9141 -35.0161 1.9384 0.8623
-10.5626 -50.2015 2.6886 0.8143
14.0836 -90.5122 4.8006 0.6929
16.0230 -56.8020 3.0930 0.7895
24.8333 -43.7669 2.6372 0.8175
25.7560 -27.2478 1.9650 0.8606
51.1095 -32.9310 3.1864 0.7839
44.2763 -21.4859 2.5792 0.8211
60.5063 -20.8070 3.3533 0.7739
60.4534 -12.9252 3.2398 0.7807
60.3557 1.8430 3.1646 0.7852
29.7405 16.7470 1.7888 0.8722
26.2016 19.2418 1.7037 0.8779
4.7274 5.6559 0.3863 0.9709
1.9715 5.6729 0.3147 0.9762
1.2332 5.6774 0.3045 0.9770
-2.3322 5.6896 0.3223 0.9757
-3.1783 5.6875 0.3415 0.9742
-4.1555 5.6973 0.3696 0.9721
-5.3347 5.7178 0.4098 0.9692
-16.4767 5.7862 0.9152 0.9324
-29.2514 -34.5375 2.3720 0.8342
-9.3258 -93.1177 4.9045 0.6874
12.9910 -91.2996 4.8330 0.6912
32.4836 -45.1504 2.9150 0.8003
25.6073 -27.8068 1.9811 0.8595
32.0053 -27.2862 2.2042 0.8450
60.5123 -21.6941 3.3690 0.7730
60.4090 -6.2487 3.1828 0.7841
20.9979 5.5559 1.1383 0.9167
40.5986 16.1801 2.2904 0.8394
30.6574 16.7414 1.8306 0.8694
4.8532 5.6551 0.3905 0.9706
3.7798 5.6617 0.3568 0.9731
2.8591 5.6556 0.3321 0.9749
2.0544 5.6723 0.3162 0.9761
1.3107 5.6769 0.3053 0.9769
0.6064 5.6813 0.2994 0.9774
-0.0810 5.6855 0.2980 0.9775
-0.7718 5.6897 0.3009 0.9773
-1.4840 5.6834 0.3078 0.9767
-2.2458 5.6890 0.3205 0.9758
-3.0813 5.6866 0.3390 0.9744
-4.0421 5.6961 0.3660 0.9724
-5.1963 5.7169 0.4049 0.9695
-6.6174 5.7165 0.4583 0.9656
-23.4079 -34.5732 2.1881 0.8460
-16.0645 -31.2696 1.8424 0.8687
-12.8217 -34.6940 1.9384 0.8623
-10.4904 -44.1230 2.3768 0.8339
14.6631 -57.6896 3.1195 0.7879
17.0683 -44.0737 2.4770 0.8275
31.5956 -45.1447 2.8878 0.8019
25.6028 -28.5387 2.0093 0.8576
31.1680 -27.2810 2.1708 0.8471
43.6041 -22.5808 2.5734 0.8214
60.5184 -22.5897 3.3854 0.7720
60.4143 -7.0454 3.1876 0.7838
60.3660 0.2709 3.1637 0.7852
22.1330 5.5490 1.1958 0.9127
42.1624 16.1705 2.3666 0.8345
26.1952 18.2066 1.6719 0.8800
7.4729 6.6604 0.5246 0.9607
4.9818 5.6543 0.3949 0.9703
3.8869 5.6611 0.3599 0.9729
25.8885 49.5954 2.9320 0.7992
2.1382 5.6718 0.3177 0.9760
-0.0070 5.6850 0.2979 0.9775
-0.6965 5.6893 0.3004 0.9773
-1.4051 5.6829 0.3068 0.9768
-2.1604 5.6883 0.3189 0.9759
-2.9877 5.6893 0.3368 0.9746
-3.9308 5.6950 0.3627 0.9727
-5.0612 5.7161 0.4001 0.9699
-10.9327 5.7522 0.6474 0.9517
-23.4967 5.8294 1.2687 0.9076
-24.0674 -34.5691 2.2075 0.8447
-13.2956 -34.5845 1.9418 0.8621
-8.3148 -65.7149 3.4714 0.7670
23.2811 -45.0437 2.6573 0.8162
51.4402 -36.0625 3.2924 0.7775
44.3490 -23.7039 2.6354 0.8176
60.5245 -23.4942 3.4025 0.7710
60.4701 -15.4208 3.2705 0.7788
60.4196 -7.8447 3.1930 0.7835
23.3890 5.5412 1.2597 0.9082
25.8711 9.5378 1.4451 0.8954
25.8908 13.2752 1.5248 0.8900
6.4999 5.6430 0.4511 0.9661
3.9958 5.6604 0.3631 0.9726
3.0442 5.6513 0.3364 0.9746
2.2227 5.6713 0.3192 0.9759
0.7563 5.6803 0.3003 0.9773
-1.3267 5.6823 0.3058 0.9769
-2.0759 5.6877 0.3173 0.9760
-2.8959 5.6935 0.3348 0.9747
-19.7658 22.9175 1.5861 0.8858
-6.2870 5.7236 0.4456 0.9665
-8.0676 5.7346 0.5187 0.9611
-14.5940 5.7747 0.8225 0.9391
-22.2229 5.8215 1.2039 0.9121
-72.5852 -36.6224 4.2608 0.7221
-24.7139 -34.5302 2.2254 0.8436
-18.9084 -34.5607 2.0646 0.8540
-10.4960 -39.5415 2.1440 0.8489
-9.1816 -65.6871 3.4760 0.7667
13.3910 -59.0885 3.1752 0.7845
16.1555 -32.2806 1.8918 0.8654
29.8683 -45.1341 2.8364 0.8051
25.5934 -30.0679 2.0693 0.8537
29.5667 -27.2712 2.1080 0.8512
50.9860 -36.7433 3.2936 0.7775
51.1362 -28.1936 3.0603 0.7914
60.5307 -24.4081 3.4205 0.7700
60.4758 -16.2637 3.2820 0.7781
44.1924 4.3906 2.3274 0.8370
24.7871 5.5326 1.3310 0.9033
45.6258 16.1492 2.5365 0.8238
34.6825 17.2166 2.0293 0.8563
26.1891 17.2087 1.6423 0.8820
6.6649 5.6357 0.4574 0.9656
4.1068 5.6597 0.3665 0.9724
3.1478 5.6656 0.3397 0.9744
2.3081 5.6708 0.3209 0.9758
0.1410 5.6841 0.2980 0.9775
-0.5465 5.6883 0.2995 0.9774
-1.2488 5.6818 0.3049 0.9770
-1.9921 5.6871 0.3158 0.9762
-3.7142 5.6928 0.3562 0.9731
-7.8473 5.7332 0.5093 0.9618
-14.0480 5.7713 0.7959 0.9410
-21.0726 5.8145 1.1456 0.9162
-25.4229 -34.5608 2.2485 0.8421
-19.4953 -34.5571 2.0794 0.8531
-14.3372 -34.5781 1.9618 0.8608
-10.4511 -37.4017 2.0352 0.8559
18.6099 -87.3806 4.6821 0.6992
21.8123 -45.0396 2.6227 0.8184
29.0271 -45.1290 2.8121 0.8066
25.5885 -30.8675 2.1013 0.8516
28.7999 -27.2665 2.0785 0.8531
50.9798 -37.7570 3.3247 0.7756
51.4796 -29.2632 3.1034 0.7888
60.4815 -17.1126 3.2941 0.7774
48.9989 16.6285 2.7118 0.8128
26.2575 16.7684 1.6328 0.8827
6.8065 5.6052 0.4621 0.9653
5.3859 5.6519 0.4092 0.9692
4.2198 5.6590 0.3700 0.9721
3.2447 5.6650 0.3421 0.9742
2.3945 5.6703 0.3226 0.9756
0.9073 5.6794 0.3014 0.9772
0.2151 5.6837 0.2981 0.9775
-0.4717 5.6879 0.2991 0.9774
-1.9092 5.6865 0.3144 0.9763
-2.7112 5.6925 0.3304 0.9751
-4.6651 5.7027 0.3861 0.9709
-5.9651 5.7216 0.4332 0.9674
-7.6349 5.7319 0.5003 0.9625
-36.1926 5.9026 1.9218 0.8634
-58.8907 -27.8136 3.4132 0.7704
-33.3199 -34.5126 2.5141 0.8252
-20.0906 -34.5534 2.0947 0.8521
-11.7775 -27.3910 1.5626 0.8874
28.2000 -45.1239 2.7887 0.8080
25.5834 -31.6924 2.1346 0.8495
28.0544 -27.2619 2.0501 0.8550
51.4214 -39.1308 3.3864 0.7720
50.6915 -21.9920 2.8959 0.8015
60.4872 -17.9682 3.3069 0.7767
60.4356 -10.2607 3.2126 0.7823
55.1258 10.8059 2.9440 0.7985
8.2562 6.6205 0.5546 0.9585
4.3350 5.6583 0.3736 0.9719
3.3430 5.6644 0.3447 0.9740
1.7058 5.6745 0.3105 0.9765
0.9832 5.6789 0.3020 0.9772
-1.8269 5.6859 0.3130 0.9764
-2.6205 5.6918 0.3284 0.9752
-3.5051 5.6907 0.3503 0.9736
-7.4297 5.7306 0.4917 0.9631
-9.6612 5.7443 0.5891 0.9560
-19.0767 5.8022 1.0450 0.9232
-33.3752 5.8901 1.7761 0.8731
-14.0304 -78.0164 4.1543 0.7280
14.1244 -44.9619 2.4699 0.8280
20.2020 -44.6413 2.5680 0.8218
27.3318 -45.0284 2.7605 0.8098
25.5781 -32.5438 2.1693 0.8472
27.3286 -27.2574 2.0228 0.8568
51.4685 -31.0575 3.1504 0.7860
60.4930 -18.8302 3.3203 0.7759
60.3919 -3.6650 3.1708 0.7848
60.3440 3.6229 3.1682 0.7849
17.9439 5.5729 0.9847 0.9275
26.2091 20.4617 1.7426 0.8753
6.6912 6.6652 0.4950 0.9629
4.4526 5.6576 0.3773 0.9716
3.4429 5.6638 0.3474 0.9738
2.5699 5.6692 0.3262 0.9754
-2.5309 5.6911 0.3264 0.9754
-3.4031 5.6897 0.3475 0.9738
-5.6605 5.7198 0.4217 0.9683
-7.2272 5.7261 0.4832 0.9637
-9.3782 5.7426 0.5763 0.9569
-12.6018 5.7621 0.7262 0.9460
-30.9312 5.8751 1.6500 0.8815
-27.5276 -34.5129 2.3136 0.8379
-21.3334 -34.5859 2.1297 0.8498
-11.3375 -35.2070 1.9384 0.8623
19.0216 -43.5335 2.4898 0.8267
51.4082 -41.2778 3.4552 0.7679
51.0146 -31.6967 3.1476 0.7862
60.4465 -11.8895 3.2286 0.7813
60.3013 10.1978 3.2051 0.7827
18.7934 5.5695 1.0273 0.9245
37.4068 16.1998 2.1363 0.8494
28.6422 16.7537 1.7390 0.8755
26.2058 19.9153 1.7250 0.8765
4.5725 5.6569 0.3812 0.9713
3.5443 5.6632 0.3501 0.9736
2.6592 5.6686 0.3281 0.9752
0.4377 5.6823 0.2987 0.9774
-0.2486 5.6865 0.2983 0.9775
-1.6646 5.6847 0.3104 0.9766
-2.4424 5.6904 0.3245 0.9755
-7.0249 5.7162 0.4746 0.9644
-12.1750 5.7598 0.7059 0.9475
-17.4016 5.7919 0.9612 0.9292
-28.6898 5.8373 1.5344 0.8893
-66.1849 -19.1462 3.6108 0.7588
-36.0109 -34.4961 2.6134 0.8189
-28.2956 -34.5434 2.3402 0.8362
-9.1424 -19.1634 1.1127 0.9185
-10.5268 -50.8899 2.7235 0.8121
14.6230 -91.9204 4.8779 0.6888
18.9176 -44.8795 2.5524 0.8228
25.0312 -43.7682 2.6424 0.8171
60.5048 -20.5766 3.3493 0.7742
60.4520 -12.7101 3.2374 0.7808
44.1459 6.8756 2.3415 0.8361
3.6474 5.6626 0.3530 0.9734
2.7495 5.6681 0.3302 0.9751
0.5122 5.6818 0.2990 0.9774
33.7603 -27.2970 0.7578 0.8406
84.1816 -27.7283 1.5470 0.7015
18.9706 5.5519 0.3450 0.9240
28.9839 16.8217 0.5849 0.8745
26.2752 19.8276 0.5746 0.8766
6.4200 6.1884 0.1556 0.9650
4.6042 5.6567 0.1273 0.9712
1.8892 5.6734 0.1044 0.9764
0.4572 5.6822 0.0995 0.9775
-0.2292 5.6864 0.0993 0.9775
-9.9135 61.0915 1.0803 0.7807
-1.6396 5.6707 0.1030 0.9767
-2.4133 5.6758 0.1077 0.9756
-5.4765 5.7186 0.1382 0.9688
-17.2026 5.7907 0.3168 0.9300
-28.3029 5.8589 0.5045 0.8908
-65.8595 -18.8096 1.1955 0.7603
-9.1944 -19.1051 0.3701 0.9187
-12.4253 -36.5187 0.6733 0.8570
21.6171 -51.7744 0.9793 0.7989
25.5657 -34.5763 0.7506 0.8420
32.8689 -27.2915 0.7457 0.8429
42.4482 -27.3504 0.8814 0.8171
44.0523 -21.3766 0.8556 0.8221
41.0026 16.9630 0.7745 0.8373
29.8434 16.8049 0.5978 0.8720
4.7274 5.6559 0.1287 0.9709
2.7733 5.6679 0.1101 0.9751
-3.1662 5.6659 0.1133 0.9744
-4.1311 5.6639 0.1224 0.9723
-5.3347 5.7178 0.1365 0.9692
-6.8065 5.7268 0.1553 0.9650
-16.4767 5.7862 0.3048 0.9325
-28.9186 -34.1446 0.7810 0.8361
-12.9571 -36.5154 0.6763 0.8564
-11.3366 -50.6010 0.9051 0.8127
25.5598 -35.5268 0.7639 0.8394
25.6073 -27.8068 0.6598 0.8597
32.0053 -27.2862 0.7341 0.8451
41.2472 -27.3430 0.8638 0.8204
42.4206 -21.2722 0.8283 0.8271
45.6710 6.3470 0.8048 0.8315
20.9760 5.5501 0.3787 0.9169
30.6574 16.7414 0.6097 0.8696
26.2687 18.7696 0.5635 0.8788
6.5558 5.9980 0.1551 0.9651
4.8532 5.6551 0.1301 0.9706
2.0544 5.6723 0.1053 0.9762
-0.0810 5.6855 0.0993 0.9775
-3.0725 5.6703 0.1126 0.9745
-4.0186 5.6630 0.1212 0.9726
-5.1963 5.7169 0.1348 0.9696
-6.6281 5.7257 0.1529 0.9656
-8.5338 5.7374 0.1795 0.9597
-24.7433 5.7978 0.4436 0.9033
-30.1878 -0.3320 0.5270 0.8862
-64.2851 -16.5624 1.1587 0.7668
-63.8714 -45.0124 1.3639 0.7315
-25.9290 -38.2968 0.8073 0.8311
-16.1088 -31.3559 0.6153 0.8685
-13.4936 -36.5122 0.6794 0.8558
-10.1210 -42.5696 0.7638 0.8394
22.9754 -90.3929 1.6280 0.6886
25.5538 -36.5119 0.7779 0.8367
31.1680 -27.2810 0.7230 0.8473
40.0930 -27.3359 0.8470 0.8236
41.6951 -21.5922 0.8196 0.8287
73.9895 -27.6181 1.3785 0.7291
21.8559 2.7478 0.3845 0.9156
22.1330 5.5490 0.3983 0.9128
25.8711 9.9223 0.4837 0.8951
32.5522 17.2297 0.6429 0.8630
26.2656 18.2555 0.5583 0.8799
6.6234 5.9032 0.1549 0.9651
3.8869 5.6611 0.1199 0.9729
2.1382 5.6718 0.1058 0.9760
1.3887 5.6764 0.1020 0.9769
-0.0070 5.6850 0.0992 0.9775
-1.4027 5.6732 0.1020 0.9769
-2.1550 5.6741 0.1059 0.9760
-5.0612 5.7161 0.1333 0.9699
-6.4550 5.7246 0.1506 0.9661
-8.2963 5.7360 0.1761 0.9605
-10.8884 5.7289 0.2148 0.9520
-23.4714 5.8231 0.4221 0.9078
-30.3665 0.0615 0.5300 0.8856
-72.0725 -37.5490 1.4185 0.7224
-13.1408 -34.1819 0.6392 0.8637
-10.1064 -40.1761 0.7231 0.8473
21.3978 -57.4642 1.0703 0.7825
23.3072 -45.0940 0.8860 0.8162
25.5359 -37.5168 0.7922 0.8340
25.5981 -29.2921 0.6790 0.8559
30.3556 -27.2760 0.7123 0.8494
84.0883 -21.4439 1.5147 0.7067
41.7146 4.6936 0.7327 0.8454
23.3891 5.5412 0.4196 0.9083
25.8663 9.5361 0.4812 0.8956
26.2625 17.7508 0.5533 0.8809
2.2227 5.6713 0.1063 0.9759
1.4672 5.6759 0.1023 0.9768
-0.6213 5.6888 0.0999 0.9774
-2.0707 5.6735 0.1054 0.9761
-2.8885 5.6789 0.1112 0.9748
-3.7997 5.6614 0.1190 0.9731
-19.7658 22.9175 0.5283 0.8860
-14.5940 5.7747 0.2740 0.9391
-22.2054 5.8170 0.4007 0.9123
-82.7947 -8.7704 1.4533 0.7167
-77.3476 -17.7940 1.3854 0.7280
-72.5730 -36.6163 1.4189 0.7224
-26.4404 -36.9424 0.7930 0.8338
-19.3420 -35.3532 0.7034 0.8511
-10.0932 -38.0242 0.6867 0.8544
-9.6133 -68.7754 1.2121 0.7574
21.3835 -59.7950 1.1085 0.7757
25.5307 -38.5796 0.8075 0.8310
29.5667 -27.2712 0.7021 0.8514
37.9103 -27.3202 0.8157 0.8295
68.4061 -27.5838 1.2874 0.7445
81.7854 -21.9945 1.4783 0.7126
25.8616 9.1537 0.4789 0.8961
26.1891 17.2087 0.5470 0.8822
6.7578 5.7143 0.1545 0.9652
5.2480 5.6527 0.1346 0.9696
4.1068 5.6597 0.1221 0.9724
3.1478 5.6656 0.1131 0.9744
1.5461 5.6755 0.1027 0.9767
-1.2485 5.6804 0.1015 0.9770
-2.7957 5.6783 0.1105 0.9750
-19.7519 23.5136 0.5360 0.8844
-7.8473 5.7332 0.1696 0.9619
-14.0480 5.7713 0.2651 0.9411
-21.0512 5.8086 0.3812 0.9163
-32.1230 -34.1515 0.8184 0.8290
-26.4343 -35.9358 0.7787 0.8365
-12.1354 -43.4295 0.7871 0.8349
-10.1719 -66.4496 1.1734 0.7642
22.1245 -45.6842 0.8860 0.8162
25.5885 -30.8675 0.6998 0.8518
36.8286 -27.2763 0.8000 0.8325
39.8140 -22.6320 0.7994 0.8326
51.2754 10.7463 0.9145 0.8109
25.8570 8.7750 0.4766 0.8965
35.8322 17.2095 0.6938 0.8530
6.8065 5.6052 0.1539 0.9653
4.2198 5.6590 0.1232 0.9722
2.3945 5.6703 0.1074 0.9757
-1.1720 5.6840 0.1013 0.9770
-1.9045 5.6724 0.1044 0.9763
-3.5885 5.6598 0.1170 0.9735
-4.6365 5.6677 0.1278 0.9711
-9.9259 5.7281 0.2000 0.9552
-13.5363 5.7682 0.2568 0.9428
-58.7878 -27.7650 1.1348 0.7710
-32.9759 -34.1563 0.8287 0.8270
-20.0906 -34.5534 0.6977 0.8522
-14.6933 -34.1724 0.6493 0.8617
-12.4145 -42.2957 0.7694 0.8383
29.7074 -90.4312 1.6615 0.6833
21.4694 -45.8438 0.8836 0.8167
25.5834 -31.6924 0.7109 0.8496
28.0544 -27.2619 0.6828 0.8551
35.8792 -27.3035 0.7870 0.8350
46.7338 -27.3767 0.9454 0.8052
63.5112 -27.5537 1.2084 0.7581
54.0381 10.5926 0.9612 0.8023
25.8526 8.3996 0.4745 0.8970
26.2241 21.0287 0.5867 0.8742
5.5273 5.6510 0.1380 0.9689
4.3350 5.6583 0.1244 0.9719
3.3430 5.6644 0.1148 0.9740
2.4817 5.6697 0.1080 0.9755
1.7058 5.6745 0.1034 0.9766
0.2892 5.6832 0.0993 0.9775
-0.3972 5.6874 0.0995 0.9774
-1.0957 5.6876 0.1011 0.9771
-1.8224 5.6719 0.1040 0.9764
-3.4856 5.6590 0.1160 0.9738
-5.8108 5.7207 0.1423 0.9679
-7.4297 5.7306 0.1638 0.9632
-19.0767 5.8022 0.3480 0.9233
-33.3752 5.8901 0.5916 0.8732
-65.7640 -20.8947 1.2045 0.7588
-26.8034 -34.5174 0.7628 0.8396
27.2204 -86.6497 1.5853 0.6953
21.6156 -47.7651 0.9151 0.8108
25.5781 -32.5438 0.7225 0.8474
27.3286 -27.2574 0.6737 0.8569
34.9269 -27.3041 0.7738 0.8375
45.3547 -27.3682 0.9246 0.8090
81.9508 4.9202 1.4330 0.7200
57.9145 10.5713 1.0276 0.7902
17.9439 5.5729 0.3280 0.9276
38.3265 17.1941 0.7332 0.8453
27.9285 16.8282 0.5691 0.8777
3.4429 5.6638 0.1157 0.9738
1.7865 5.6740 0.1038 0.9765
1.0594 5.6785 0.1008 0.9772
0.3634 5.6827 0.0994 0.9775
-0.3229 5.6870 0.0994 0.9775
-1.7412 5.6714 0.1036 0.9765
-3.3843 5.6583 0.1151 0.9740
-5.6605 5.7198 0.1405 0.9683
-9.3477 5.7240 0.1913 0.9571
-18.2041 5.7968 0.3335 0.9264
-30.9312 5.8751 0.5496 0.8817
-65.8065 -19.9689 1.2004 0.7595
-73.3388 -32.3295 1.3990 0.7257
-41.0213 -40.3328 1.0042 0.7944
-15.7568 -34.1659 0.6567 0.8603
-10.8789 -56.2756 1.0005 0.7951
17.1133 -57.0636 1.0399 0.7879
24.8257 -42.1268 0.8535 0.8223
33.9980 -27.2984 0.7611 0.8399
44.0350 -27.3601 0.9049 0.8127
59.2890 -27.5777 1.1414 0.7698
85.1735 -27.7344 1.5635 0.6988
41.9786 7.0991 0.7431 0.8434
28.7607 16.8230 0.5816 0.8752
26.2761 19.9688 0.5761 0.8763
3.5443 5.6632 0.1166 0.9736
1.1360 5.6780 0.1011 0.9771
0.4377 5.6823 0.0995 0.9775
-10.1271 61.0928 1.0809 0.7806
-1.6605 5.6709 0.1031 0.9766
-2.4362 5.6759 0.1078 0.9756
-3.2862 5.6603 0.1142 0.9742
-4.2762 5.6650 0.1239 0.9720
-7.0397 5.7282 0.1584 0.9643
-9.0911 5.7309 0.1876 0.9579
-28.6898 5.8373 0.5110 0.8895
-29.8443 -36.4341 0.8221 0.8283
-24.3227 -38.3066 0.7920 0.8340
-9.1470 -19.1732 0.3708 0.9185
-10.5267 -50.8896 0.9071 0.8123
25.8356 -90.4105 1.6413 0.6865
21.6354 -51.3271 0.9723 0.8002
24.0886 -42.1200 0.8469 0.8236
33.0717 -27.2705 0.7482 0.8424
45.4976 -21.8878 0.8813 0.8171
81.4854 -27.7117 1.5023 0.7087
41.6262 6.4832 0.7353 0.8449
40.9866 17.1200 0.7753 0.8372
26.2728 19.4320 0.5704 0.8775
4.6950 5.6561 0.1283 0.9710
1.9499 5.6730 0.1047 0.9763
1.2130 5.6775 0.1013 0.9770
0.5122 5.6818 0.0996 0.9774
-0.1745 5.6860 0.0993 0.9775
-0.8628 5.6608 0.1000 0.9774
17.1217 -39.5513 -0.7523 0.8416
24.5063 -41.9099 -0.8474 0.8235
25.5713 -33.6583 -0.7378 0.8444
26.4403 -27.2520 -0.6628 0.8591
33.7603 -27.2970 -0.7578 0.8406
28.9316 -18.1126 -0.5958 0.8724
84.8004 -27.9321 -1.5584 0.6996
89.4818 3.8991 -1.5634 0.6988
18.6621 5.4616 -0.3394 0.9252
28.8646 16.7524 -0.5825 0.8750
6.4200 6.1884 -0.1556 0.9650
2.6827 5.6685 -0.1095 0.9752
1.1561 5.6779 -0.1011 0.9771
-0.2292 5.6864 -0.0993 0.9775
-10.0273 61.7922 -1.0927 0.7785
-1.6371 5.6622 -0.1029 0.9767
-2.4072 5.6614 -0.1074 0.9757
-3.2527 5.6467 -0.1137 0.9743
-4.2208 5.6314 -0.1228 0.9722
-5.4765 5.7186 -0.1382 0.9688
-9.0276 5.7339 -0.1867 0.9581
-17.2026 5.7907 -0.3168 0.9300
-27.6953 5.7331 -0.4937 0.8930
-95.9555 -3.5554 -1.6761 0.6810
-68.0601 -38.9106 -1.3684 0.7308
-27.6695 -26.3258 -0.6666 0.8583
-14.3194 -22.3837 -0.4638 0.8992
-8.6458 -25.4103 -0.4685 0.8982
-6.5965 -31.3516 -0.5592 0.8797
23.2016 -82.2503 -1.4917 0.7104
16.5317 -39.5946 -0.7489 0.8423
25.7560 -27.2478 -0.6545 0.8607
32.8689 -27.2915 -0.7457 0.8429
80.7269 -27.7605 -1.4902 0.7107
43.4851 6.6214 -0.7678 0.8386
41.0026 16.9630 -0.7745 0.8373
26.2016 19.2419 -0.5674 0.8780
4.7274 5.6559 -0.1287 0.9709
2.7733 5.6679 -0.1101 0.9751
0.5317 5.6817 -0.0996 0.9774
-0.1551 5.6859 -0.0993 0.9775
-4.1070 5.6309 -0.1217 0.9725
-5.3347 5.7178 -0.1365 0.9692
-6.8065 5.7268 -0.1553 0.9650
-5.6551 2.7899 -0.1101 0.9751
-16.4767 5.7862 -0.3048 0.9325
-28.2402 -0.6784 -0.4931 0.8931
-70.5205 -51.0852 -1.5200 0.7058
-14.5937 -22.1712 -0.4633 0.8993
-11.6362 -23.3944 -0.4561 0.9007
-8.9768 -25.2982 -0.4686 0.8982
-6.9107 -30.8462 -0.5518 0.8812
-7.2328 -72.2186 -1.2669 0.7480
22.4020 -83.5643 -1.5101 0.7074
25.5598 -35.5268 -0.7639 0.8394
25.6073 -27.8068 -0.6598 0.8597
41.2472 -27.3430 -0.8638 0.8204
90.4070 -20.5639 -1.6183 0.6901
68.1285 1.1928 -1.1894 0.7614
43.4815 6.0427 -0.7663 0.8389
20.8210 5.5091 -0.3759 0.9174
30.6574 16.7414 -0.6097 0.8696
26.1984 18.7194 -0.5620 0.8791
6.5558 5.9980 -0.1551 0.9651
4.8532 5.6551 -0.1301 0.9706
-1.4804 5.6696 -0.1023 0.9768
-3.9954 5.6303 -0.1205 0.9728
-5.1963 5.7169 -0.1349 0.9696
-6.6281 5.7257 -0.1529 0.9656
-8.5338 5.7374 -0.1795 0.9597
-5.6260 2.8672 -0.1102 0.9751
-24.3813 5.7130 -0.4371 0.9047
-89.1112 9.8045 -1.5648 0.6986
-81.7616 -10.8203 -1.4396 0.7190
-63.8598 -45.0042 -1.3637 0.7316
-19.9617 -22.9562 -0.5310 0.8854
-12.1291 -23.6094 -0.4633 0.8993
-9.2509 -25.0316 -0.4658 0.8987
-7.1365 -30.0165 -0.5385 0.8839
20.7651 -53.6194 -1.0037 0.7945
25.5538 -36.5119 -0.7779 0.8367
40.0930 -27.3359 -0.8470 0.8236
42.9500 -22.2421 -0.8443 0.8241
88.8935 -21.4413 -1.5942 0.6936
21.8443 2.7463 -0.3843 0.9157
22.1330 5.5490 -0.3983 0.9128
44.7287 17.1547 -0.8362 0.8256
32.5522 17.2297 -0.6429 0.8630
6.6234 5.9032 -0.1549 0.9651
4.9818 5.6543 -0.1315 0.9703
3.8869 5.6611 -0.1199 0.9729
17.9097 34.3101 -0.6756 0.8566
1.3887 5.6764 -0.1020 0.9769
0.6812 5.6808 -0.0999 0.9774
-2.9723 5.6601 -0.1116 0.9747
-5.0612 5.7161 -0.1333 0.9699
-6.4550 5.7246 -0.1506 0.9661
-8.2963 5.7360 -0.1761 0.9605
-15.1777 5.7783 -0.2835 0.9371
-23.1281 5.7379 -0.4159 0.9091
-46.8006 -11.4102 -0.8408 0.8247
-81.7814 -30.7563 -1.5251 0.7050
-66.3162 -34.5500 -1.3052 0.7414
-20.3538 -22.8008 -0.5335 0.8849
-15.3559 -22.0565 -0.4691 0.8981
-12.3715 -23.3288 -0.4609 0.8997
-9.5766 -24.9106 -0.4658 0.8987
-6.7290 -53.1816 -0.9357 0.8070
22.4797 -93.5264 -1.6790 0.6806
21.6335 -41.8558 -0.8224 0.8282
25.5981 -29.2921 -0.6790 0.8559
42.9457 -22.9539 -0.8500 0.8230
71.2334 -27.6512 -1.3338 0.7366
23.3891 5.5412 -0.4196 0.9083
25.8908 13.2752 -0.5079 0.8901
26.1921 17.7032 -0.5518 0.8812
5.1134 5.6535 -0.1331 0.9700
3.9958 5.6604 -0.1209 0.9727
2.2227 5.6713 -0.1063 0.9759
0.7563 5.6803 -0.1000 0.9773
0.0670 5.6846 -0.0992 0.9775
-2.0655 5.6594 -0.1052 0.9762
-2.8809 5.6641 -0.1109 0.9749
-19.7658 22.9175 -0.5283 0.8860
-8.0676 5.7346 -0.1728 0.9612
-63.3467 0.9530 -1.1058 0.7761
-56.2213 -12.9338 -1.0070 0.7939
-81.7102 -29.5211 -1.5165 0.7064
-65.9993 -33.2996 -1.2903 0.7440
-69.8453 -46.5490 -1.4651 0.7148
-66.9696 -57.3805 -1.5394 0.7027
-15.8775 -22.1840 -0.4762 0.8966
-12.7831 -23.3650 -0.4649 0.8989
-9.8498 -24.6578 -0.4635 0.8992
-6.7024 -47.9500 -0.8451 0.8239
25.5934 -30.0679 -0.6892 0.8539
29.5667 -27.2712 -0.7021 0.8514
42.9412 -23.6754 -0.8559 0.8219
24.7871 5.5326 -0.4433 0.9034
47.0144 16.6407 -0.8705 0.8191
34.6825 17.2166 -0.6759 0.8565
6.7578 5.7143 -0.1545 0.9652
5.2480 5.6527 -0.1346 0.9696
4.1068 5.6597 -0.1221 0.9724
2.3082 5.6708 -0.1069 0.9758
0.8317 5.6799 -0.1002 0.9773
-1.2485 5.6804 -0.1015 0.9770
-1.9823 5.6590 -0.1047 0.9763
-2.7885 5.6635 -0.1102 0.9751
-6.1238 5.7226 -0.1463 0.9670
-10.1860 5.7028 -0.2038 0.9544
-63.5473 1.7838 -1.1097 0.7754
-81.7769 -28.3468 -1.5107 0.7073
-65.4380 -31.9546 -1.2711 0.7473
-69.6414 -45.1148 -1.4484 0.7175
-67.1620 -56.0456 -1.5269 0.7047
-7.7273 -27.6542 -0.5012 0.8915
31.0216 -90.4423 -1.6689 0.6821
20.8776 -43.1094 -0.8361 0.8256
28.7999 -27.2665 -0.6923 0.8533
36.8286 -27.2763 -0.8000 0.8325
66.0028 -27.6190 -1.2489 0.7511
48.9989 16.6285 -0.9032 0.8130
35.8322 17.2095 -0.6938 0.8530
6.8065 5.6052 -0.1539 0.9653
5.3859 5.6519 -0.1363 0.9692
4.2198 5.6590 -0.1232 0.9722
3.2447 5.6650 -0.1140 0.9742
1.6257 5.6750 -0.1030 0.9767
0.9073 5.6794 -0.1004 0.9773
0.2151 5.6837 -0.0993 0.9775
-0.4717 5.6879 -0.0996 0.9774
-1.1720 5.6840 -0.1013 0.9770
