ply
format ascii 1.0
element vertex 1547
property float32 x
property float32 y
property float32 z
property float32 I
end_header
40.0113 4.5050 -0.7028 0.8512
45.1155 16.6524 -0.8394 0.8250
24.7851 16.7775 -0.5224 0.8872
24.1733 26.7814 -0.6297 0.8656
4.3984 6.2462 -0.1333 0.9699
2.2131 5.6714 -0.1063 0.9759
0.0559 5.6846 -0.0992 0.9775
-0.6335 5.6889 -0.0999 0.9774
-1.3428 5.6932 -0.1021 0.9769
-2.0952 5.6979 -0.1060 0.9760
-19.4849 38.0654 -0.7464 0.8428
-22.5145 5.8097 -0.4059 0.9112
-38.6416 5.1226 -0.6804 0.8556
-68.8693 -7.5836 -1.2094 0.7579
-46.2185 -10.8418 -0.8286 0.8270
-83.6864 -30.6567 -1.5557 0.7001
-68.5270 -34.9719 -1.3429 0.7351
-20.3932 -22.4828 -0.5298 0.8856
-15.9990 -22.6027 -0.4834 0.8951
21.0637 -90.2912 -1.6183 0.6901
14.4451 -39.5818 -0.7355 0.8449
23.5733 -35.1012 -0.7380 0.8444
86.5951 -22.5715 -1.5620 0.6991
49.2905 11.4353 -0.8832 0.8167
45.7925 16.6482 -0.8505 0.8229
24.2224 20.8582 -0.5580 0.8800
3.0783 5.6661 -0.1126 0.9745
2.2450 5.6712 -0.1065 0.9759
1.4869 5.6758 -0.1024 0.9768
0.7742 5.6802 -0.1001 0.9773
0.0837 5.6845 -0.0992 0.9775
-1.3134 5.6930 -0.1020 0.9769
-2.0635 5.6977 -0.1058 0.9760
-19.4820 38.5233 -0.7535 0.8414
-6.1724 5.6402 -0.1459 0.9671
-8.0385 5.7344 -0.1724 0.9613
-14.2809 5.6736 -0.2682 0.9404
-22.1099 5.8209 -0.3991 0.9126
-48.9479 -11.2298 -0.8766 0.8180
-68.3747 -34.4736 -1.3366 0.7361
-71.9895 -47.9644 -1.5099 0.7075
-13.1320 -24.0309 -0.4780 0.8962
-10.3298 -25.9086 -0.4869 0.8944
-8.6983 -32.8762 -0.5936 0.8728
20.6909 -90.6958 -1.6238 0.6892
21.0532 -41.8840 -0.8182 0.8290
23.6191 -27.6331 -0.6345 0.8647
29.6993 -27.2720 -0.7038 0.8510
38.1053 -27.3237 -0.8184 0.8290
38.8736 -21.3047 -0.7738 0.8375
86.5923 -23.0237 -1.5640 0.6988
25.3103 16.7743 -0.5300 0.8856
24.2212 20.6517 -0.5556 0.8804
3.1142 5.6658 -0.1129 0.9745
-2.0320 5.6975 -0.1056 0.9761
-2.8320 5.6687 -0.1106 0.9750
-6.1118 5.6400 -0.1452 0.9673
-73.5632 -7.3727 -1.2905 0.7440
-68.1408 -33.9386 -1.3288 0.7375
-13.1604 -23.8056 -0.4748 0.8969
-8.7874 -32.5680 -0.5888 0.8738
-8.7154 -60.6145 -1.0689 0.7827
20.7959 -41.8816 -0.8162 0.8294
23.6175 -27.9063 -0.6381 0.8639
29.4072 -27.2702 -0.7000 0.8518
37.7110 -27.3212 -0.8128 0.8300
41.3146 -22.9060 -0.8246 0.8278
68.3150 -27.7227 -1.2868 0.7446
34.0567 16.8586 -0.6633 0.8590
25.5787 16.7726 -0.5339 0.8848
24.2199 20.4469 -0.5533 0.8809
24.7073 26.5782 -0.6334 0.8649
3.1502 5.6656 -0.1132 0.9744
2.3093 5.6708 -0.1069 0.9758
0.8309 5.6799 -0.1002 0.9773
0.1394 5.6841 -0.0992 0.9775
-2.0006 5.6973 -0.1054 0.9761
-2.8088 5.6916 -0.1108 0.9749
-4.7786 5.6745 -0.1295 0.9708
-6.0519 5.6397 -0.1444 0.9674
-13.8796 5.6720 -0.2617 0.9418
-34.8188 5.1368 -0.6143 0.8687
-76.9748 -7.3345 -1.3497 0.7339
-58.1454 -12.7423 -1.0390 0.7881
-83.5746 -29.2322 -1.5455 0.7017
-68.4026 -57.4607 -1.5592 0.6995
-10.4463 -25.4734 -0.4806 0.8957
-8.6237 -31.3507 -0.5676 0.8780
13.7725 -39.5307 -0.7307 0.8458
34.1955 16.7196 -0.6643 0.8587
2.3416 5.6706 -0.1071 0.9758
0.8591 5.6789 -0.1003 0.9773
-0.5209 5.6882 -0.0997 0.9774
-2.7793 5.7021 -0.1107 0.9749
-3.6701 5.6724 -0.1179 0.9733
-5.9926 5.6394 -0.1436 0.9676
-38.4851 5.8702 -0.6795 0.8558
-65.5351 2.0080 -1.1444 0.7693
-80.8448 -7.3044 -1.4169 0.7227
-58.0128 -12.4162 -1.0355 0.7887
-83.6734 -28.8081 -1.5446 0.7019
-21.4787 -22.7678 -0.5463 0.8823
-16.4207 -22.2615 -0.4828 0.8952
-13.4789 -23.8280 -0.4779 0.8963
-8.7128 -31.0792 -0.5634 0.8789
-8.7252 -56.7369 -1.0020 0.7948
20.2437 -41.7909 -0.8105 0.8305
28.8324 -27.2667 -0.6927 0.8532
50.2025 10.6162 -0.8957 0.8144
26.1274 16.7692 -0.5419 0.8832
24.2174 20.0423 -0.5487 0.8818
24.7548 26.1123 -0.6281 0.8659
4.5124 6.0863 -0.1322 0.9701
3.2230 5.6652 -0.1138 0.9743
0.8837 5.6541 -0.0999 0.9774
-1.1965 5.6923 -0.1015 0.9770
-1.9380 5.6969 -0.1050 0.9762
-2.7448 5.7018 -0.1105 0.9750
-3.6320 5.6742 -0.1176 0.9734
-5.9338 5.6392 -0.1429 0.9678
-7.7119 5.7324 -0.1677 0.9623
-10.0729 5.7469 -0.2024 0.9547
-37.5504 5.9158 -0.6635 0.8589
-57.8810 -12.0920 -1.0321 0.7893
-83.7852 -28.3887 -1.5441 0.7019
-67.7443 -32.5092 -1.3116 0.7404
-69.2436 -57.0210 -1.5657 0.6985
-16.4663 -22.0963 -0.4810 0.8956
-13.5797 -23.7344 -0.4773 0.8964
-10.6917 -25.3621 -0.4804 0.8957
-8.7836 -30.7521 -0.5582 0.8799
-8.6796 -54.6590 -0.9660 0.8014
19.9818 -96.2346 -1.7156 0.6749
19.9907 -41.7886 -0.8086 0.8308
23.5615 -37.0082 -0.7658 0.8390
28.5497 -27.2649 -0.6891 0.8539
41.3097 -23.7025 -0.8313 0.8265
66.8769 -28.2890 -1.2675 0.7479
53.1376 10.9655 -0.9471 0.8049
16.3083 5.4813 -0.3003 0.9335
26.4080 16.7675 -0.5460 0.8824
24.2162 19.8425 -0.5465 0.8823
24.7532 25.8562 -0.6248 0.8666
4.5350 6.0546 -0.1320 0.9702
2.4067 5.6702 -0.1075 0.9757
1.6359 5.6749 -0.1031 0.9766
0.9113 5.6494 -0.0999 0.9774
-2.7104 5.7016 -0.1102 0.9751
-3.5942 5.6760 -0.1173 0.9735
-5.8758 5.6389 -0.1422 0.9679
-7.6330 5.7319 -0.1666 0.9625
-13.3537 5.6872 -0.2533 0.9436
-20.0562 5.8082 -0.3645 0.9199
-36.3459 5.9083 -0.6427 0.8630
-65.3255 2.6414 -1.1412 0.7699
-97.9719 -7.8866 -1.7156 0.6749
-71.5267 -45.1701 -1.4766 0.7129
-68.9933 -56.2508 -1.5538 0.7004
-21.9787 -22.8460 -0.5534 0.8809
-16.8477 -22.3788 -0.4889 0.8940
-13.6440 -23.5785 -0.4755 0.8967
-10.7453 -25.1449 -0.4773 0.8964
-8.7081 -53.1585 -0.9402 0.8061
19.7663 -41.8439 -0.8078 0.8310
23.5591 -37.4070 -0.7716 0.8379
36.1860 -27.3119 -0.7913 0.8341
64.3899 -27.6091 -1.2229 0.7556
36.5378 17.2051 -0.7049 0.8508
26.6929 16.7658 -0.5502 0.8815
24.2149 19.6443 -0.5443 0.8827
4.5576 6.0231 -0.1318 0.9702
3.2965 5.6647 -0.1144 0.9741
2.4394 5.6700 -0.1077 0.9756
1.6660 5.6747 -0.1032 0.9766
-1.1384 5.6920 -0.1013 0.9770
-1.8759 5.6965 -0.1047 0.9763
-3.5565 5.6777 -0.1169 0.9736
-4.5911 5.6735 -0.1274 0.9712
-5.8183 5.6387 -0.1414 0.9681
-7.5551 5.7314 -0.1655 0.9628
-13.1927 5.6950 -0.2508 0.9441
-35.2146 5.9014 -0.6232 0.8669
-97.9689 -7.4042 -1.7149 0.6750
-83.7351 -16.6401 -1.4902 0.7107
-67.2752 -31.4782 -1.2965 0.7429
-10.9517 -25.2850 -0.4810 0.8956
-8.6157 -51.0281 -0.9033 0.8130
19.3424 -97.9601 -1.7429 0.6707
15.2737 -46.7655 -0.8587 0.8213
23.5566 -37.8120 -0.7776 0.8368
40.4799 -23.7558 -0.8193 0.8288
53.9956 10.5929 -0.9605 0.8024
33.9884 15.8020 -0.6542 0.8607
26.9822 16.7640 -0.5545 0.8807
24.7501 25.3517 -0.6184 0.8678
4.5800 5.9916 -0.1316 0.9703
10.6182 61.9653 -1.0974 0.7776
-0.4088 5.6875 -0.0995 0.9774
-1.1094 5.6918 -0.1012 0.9771
-3.5190 5.6795 -0.1166 0.9736
-4.5451 5.6732 -0.1269 0.9713
-5.7613 5.6384 -0.1407 0.9683
-7.4783 5.7309 -0.1645 0.9630
-9.7345 5.7448 -0.1973 0.9558
-10.0781 3.0258 -0.1837 0.9588
-65.3216 3.2816 -1.1416 0.7698
-83.7416 -16.2159 -1.4889 0.7109
-83.7255 -27.0054 -1.5356 0.7033
-67.7205 -54.1189 -1.5133 0.7069
-22.3379 -22.7693 -0.5568 0.8802
-13.9447 -23.5633 -0.4779 0.8962
-10.9917 -25.0407 -0.4773 0.8964
-9.1779 -30.4341 -0.5549 0.8806
19.6280 -42.6262 -0.8191 0.8288
46.0579 -27.3331 -0.9348 0.8071
63.1446 -27.8096 -1.2044 0.7588
17.1634 5.4897 -0.3145 0.9304
34.3819 15.7808 -0.6603 0.8596
4.6024 5.9602 -0.1314 0.9703
3.3708 5.6643 -0.1151 0.9740
1.7263 5.6744 -0.1035 0.9766
0.3064 5.6831 -0.0993 0.9775
-0.3809 5.6873 -0.0995 0.9775
-1.8142 5.6961 -0.1043 0.9764
-2.6083 5.7010 -0.1094 0.9752
-3.4818 5.6812 -0.1163 0.9737
-5.7050 5.6382 -0.1400 0.9684
-12.8800 5.7102 -0.2459 0.9452
-18.9862 5.8017 -0.3465 0.9236
-65.3196 3.6019 -1.1419 0.7697
-83.6894 -26.5425 -1.5325 0.7038
-60.6892 -27.6761 -1.1643 0.7658
-22.8138 -23.0280 -0.5658 0.8784
-14.0775 -23.5243 -0.4785 0.8961
-16.2331 -36.4953 -0.6972 0.8523
27.7412 -87.8416 -1.6079 0.6918
19.6263 -43.1772 -0.8279 0.8272
23.5515 -38.6410 -0.7899 0.8344
27.4468 -27.2582 -0.6752 0.8566
35.0940 -27.3052 -0.7761 0.8370
45.6099 -27.3698 -0.9285 0.8083
61.9702 -27.6551 -1.1845 0.7622
86.4423 5.4704 -1.5119 0.7071
58.1585 10.8198 -1.0326 0.7893
27.5745 16.7603 -0.5632 0.8789
24.2113 19.0591 -0.5378 0.8840
4.6247 5.9289 -0.1312 0.9704
3.4083 5.6640 -0.1154 0.9739
-5.7274 -44.4546 -2.3490 0.8357
11.0700 -46.4246 -2.5012 0.8260
20.5208 -39.8486 -2.3490 0.8357
38.8599 -15.1092 -2.1851 0.8462
46.2414 -11.8118 -2.5012 0.8260
47.3275 -6.1563 -2.5012 0.8260
47.7244 -0.4112 -2.5012 0.8260
23.3657 5.5414 -1.2585 0.9083
18.3454 6.7714 -1.0248 0.9247
18.5105 9.5037 -1.0905 0.9200
19.2150 13.0070 -1.2160 0.9112
2.2131 5.6714 -0.3191 0.9759
1.4573 5.6760 -0.3071 0.9768
0.7460 5.6804 -0.3003 0.9773
0.0559 5.6846 -0.2979 0.9775
-0.6335 5.6889 -0.3000 0.9773
-3.8247 5.6651 -0.3582 0.9730
-6.1901 5.6011 -0.4375 0.9671
-8.1230 5.7349 -0.5211 0.9610
-10.6721 5.7474 -0.6353 0.9526
-14.3116 5.6049 -0.8055 0.9403
-33.1396 4.3932 -1.7520 0.8747
-44.5527 -4.9060 -2.3490 0.8357
-44.8139 -16.4166 -2.5012 0.8260
-39.5880 -26.6568 -2.5012 0.8260
-20.3569 -22.4427 -1.5879 0.8857
-15.7656 -22.2729 -1.4301 0.8965
-10.1488 -25.8211 -1.4540 0.8948
-5.9447 -44.4261 -2.3490 0.8357
-0.5863 -47.7226 -2.5012 0.8260
10.8428 -46.4782 -2.5012 0.8260
15.3662 -42.1058 -2.3490 0.8357
23.6208 -27.3628 -1.8944 0.8652
36.5527 -25.9406 -2.3490 0.8357
30.5597 -16.5544 -1.8215 0.8700
38.3763 -15.1377 -2.1620 0.8477
46.1831 -12.0379 -2.5012 0.8260
47.2968 -6.3878 -2.5012 0.8260
44.5646 4.7970 -2.3490 0.8357
18.7328 9.5024 -1.1008 0.9193
19.4171 13.0057 -1.2248 0.9106
23.9208 20.5985 -1.6544 0.8812
24.2579 26.6122 -1.8872 0.8657
3.0783 5.6661 -0.3379 0.9745
1.4869 5.6758 -0.3075 0.9768
-0.6053 5.6887 -0.2998 0.9773
-1.3134 5.6930 -0.3062 0.9769
-3.7857 5.6670 -0.3572 0.9731
-8.0385 5.7344 -0.5175 0.9612
-10.5526 5.7498 -0.6298 0.9530
-22.1099 5.8209 -1.1982 0.9125
-32.9537 4.5328 -1.7433 0.8753
-45.0075 0.7181 -2.3590 0.8350
-44.5762 -4.6880 -2.3490 0.8357
-44.4325 -10.1938 -2.3891 0.8331
-42.6160 -21.4864 -2.5012 0.8260
-39.7179 -26.4628 -2.5012 0.8260
-15.9232 -22.2639 -1.4345 0.8962
-10.2081 -25.6032 -1.4445 0.8955
-8.7264 -32.9824 -1.7880 0.8723
-0.8198 -47.7192 -2.5012 0.8260
14.6690 -40.8144 -2.2729 0.8405
20.1300 -40.0474 -2.3490 0.8357
23.4671 -35.3151 -2.2221 0.8438
23.6143 -27.6274 -1.9047 0.8645
36.4254 -26.1191 -2.3490 0.8357
38.6808 -21.1990 -2.3117 0.8380
46.1237 -12.2637 -2.5012 0.8260
47.2650 -6.6191 -2.5012 0.8260
47.7181 -0.8781 -2.5012 0.8260
44.5875 4.5789 -2.3490 0.8357
18.9594 9.5010 -1.1114 0.9186
23.9195 20.3945 -1.6474 0.8817
24.2563 26.3504 -1.8770 0.8664
2.2771 5.6710 -0.3203 0.9758
1.5165 5.6757 -0.3079 0.9767
0.1116 5.6843 -0.2980 0.9775
-1.2841 5.6929 -0.3058 0.9769
-2.8320 5.6687 -0.3321 0.9749
-6.0696 5.6010 -0.4328 0.9675
-7.9552 5.7339 -0.5139 0.9615
-10.4294 5.7491 -0.6241 0.9534
-13.9542 5.6230 -0.7884 0.9415
-21.6685 5.8182 -1.1758 0.9141
-32.9527 4.6970 -1.7444 0.8752
-45.0155 0.9386 -2.3597 0.8350
-44.5986 -4.4698 -2.3490 0.8357
-44.0509 -9.8797 -2.3660 0.8346
-44.9724 -15.9773 -2.5012 0.8260
-42.7206 -21.2777 -2.5012 0.8260
-34.1784 -28.9975 -2.3490 0.8357
-16.0714 -22.2404 -1.4380 0.8959
-13.1300 -23.7506 -1.4223 0.8970
-8.5464 -31.6748 -1.7194 0.8769
-1.0531 -47.7146 -2.5012 0.8260
10.3875 -46.5821 -2.5012 0.8260
23.4648 -35.6891 -2.2384 0.8428
29.2934 -27.1647 -2.0937 0.8521
38.5766 -21.3880 -2.3117 0.8380
37.3509 -15.1573 -2.1125 0.8509
46.0631 -12.4891 -2.5012 0.8260
47.2320 -6.8502 -2.5012 0.8260
47.7132 -1.1115 -2.5012 0.8260
44.6094 4.3607 -2.3490 0.8357
43.8943 9.7318 -2.3563 0.8352
19.1904 9.4996 -1.1222 0.9178
23.9183 20.1922 -1.6405 0.8822
24.2547 26.0913 -1.8670 0.8670
3.1502 5.6656 -0.3397 0.9744
0.1394 5.6841 -0.2980 0.9775
-1.2548 5.6927 -0.3055 0.9769
-2.8088 5.6916 -0.3326 0.9749
-4.7640 5.6572 -0.3876 0.9708
-6.0106 5.6012 -0.4306 0.9676
-13.7811 5.6317 -0.7802 0.9421
-21.2433 5.8155 -1.1543 0.9156
-32.9517 4.8614 -1.7456 0.8751
-43.7830 -9.5949 -2.3490 0.8357
-45.0500 -15.7573 -2.5012 0.8260
-34.3198 -28.8299 -2.3490 0.8357
-16.1224 -22.0826 -1.4329 0.8963
-13.2200 -23.6395 -1.4195 0.8972
-10.3617 -25.2672 -1.4312 0.8964
-6.1745 -41.5005 -2.1989 0.8453
4.4690 -47.5165 -2.5012 0.8260
13.7725 -39.5307 -2.1939 0.8456
23.4624 -36.0687 -2.2550 0.8417
36.1681 -26.4742 -2.3490 0.8357
38.4715 -21.5764 -2.3117 0.8380
44.6302 4.1425 -2.3490 0.8357
43.9263 9.5137 -2.3554 0.8352
15.9903 5.5491 -0.8870 0.9345
18.5375 12.0263 -1.1580 0.9153
18.6357 15.5771 -1.2729 0.9073
3.1865 5.6654 -0.3407 0.9743
-0.5209 5.6882 -0.2994 0.9774
-1.2256 5.6925 -0.3052 0.9769
-2.7793 5.7021 -0.3324 0.9749
-3.6701 5.6724 -0.3541 0.9733
-4.7168 5.6570 -0.3860 0.9709
-5.9549 5.6040 -0.4285 0.9678
-7.7920 5.7329 -0.5070 0.9620
-13.6115 5.6403 -0.7722 0.9427
-20.8334 5.8130 -1.1335 0.9170
-44.6402 -4.0333 -2.3490 0.8357
-43.8294 -9.3806 -2.3490 0.8357
-42.9267 -20.8587 -2.5012 0.8260
-21.3917 -22.6757 -1.6337 0.8826
-13.3361 -23.5757 -1.4195 0.8972
-10.4412 -25.1104 -1.4252 0.8968
-8.7015 -31.0390 -1.6894 0.8789
-1.5200 -47.7020 -2.5012 0.8260
4.2365 -47.5378 -2.5012 0.8260
9.9313 -46.6815 -2.5012 0.8260
14.5394 -42.3984 -2.3490 0.8357
45.9387 -12.9392 -2.5012 0.8260
44.6499 3.9241 -2.3490 0.8357
43.9571 9.2955 -2.3546 0.8353
18.3480 6.2669 -1.0161 0.9253
18.3825 8.8768 -1.0698 0.9215
18.5350 11.8962 -1.1542 0.9156
24.2515 25.5814 -1.8474 0.8683
4.5124 6.0863 -0.3971 0.9701
2.3741 5.6704 -0.3222 0.9757
-0.4929 5.6880 -0.2992 0.9774
-1.1965 5.6923 -0.3048 0.9770
-1.9380 5.6969 -0.3154 0.9762
-3.6320 5.6742 -0.3531 0.9734
-4.6699 5.6568 -0.3844 0.9710
-5.8997 5.6068 -0.4265 0.9679
-10.0729 5.7469 -0.6078 0.9546
-13.4454 5.6487 -0.7643 0.9433
-32.8131 5.1695 -1.7409 0.8754
-44.6594 -3.8150 -2.3490 0.8357
-43.0283 -20.6485 -2.5012 0.8260
-40.2280 -25.6807 -2.5012 0.8260
-21.4775 -22.5446 -1.6318 0.8827
-16.3657 -21.9613 -1.4354 0.8961
-10.5506 -25.0275 -1.4234 0.8969
-8.7571 -30.6593 -1.6710 0.8801
-7.0295 -44.2674 -2.3490 0.8357
-1.7532 -47.6940 -2.5012 0.8260
9.7027 -46.7295 -2.5012 0.8260
14.3318 -42.4690 -2.3490 0.8357
19.3426 -40.4337 -2.3490 0.8357
21.3337 -33.5089 -2.0820 0.8529
28.4392 -27.1594 -2.0609 0.8543
35.9073 -26.8268 -2.3490 0.8357
47.6918 -1.8115 -2.5012 0.8260
43.9869 9.0772 -2.3538 0.8354
16.0767 5.4034 -0.8889 0.9343
18.3803 8.7651 -1.0672 0.9217
18.6028 15.2429 -1.2604 0.9082
24.2500 25.3306 -1.8378 0.8690
1.6359 5.6749 -0.3095 0.9766
0.9113 5.6494 -0.2999 0.9773
0.2228 5.6836 -0.2981 0.9775
-1.1674 5.6921 -0.3045 0.9770
-1.9069 5.6967 -0.3148 0.9762
-2.7104 5.7016 -0.3309 0.9750
-3.5942 5.6760 -0.3521 0.9734
-4.6234 5.6566 -0.3829 0.9712
-7.6330 5.7319 -0.5003 0.9625
-20.0562 5.8082 -1.0943 0.9198
-45.0363 1.8210 -2.3622 0.8348
-43.9191 -8.9513 -2.3490 0.8357
-40.3532 -25.4836 -2.5012 0.8260
-34.7392 -28.3232 -2.3490 0.8357
-21.8898 -22.7536 -1.6547 0.8812
-8.8747 -30.5053 -1.6650 0.8805
-1.9865 -47.6848 -2.5012 0.8260
3.7713 -47.5770 -2.5012 0.8260
14.1239 -42.5386 -2.3490 0.8357
19.1445 -40.5278 -2.3490 0.8357
23.7146 -29.1594 -1.9698 0.8602
35.7757 -27.0022 -2.3490 0.8357
38.1507 -22.1388 -2.3117 0.8380
47.0890 -7.7730 -2.5012 0.8260
47.6824 -2.0448 -2.5012 0.8260
44.0156 8.8589 -2.3530 0.8354
18.3782 8.6540 -1.0646 0.9219
3.2965 5.6647 -0.3435 0.9741
1.6660 5.6747 -0.3100 0.9766
7.8107 46.9601 -2.4949 0.8264
0.2507 5.6834 -0.2981 0.9775
-0.4369 5.6877 -0.2990 0.9774
-1.1384 5.6920 -0.3042 0.9770
-2.6762 5.7014 -0.3301 0.9751
-3.5565 5.6777 -0.3511 0.9735
-4.5773 5.6564 -0.3813 0.9713
-7.5551 5.7314 -0.4970 0.9627
-9.8454 5.7455 -0.5974 0.9554
-13.1232 5.6650 -0.7491 0.9444
-43.9624 -8.7363 -2.3490 0.8357
-45.3497 -14.8727 -2.5012 0.8260
-40.4773 -25.2859 -2.5012 0.8260
-10.8481 -25.0458 -1.4304 0.8964
-9.0102 -30.4155 -1.6625 0.8807
-7.4622 -44.1965 -2.3490 0.8357
-2.2197 -47.6745 -2.5012 0.8260
9.2451 -46.8222 -2.5012 0.8260
13.9156 -42.6072 -2.3490 0.8357
18.9461 -40.6210 -2.3490 0.8357
23.7128 -29.4504 -1.9816 0.8595
35.6432 -27.1768 -2.3490 0.8357
45.7439 -13.6119 -2.5012 0.8260
47.0504 -8.0032 -2.5012 0.8260
47.6718 -2.2780 -2.5012 0.8260
16.6843 5.4266 -0.9195 0.9321
18.5277 11.5112 -1.1431 0.9163
3.3335 5.6645 -0.3445 0.9740
8.0398 46.9183 -2.4947 0.8264
0.2785 5.6833 -0.2982 0.9775
-0.4088 5.6875 -0.2988 0.9774
-1.1094 5.6918 -0.3039 0.9770
-5.7373 5.6149 -0.4207 0.9684
-12.9668 5.6729 -0.7418 0.9449
-10.0754 3.0250 -0.5513 0.9587
-30.6843 5.2966 -1.6319 0.8827
-45.0400 2.2627 -2.3634 0.8347
-45.4219 -14.6507 -2.5012 0.8260
-43.3266 -20.0148 -2.5012 0.8260
-35.0147 -27.9820 -2.3490 0.8357
-22.2149 -22.6439 -1.6624 0.8807
-16.8986 -21.9952 -1.4536 0.8948
-13.7748 -23.2762 -1.4175 0.8973
-7.6783 -44.1595 -2.3490 0.8357
-2.4529 -47.6631 -2.5012 0.8260
9.0159 -46.8668 -2.5012 0.8260
13.7070 -42.6747 -2.3490 0.8357
18.7471 -40.7131 -2.3490 0.8357
23.4502 -38.0548 -2.3426 0.8361
27.7267 -27.2681 -2.0381 0.8558
35.3161 -27.2017 -2.3362 0.8365
37.9323 -22.5109 -2.3117 0.8380
34.2728 -15.0942 -1.9626 0.8607
45.6768 -13.8355 -2.5012 0.8260
47.6601 -2.5112 -2.5012 0.8260
44.7182 3.0496 -2.3490 0.8357
38.3812 7.3349 -2.0479 0.8551
17.0110 5.4409 -0.9360 0.9310
18.3739 8.4334 -1.0595 0.9222
18.4345 11.3287 -1.1340 0.9170
18.5931 14.7843 -1.2449 0.9092
24.2454 24.5930 -1.8099 0.8708
3.3708 5.6643 -0.3454 0.9739
2.5052 5.6696 -0.3248 0.9755
1.7263 5.6744 -0.3108 0.9765
-1.0805 5.6916 -0.3036 0.9771
-4.4861 5.6561 -0.3783 0.9715
-5.6841 5.6175 -0.4188 0.9685
-7.4024 5.7305 -0.4906 0.9632
-9.6255 5.7441 -0.5874 0.9561
-18.9862 5.8017 -1.0404 0.9236
-44.7255 -2.9403 -2.3490 0.8357
-44.0458 -8.3058 -2.3490 0.8357
-9.1441 -29.7939 -1.6333 0.8826
8.7866 -46.9104 -2.5012 0.8260
18.5477 -40.8044 -2.3490 0.8357
23.7092 -30.0428 -2.0057 0.8579
27.5530 -27.3637 -2.0351 0.8560
47.6472 -2.7443 -2.5012 0.8260
44.7326 2.8309 -2.3490 0.8357
38.4196 7.1476 -2.0480 0.8551
17.3496 5.4559 -0.9532 0.9297
18.4317 11.2031 -1.1304 0.9172
18.5899 14.6339 -1.2399 0.9096
4.6247 5.9289 -0.3941 0.9703
-0.2114 -28.5883 -2.5012 0.8916
3.2334 -28.4057 -2.5012 0.8916
6.6312 -27.8094 -2.5012 0.8916
9.9323 -26.8083 -2.5012 0.8916
15.0780 -22.2159 -2.3490 0.8978
23.3953 -16.4316 -2.5012 0.8916
28.5880 -0.2463 -2.5012 0.8916
26.6809 3.0040 -2.3490 0.8978
18.8319 9.6687 -1.8520 0.9185
19.2150 13.0070 -2.0300 0.9110
20.5841 17.9014 -2.3866 0.8963
18.3472 20.3266 -2.3957 0.8959
4.3984 6.2462 -0.6684 0.9698
2.2131 5.6714 -0.5326 0.9759
0.7460 5.6804 -0.5012 0.9773
-0.6335 5.6889 -0.5008 0.9773
-1.3428 5.6932 -0.5118 0.9768
-10.6721 5.7474 -1.0605 0.9525
-26.6166 3.5285 -2.3490 0.8978
-26.8478 0.2970 -2.3490 0.8978
-28.4173 -3.1292 -2.5012 0.8916
-11.5434 -2.7078 -1.0373 0.9535
-25.4647 -12.9956 -2.5012 0.8916
-21.5791 -18.6741 -2.4967 0.8917
-9.8216 -24.9886 -2.3490 0.8978
-6.7404 -25.9896 -2.3490 0.8978
-3.7918 -28.3365 -2.5012 0.8916
3.0944 -28.4211 -2.5012 0.8916
6.4951 -27.8415 -2.5012 0.8916
12.9644 -25.4806 -2.5012 0.8916
14.9691 -22.2894 -2.3490 0.8978
17.5448 -20.3242 -2.3490 0.8978
28.3319 -3.8264 -2.5012 0.8916
26.6952 2.8735 -2.3490 0.8978
18.7677 6.8231 -1.7471 0.9229
19.4171 13.0057 -2.0446 0.9104
20.6681 17.7975 -2.3863 0.8963
4.4214 6.2140 -0.6672 0.9698
3.0783 5.6661 -0.5642 0.9744
0.0837 5.6845 -0.4974 0.9774
-0.6053 5.6887 -0.5005 0.9773
-1.3134 5.6930 -0.5112 0.9768
-2.0635 5.6977 -0.5302 0.9760
-12.4416 24.6016 -2.4119 0.8952
-4.8448 5.6401 -0.6505 0.9706
-6.1035 5.5773 -0.7234 0.9673
-10.5526 5.7498 -1.0514 0.9529
-26.8460 0.4283 -2.3490 0.8978
-26.8924 -9.7025 -2.5012 0.8916
-23.7919 -15.8519 -2.5012 0.8916
-18.1359 -19.7986 -2.3490 0.8978
-15.6192 -21.8388 -2.3490 0.8978
-3.9303 -28.3176 -2.5012 0.8916
-0.4911 -28.5849 -2.5012 0.8916
9.6696 -26.9042 -2.5012 0.8916
12.8396 -25.5437 -2.5012 0.8916
19.7764 -18.1601 -2.3490 0.8978
25.0708 -13.7401 -2.5012 0.8916
27.6291 -7.3462 -2.5012 0.8916
28.3128 -3.9650 -2.5012 0.8916
28.5843 -0.5260 -2.5012 0.8916
26.1842 5.9398 -2.3490 0.8978
19.6222 13.0045 -2.0595 0.9098
20.7516 17.6934 -2.3859 0.8963
3.1142 5.6658 -0.5656 0.9744
2.2771 5.6710 -0.5347 0.9758
-0.5772 5.6885 -0.5002 0.9773
-1.2841 5.6929 -0.5106 0.9768
-2.8320 5.6687 -0.5544 0.9749
-3.7470 5.6688 -0.5945 0.9731
-6.0471 5.5802 -0.7199 0.9675
-10.4294 5.7491 -1.0419 0.9533
-13.7670 5.5476 -1.2986 0.9421
-26.5808 3.7887 -2.3490 0.8978
-26.8436 0.5597 -2.3490 0.8978
-28.4466 -2.8510 -2.5012 0.8916
-11.5800 -2.5971 -1.0383 0.9535
-25.5906 -12.7458 -2.5012 0.8916
-23.8692 -15.7353 -2.5012 0.8916
-21.7959 -18.4920 -2.5007 0.8916
-18.2325 -19.7096 -2.3490 0.8978
-10.0656 -24.8913 -2.3490 0.8978
-4.0688 -28.2981 -2.5012 0.8916
-0.6308 -28.5821 -2.5012 0.8916
2.8162 -28.4500 -2.5012 0.8916
6.2224 -27.9037 -2.5012 0.8916
12.7145 -25.6062 -2.5012 0.8916
25.0033 -13.8625 -2.5012 0.8916
26.4909 -10.7502 -2.5012 0.8916
28.5813 -0.6658 -2.5012 0.8916
26.7221 2.6122 -2.3490 0.8978
26.2129 5.8117 -2.3490 0.8978
19.3502 9.5787 -1.8890 0.9170
19.8302 13.0032 -2.0746 0.9092
4.4671 6.1500 -0.6650 0.9699
3.1502 5.6656 -0.5671 0.9743
-0.5490 5.6883 -0.5000 0.9773
-3.7084 5.6706 -0.5928 0.9732
-4.7495 5.6399 -0.6451 0.9708
-5.9911 5.5831 -0.7165 0.9677
-7.8730 5.7334 -0.8521 0.9616
-13.6024 5.5587 -1.2856 0.9427
-26.5619 3.9187 -2.3490 0.8978
-26.8405 0.6909 -2.3490 0.8978
-21.8904 -18.3888 -2.5012 0.8916
-15.8321 -21.6849 -2.3490 0.8978
-10.1873 -24.8417 -2.3490 0.8978
-7.1211 -25.8879 -2.3490 0.8978
-4.2072 -28.2778 -2.5012 0.8916
-0.7706 -28.5787 -2.5012 0.8916
2.6770 -28.4635 -2.5012 0.8916
6.0858 -27.9338 -2.5012 0.8916
9.4059 -26.9975 -2.5012 0.8916
16.3770 -19.5441 -2.2308 0.9027
26.4380 -10.8796 -2.5012 0.8916
27.5560 -7.6162 -2.5012 0.8916
28.2727 -4.2418 -2.5012 0.8916
28.5777 -0.8057 -2.5012 0.8916
19.5877 9.5772 -1.9076 0.9162
20.9168 17.4838 -2.3851 0.8963
4.4898 6.1181 -0.6639 0.9700
3.1865 5.6654 -0.5687 0.9742
2.3416 5.6706 -0.5367 0.9757
0.8591 5.6789 -0.5025 0.9772
0.1672 5.6839 -0.4975 0.9774
-4.7024 5.6398 -0.6424 0.9709
-7.7920 5.7329 -0.8463 0.9619
-10.1897 5.7476 -1.0235 0.9541
-13.4409 5.5696 -1.2729 0.9433
-20.8334 5.8130 -1.8923 0.9168
-27.0318 -9.3068 -2.5012 0.8916
-24.0220 -15.5010 -2.5012 0.8916
-21.9801 -18.2814 -2.5012 0.8916
-13.2111 -23.3546 -2.3475 0.8979
-7.2476 -25.8527 -2.3490 0.8978
2.5377 -28.4762 -2.5012 0.8916
5.9491 -27.9633 -2.5012 0.8916
9.2738 -27.0432 -2.5012 0.8916
16.2618 -19.6006 -2.2282 0.9028
19.5077 -18.4483 -2.3490 0.8978
26.3845 -11.0089 -2.5012 0.8916
18.7595 6.4075 -1.7343 0.9235
19.8299 9.5757 -1.9266 0.9154
20.9986 17.3784 -2.3847 0.8963
18.8252 19.8575 -2.3939 0.8960
4.5124 6.0863 -0.6629 0.9700
3.2230 5.6652 -0.5702 0.9742
2.3741 5.6704 -0.5378 0.9756
0.8837 5.6541 -0.5007 0.9773
-1.1965 5.6923 -0.5089 0.9769
-1.9380 5.6969 -0.5265 0.9761
-3.6320 5.6742 -0.5894 0.9733
-5.8808 5.5887 -0.7098 0.9679
-7.7119 5.7324 -0.8407 0.9622
-10.0729 5.7469 -1.0146 0.9545
-13.2827 5.5803 -1.2605 0.9438
-26.5223 4.1784 -2.3490 0.8978
-28.4854 -2.4333 -2.5012 0.8916
-25.7749 -12.3689 -2.5012 0.8916
-24.0975 -15.3833 -2.5012 0.8916
-22.0693 -18.1737 -2.5012 0.8916
-18.5197 -19.4400 -2.3490 0.8978
-16.0436 -21.5290 -2.3490 0.8978
-11.0269 -19.2726 -1.9426 0.9147
-4.4836 -28.2353 -2.5012 0.8916
-1.0502 -28.5698 -2.5012 0.8916
14.4195 -22.6488 -2.3490 0.8978
16.1752 -19.6914 -2.2295 0.9027
24.7972 -14.2280 -2.5012 0.8916
26.3303 -11.1378 -2.5012 0.8916
28.5685 -1.0852 -2.5012 0.8916
20.0769 9.5742 -1.9460 0.9146
18.9192 19.7623 -2.3936 0.8960
4.5350 6.0546 -0.6618 0.9701
3.2596 5.6649 -0.5718 0.9741
2.4067 5.6702 -0.5389 0.9756
0.9113 5.6494 -0.5006 0.9773
0.2228 5.6836 -0.4976 0.9774
-0.4649 5.6878 -0.4993 0.9773
-1.1674 5.6921 -0.5084 0.9769
-1.9069 5.6967 -0.5256 0.9762
-2.7104 5.7016 -0.5523 0.9750
-3.5942 5.6760 -0.5878 0.9734
-4.6095 5.6395 -0.6372 0.9712
-7.6330 5.7319 -0.8351 0.9624
-9.9582 5.7462 -1.0059 0.9549
-13.1274 5.5908 -1.2483 0.9443
-20.0562 5.8082 -1.8268 0.9196
-26.5016 4.3081 -2.3490 0.8978
-11.8427 -2.4137 -1.0574 0.9526
-27.1216 -9.0419 -2.5012 0.8916
-25.8351 -12.2427 -2.5012 0.8916
-24.1725 -15.2652 -2.5012 0.8916
-16.1487 -21.4502 -2.3490 0.8978
-11.0277 -19.0572 -1.9263 0.9154
-10.5507 -24.6896 -2.3490 0.8978
-7.5002 -25.7806 -2.3490 0.8978
-1.1900 -28.5643 -2.5012 0.8916
2.2518 -28.4076 -2.4931 0.8919
5.6752 -28.0202 -2.5012 0.8916
14.3086 -22.7191 -2.3490 0.8978
16.0830 -19.7756 -2.2301 0.9027
19.3263 -18.6383 -2.3490 0.8978
24.7273 -14.3492 -2.5012 0.8916
27.4412 -8.0197 -2.5012 0.8916
28.2074 -4.6562 -2.5012 0.8916
26.7681 2.0889 -2.3490 0.8978
18.9862 6.2781 -1.7495 0.9228
20.3290 9.5727 -1.9659 0.9137
18.9953 15.4099 -2.1400 0.9065
19.0128 19.6666 -2.3932 0.8960
4.5576 6.0231 -0.6608 0.9701
-0.4369 5.6877 -0.4991 0.9774
-1.1384 5.6920 -0.5078 0.9770
-3.5565 5.6777 -0.5861 0.9735
-4.5635 5.6394 -0.6347 0.9713
-7.5551 5.7314 -0.8297 0.9626
-9.8454 5.7455 -0.9973 0.9553
-10.0761 2.9715 -0.9190 0.9587
-26.4802 4.4377 -2.3490 0.8978
-26.8219 1.2160 -2.3490 0.8978
-25.8947 -12.1162 -2.5012 0.8916
-24.2469 -15.1468 -2.5012 0.8916
-18.7090 -19.2578 -2.3490 0.8978
-10.6714 -24.6377 -2.3490 0.8978
-7.6262 -25.7436 -2.3490 0.8978
-4.7597 -28.1901 -2.5012 0.8916
8.8759 -27.1764 -2.5012 0.8916
12.0845 -25.9095 -2.5012 0.8916
16.8387 -20.9130 -2.3490 0.8978
19.2349 -18.7326 -2.3490 0.8978
22.6680 -17.2837 -2.4939 0.8918
28.5565 -1.3646 -2.5012 0.8916
26.7780 1.9578 -2.3490 0.8978
26.3472 5.1688 -2.3490 0.8978
12.2319 5.6869 -1.1802 0.9473
18.8861 11.7339 -1.9453 0.9146
18.9904 15.2524 -2.1310 0.9068
19.1060 19.5704 -2.3928 0.8960
3.3335 5.6645 -0.5750 0.9740
2.4722 5.6698 -0.5411 0.9755
1.6961 5.6746 -0.5182 0.9765
4.6750 27.2820 -2.4217 0.8948
-0.4088 5.6875 -0.4989 0.9774
-1.1094 5.6918 -0.5073 0.9770
-4.5180 5.6393 -0.6322 0.9714
-5.7191 5.5971 -0.7001 0.9684
-12.8257 5.6112 -1.2248 0.9453
-26.4581 4.5671 -2.3490 0.8978
-26.8156 1.3471 -2.3490 0.8978
-28.5180 -2.0149 -2.5012 0.8916
-25.9537 -11.9893 -2.5012 0.8916
-24.3207 -15.0280 -2.5012 0.8916
-22.3336 -17.8479 -2.5012 0.8916
-16.3578 -21.2912 -2.3490 0.8978
-11.2291 -18.9745 -1.9290 0.9153
-4.8975 -28.1665 -2.5012 0.8916
-1.4693 -28.5513 -2.5012 0.8916
1.9751 -28.4491 -2.4950 0.8918
5.4010 -28.0743 -2.5012 0.8916
11.9576 -25.9683 -2.5012 0.8916
16.7362 -20.9951 -2.3490 0.8978
19.1431 -18.8264 -2.3490 0.8978
24.5857 -14.5904 -2.5012 0.8916
26.1640 -11.5230 -2.5012 0.8916
28.5495 -1.5043 -2.5012 0.8916
26.3722 5.0399 -2.3490 0.8978
19.6163 6.2742 -1.8019 0.9206
12.2785 5.6357 -1.1820 0.9472
18.8825 11.6040 -1.9390 0.9149
19.1986 19.4738 -2.3925 0.8960
3.3708 5.6643 -0.5767 0.9739
2.5052 5.6696 -0.5423 0.9754
1.7263 5.6744 -0.5189 0.9765
4.8082 27.2578 -2.4216 0.8948
0.3064 5.6831 -0.4979 0.9774
-1.8142 5.6961 -0.5230 0.9763
-3.4818 5.6812 -0.5830 0.9736
-5.6662 5.5998 -0.6970 0.9685
-7.4024 5.7305 -0.8190 0.9631
-9.6255 5.7441 -0.9807 0.9560
-18.9862 5.8017 -1.7369 0.9234
-26.4355 4.6965 -2.3490 0.8978
-28.5275 -1.8754 -2.5012 0.8916
-27.2514 -8.6429 -2.5012 0.8916
-26.0120 -11.8622 -2.5012 0.8916
-18.8965 -19.0739 -2.3490 0.8978
-7.8777 -25.6678 -2.3490 0.8978
-5.0314 -28.1206 -2.4993 0.8916
8.6096 -27.2619 -2.5012 0.8916
16.6333 -21.0767 -2.3490 0.8978
19.0508 -18.9198 -2.3490 0.8978
22.2437 -17.3069 -2.4657 0.8930
26.1074 -11.6508 -2.5012 0.8916
28.5418 -1.6439 -2.5012 0.8916
26.7958 1.6958 -2.3490 0.8978
26.3965 4.9108 -2.3490 0.8978
16.6939 5.2497 -1.5310 0.9321
12.4169 5.6258 -1.1926 0.9467
18.9806 14.9415 -2.1134 0.9076
19.2907 19.3767 -2.3921 0.8960
4.6247 5.9289 -0.6579 0.9703
3.4083 5.6640 -0.5783 0.9738
-2.6030 -20.2038 -2.5012 0.9212
-0.1506 -20.3703 -2.5012 0.9212
4.7250 -19.8153 -2.5012 0.9212
11.4398 -16.8553 -2.5012 0.9212
13.3866 -15.3548 -2.5012 0.9212
16.6700 -11.7081 -2.5012 0.9212
17.9588 -9.6151 -2.5012 0.9212
20.2006 -2.6277 -2.5012 0.9212
20.3701 -0.1755 -2.5012 0.9212
19.0111 2.1405 -2.3490 0.9258
5.5385 6.1360 -1.0149 0.9672
4.3984 6.2462 -0.9380 0.9697
0.0559 5.6846 -0.6980 0.9774
-1.3428 5.6932 -0.7182 0.9767
-8.8490 17.2873 -2.3845 0.9247
-3.8247 5.6651 -0.8393 0.9728
-8.1230 5.7349 -1.2209 0.9607
-10.6721 5.7474 -1.4883 0.9523
-13.6523 5.3467 -1.8003 0.9426
-18.5244 4.7801 -2.3490 0.9258
-18.9653 2.5142 -2.3490 0.9258
-20.2484 -2.2297 -2.5012 0.9212
-10.4657 -2.4550 -1.3199 0.9576
-16.8972 -11.3778 -2.5012 0.9212
-11.7692 -16.6270 -2.5012 0.9212
-2.7018 -20.1909 -2.5012 0.9212
2.2049 -20.2511 -2.5012 0.9212
4.6280 -19.8382 -2.5012 0.9212
9.2377 -18.1559 -2.5012 0.9212
11.3572 -16.9111 -2.5012 0.9212
16.6126 -11.7895 -2.5012 0.9212
17.9116 -9.7029 -2.5012 0.9212
18.9499 -7.4749 -2.5012 0.9212
19.7122 -5.1381 -2.5012 0.9212
20.1875 -2.7265 -2.5012 0.9212
18.6363 4.3236 -2.3490 0.9258
8.4389 5.6525 -1.2471 0.9599
5.5386 6.0761 -1.0095 0.9674
2.2450 5.6712 -0.7489 0.9757
1.4869 5.6758 -0.7204 0.9766
0.7742 5.6802 -0.7039 0.9772
-0.6053 5.6887 -0.7024 0.9772
-1.3134 5.6930 -0.7174 0.9767
-2.0635 5.6977 -0.7441 0.9759
-6.0831 5.5586 -1.0118 0.9673
-8.0385 5.7344 -1.2124 0.9610
-13.5461 5.3816 -1.7897 0.9430
-20.3682 0.3250 -2.5012 0.9212
-20.2591 -2.1306 -2.5012 0.9212
-19.1618 -6.9134 -2.5012 0.9212
-18.1897 -9.1710 -2.5012 0.9212
-16.9526 -11.2950 -2.5012 0.9212
-13.7598 -15.0213 -2.5012 0.9212
-11.8504 -16.5692 -2.5012 0.9212
-5.2104 -19.6932 -2.5012 0.9212
-2.8005 -20.1774 -2.5012 0.9212
-0.3499 -20.3678 -2.5012 0.9212
2.1058 -20.2617 -2.5012 0.9212
6.8900 -19.1703 -2.5012 0.9212
9.1487 -18.2008 -2.5012 0.9212
11.2743 -16.9665 -2.5012 0.9212
15.0044 -13.7781 -2.5012 0.9212
16.5547 -11.8707 -2.5012 0.9212
18.9131 -7.5675 -2.5012 0.9212
20.1740 -2.8252 -2.5012 0.9212
20.3674 -0.3748 -2.5012 0.9212
19.0312 1.9544 -2.3490 0.9258
18.0116 6.4487 -2.3490 0.9258
17.1255 8.5820 -2.3520 0.9257
8.5289 5.6525 -1.2563 0.9596
14.6668 12.5053 -2.3666 0.9253
5.5387 6.0169 -1.0041 0.9676
4.4442 6.1819 -0.9348 0.9698
3.1142 5.6658 -0.7938 0.9743
0.8025 5.6800 -0.7043 0.9771
-0.5772 5.6885 -0.7020 0.9772
-2.0320 5.6975 -0.7427 0.9759
-7.9552 5.7339 -1.2041 0.9613
-10.4294 5.7491 -1.4622 0.9531
-13.4410 5.4162 -1.7793 0.9433
-18.4768 4.9612 -2.3490 0.9258
-20.2693 -2.0315 -2.5012 0.9212
-10.4951 -2.3538 -1.3207 0.9576
-18.2343 -9.0819 -2.5012 0.9212
-11.9313 -16.5110 -2.5012 0.9212
-9.8558 -17.8279 -2.5012 0.9212
-7.6368 -18.8852 -2.5012 0.9212
-5.3066 -19.6675 -2.5012 0.9212
2.0067 -20.2717 -2.5012 0.9212
6.7961 -19.2037 -2.5012 0.9212
9.0596 -18.2454 -2.5012 0.9212
11.1912 -17.0214 -2.5012 0.9212
13.1598 -15.5496 -2.5012 0.9212
16.4964 -11.9515 -2.5012 0.9212
17.8158 -9.8776 -2.5012 0.9212
20.1599 -2.9238 -2.5012 0.9212
20.3653 -0.4744 -2.5012 0.9212
18.6777 4.1410 -2.3490 0.9258
17.1649 8.4969 -2.3517 0.9257
14.7261 12.4320 -2.3663 0.9253
5.5388 5.9582 -0.9989 0.9677
3.1502 5.6656 -0.7960 0.9742
2.3093 5.6708 -0.7518 0.9756
0.8309 5.6799 -0.7048 0.9771
0.1394 5.6841 -0.6981 0.9773
-0.5490 5.6883 -0.7017 0.9772
-1.2548 5.6927 -0.7158 0.9768
-2.0006 5.6973 -0.7414 0.9760
-3.7084 5.6706 -0.8319 0.9731
-4.7349 5.6226 -0.9026 0.9708
-5.9716 5.5649 -1.0022 0.9676
-7.8730 5.7334 -1.1958 0.9615
-18.4523 5.0515 -2.3490 0.9258
-20.2790 -1.9323 -2.5012 0.9212
-10.4534 -3.6563 -1.3598 0.9564
-13.9061 -14.8859 -2.5012 0.9212
-0.5491 -20.3634 -2.5012 0.9212
1.9075 -20.2813 -2.5012 0.9212
4.3364 -19.9039 -2.5012 0.9212
6.7021 -19.2367 -2.5012 0.9212
8.9702 -18.2895 -2.5012 0.9212
14.8689 -13.9243 -2.5012 0.9212
17.7673 -9.9646 -2.5012 0.9212
20.1454 -3.0224 -2.5012 0.9212
19.0494 1.7681 -2.3490 0.9258
17.2040 8.4117 -2.3514 0.9257
14.7850 12.3584 -2.3660 0.9253
4.4898 6.1181 -0.9318 0.9699
3.1865 5.6654 -0.7981 0.9741
2.3416 5.6706 -0.7533 0.9756
1.5761 5.6753 -0.7232 0.9765
0.1672 5.6839 -0.6982 0.9773
-0.5209 5.6882 -0.7013 0.9772
-2.7793 5.7021 -0.7789 0.9748
-7.7920 5.7329 -1.1878 0.9618
-10.1897 5.7476 -1.4364 0.9539
-18.4274 5.1417 -2.3490 0.9258
-20.3303 0.6229 -2.4974 0.9213
-10.5244 -2.2525 -1.3215 0.9576
-15.6617 -13.0262 -2.5012 0.9212
-7.8212 -18.8095 -2.5012 0.9212
-3.0963 -20.1341 -2.5012 0.9212
-0.6488 -20.3605 -2.5012 0.9212
1.8083 -20.2904 -2.5012 0.9212
4.2389 -19.9249 -2.5012 0.9212
6.6079 -19.2693 -2.5012 0.9212
13.0071 -15.6776 -2.5012 0.9212
14.8006 -13.9969 -2.5012 0.9212
17.7183 -10.0514 -2.5012 0.9212
19.6079 -5.5228 -2.5012 0.9212
20.1303 -3.1209 -2.5012 0.9212
18.1043 6.1837 -2.3490 0.9258
8.8068 5.6524 -1.2849 0.9587
3.2230 5.6652 -0.8003 0.9741
1.6060 5.6751 -0.7242 0.9765
0.8837 5.6541 -0.7027 0.9772
-1.1965 5.6923 -0.7142 0.9768
-4.6450 5.6266 -0.8959 0.9710
-5.8618 5.5707 -0.9929 0.9679
-7.7119 5.7324 -1.1798 0.9620
-13.0377 5.4774 -1.7364 0.9446
-18.4020 5.2317 -2.3490 0.9258
-20.3140 0.7219 -2.4958 0.9213
-10.5390 -2.2017 -1.3220 0.9575
-18.3656 -8.8133 -2.5012 0.9212
-15.7252 -12.9495 -2.5012 0.9212
-14.0510 -14.7492 -2.5012 0.9212
-7.9131 -18.7711 -2.5012 0.9212
-0.7483 -20.3571 -2.5012 0.9212
4.1414 -19.9454 -2.5012 0.9212
6.5135 -19.3014 -2.5012 0.9212
8.7908 -18.3764 -2.5012 0.9212
14.7320 -14.0691 -2.5012 0.9212
16.3192 -12.1923 -2.5012 0.9212
18.7614 -7.9361 -2.5012 0.9212
20.3561 -0.7732 -2.5012 0.9212
18.7365 3.8665 -2.3490 0.9258
18.1344 6.0950 -2.3490 0.9258
17.2808 8.2408 -2.3507 0.9257
5.5608 5.8086 -0.9873 0.9681
1.6359 5.6749 -0.7252 0.9765
0.9113 5.6494 -0.7026 0.9772
-1.1674 5.6921 -0.7135 0.9769
-1.9069 5.6967 -0.7376 0.9761
-3.5942 5.6760 -0.8249 0.9733
-5.8077 5.5736 -0.9884 0.9681
-7.6330 5.7319 -1.1720 0.9623
-9.9582 5.7462 -1.4117 0.9547
-12.8876 5.4887 -1.7199 0.9451
-20.2972 0.8207 -2.4942 0.9214
-10.4218 -3.4745 -1.3489 0.9567
-12.2521 -16.2744 -2.5012 0.9212
-10.2028 -17.6316 -2.5012 0.9212
-0.8479 -20.3532 -2.5012 0.9212
12.8531 -15.8041 -2.5012 0.9212
16.2594 -12.2720 -2.5012 0.9212
18.7223 -8.0278 -2.5012 0.9212
20.0988 -3.3177 -2.5012 0.9212
20.3521 -0.8728 -2.5012 0.9212
20.2496 1.5802 -2.4939 0.9214
18.7552 3.7748 -2.3490 0.9258
17.3185 8.1550 -2.3504 0.9258
4.5576 6.0231 -0.9274 0.9700
3.2965 5.6647 -0.8047 0.9739
2.4394 5.6700 -0.7579 0.9754
3.1958 19.2143 -2.3916 0.9245
0.2507 5.6834 -0.6985 0.9773
-2.6762 5.7014 -0.7733 0.9749
-3.5565 5.6777 -0.8226 0.9734
-5.7541 5.5764 -0.9839 0.9682
-7.5551 5.7314 -1.1644 0.9625
-12.7403 5.4997 -1.7038 0.9456
-10.0743 2.9710 -1.2897 0.9586
-20.0341 0.9082 -2.4624 0.9224
-20.3129 -1.5352 -2.5012 0.9212
-10.8528 -2.1567 -1.3586 0.9564
-18.4510 -8.6332 -2.5012 0.9212
-15.8511 -12.7950 -2.5012 0.9212
-12.3316 -16.2143 -2.5012 0.9212
-8.0964 -18.6927 -2.5012 0.9212
-3.3914 -20.0865 -2.5012 0.9212
-0.9474 -20.3488 -2.5012 0.9212
3.9461 -19.9850 -2.5012 0.9212
6.3244 -19.3642 -2.5012 0.9212
12.7756 -15.8668 -2.5012 0.9212
14.5936 -14.2125 -2.5012 0.9212
17.5689 -10.3104 -2.5012 0.9212
19.5247 -5.8099 -2.5012 0.9212
20.3476 -0.9723 -2.5012 0.9212
18.7734 3.6830 -2.3490 0.9258
18.1931 5.9173 -2.3490 0.9258
9.0978 5.6524 -1.3151 0.9578
3.3335 5.6645 -0.8070 0.9739
2.4722 5.6698 -0.7595 0.9754
1.6961 5.6746 -0.7272 0.9764
0.2785 5.6833 -0.6987 0.9773
-1.1094 5.6918 -0.7120 0.9769
-3.5190 5.6795 -0.8204 0.9734
-4.5128 5.6328 -0.8862 0.9713
-5.7009 5.5792 -0.9794 0.9684
-7.4783 5.7309 -1.1568 0.9627
-9.7345 5.7448 -1.3879 0.9555
-10.0709 3.0236 -1.2911 0.9585
-20.3202 -1.4357 -2.5012 0.9212
-10.4010 -3.3548 -1.3419 0.9569
-18.4930 -8.5429 -2.5012 0.9212
-15.9135 -12.7173 -2.5012 0.9212
-8.1877 -18.6529 -2.5012 0.9212
-3.4896 -20.0697 -2.5012 0.9212
-1.0470 -20.3439 -2.5012 0.9212
3.8482 -20.0040 -2.5012 0.9212
8.5202 -18.5034 -2.5012 0.9212
10.6868 -17.3425 -2.5012 0.9212
12.6978 -15.9291 -2.5012 0.9212
17.5183 -10.3962 -2.5012 0.9212
18.6429 -8.2105 -2.5012 0.9212
19.4961 -5.9054 -2.5012 0.9212
20.3426 -1.0718 -2.5012 0.9212
17.3928 7.9831 -2.3498 0.9258
15.0740 11.9861 -2.3647 0.9253
4.6024 5.9602 -0.9246 0.9701
2.5052 5.6696 -0.7611 0.9753
1.7263 5.6744 -0.7283 0.9764
3.3835 19.1811 -2.3915 0.9245
-2.6083 5.7010 -0.7698 0.9751
-4.4693 5.6349 -0.8831 0.9714
-7.4024 5.7305 -1.1494 0.9630
-9.6255 5.7441 -1.3763 0.9558
-18.8363 3.3464 -2.3490 0.9258
-18.5345 -8.4523 -2.5012 0.9212
-17.3816 -10.6232 -2.5012 0.9212
-12.4896 -16.0929 -2.5012 0.9212
-10.4604 -17.4800 -2.5012 0.9212
-8.2789 -18.6126 -2.5012 0.9212
-5.9769 -19.4743 -2.5012 0.9212
1.3114 -20.3286 -2.5012 0.9212
8.4296 -18.5449 -2.5012 0.9212
10.6019 -17.3946 -2.5012 0.9212
16.0776 -12.5093 -2.5012 0.9212
17.4672 -10.4818 -2.5012 0.9212
18.6025 -8.3016 -2.5012 0.9212
20.0480 -3.6123 -2.5012 0.9212
18.8085 3.4991 -2.3490 0.9258
18.2502 5.7390 -2.3490 0.9258
9.2928 5.6484 -1.3353 0.9571
1.7861 -15.6908 -2.5012 0.9380
3.6629 -15.3614 -2.5012 0.9380
5.4864 -14.8084 -2.5012 0.9380
7.2301 -14.0398 -2.5012 0.9380
8.8685 -13.0668 -2.5012 0.9380
10.3777 -11.9035 -2.5012 0.9380
11.7358 -10.5669 -2.5012 0.9380
13.9222 -7.4539 -2.5012 0.9380
14.6920 -5.7124 -2.4967 0.9382
14.7380 1.6594 -2.3490 0.9417
14.4309 3.4224 -2.3490 0.9417
13.9136 5.1356 -2.3490 0.9417
13.1938 6.7740 -2.3490 0.9417
5.5416 6.1395 -1.3099 0.9671
2.2131 5.6714 -0.9642 0.9756
0.7460 5.6804 -0.9074 0.9771
-0.6335 5.6889 -0.9066 0.9771
-1.3428 5.6932 -0.9265 0.9766
-6.0681 5.4907 -1.2961 0.9674
-8.1230 5.7349 -1.5749 0.9605
-13.8099 5.4084 -2.3490 0.9417
-14.3607 3.7057 -2.3490 0.9417
-14.7025 1.9491 -2.3490 0.9417
-15.7911 0.1747 -2.5012 0.9380
-15.6972 -1.7285 -2.5012 0.9380
-9.7206 -2.2802 -1.5814 0.9604
-9.5421 -3.4955 -1.6095 0.9597
-14.0662 -7.1785 -2.5012 0.9380
-7.5049 -13.8948 -2.5012 0.9380
-5.7768 -14.6976 -2.5012 0.9380
-3.9645 -15.2863 -2.5012 0.9380
-2.0945 -15.6526 -2.5012 0.9380
-0.1940 -15.7909 -2.5012 0.9380
1.7093 -15.6993 -2.5012 0.9380
3.5878 -15.3792 -2.5012 0.9380
5.4139 -14.8351 -2.5012 0.9380
7.1613 -14.0750 -2.5012 0.9380
8.8044 -13.1100 -2.5012 0.9380
10.3193 -11.9541 -2.5012 0.9380
11.6840 -10.6242 -2.5012 0.9380
15.6500 -2.1137 -2.5012 0.9380
15.7906 -0.2133 -2.5012 0.9380
14.7853 1.5915 -2.3553 0.9416
14.4474 3.3518 -2.3490 0.9417
12.3317 8.2599 -2.3508 0.9417
6.6045 5.6872 -1.3804 0.9653
5.5412 6.0790 -1.3028 0.9672
4.4214 6.2140 -1.2079 0.9696
3.0783 5.6661 -1.0213 0.9742
2.2450 5.6712 -0.9660 0.9756
1.4869 5.6758 -0.9293 0.9765
0.7742 5.6802 -0.9080 0.9771
0.0837 5.6845 -0.9004 0.9772
-0.6053 5.6887 -0.9061 0.9771
-6.7524 13.3521 -2.3698 0.9412
-3.7777 5.6549 -1.0771 0.9728
-6.0133 5.4948 -1.2901 0.9675
-13.7832 5.4759 -2.3490 0.9417
-14.3424 3.7759 -2.3490 0.9417
-15.7901 0.2519 -2.5012 0.9380
-15.7055 -1.6517 -2.5012 0.9380
-9.5410 -3.4423 -1.6065 0.9598
-14.1012 -7.1096 -2.5012 0.9380
-13.1422 -8.7563 -2.5012 0.9380
-11.9919 -10.2754 -2.5012 0.9380
-10.6670 -11.6450 -2.5012 0.9380
-5.8486 -14.6692 -2.5012 0.9380
-2.1710 -15.6421 -2.5012 0.9380
-0.2712 -15.7898 -2.5012 0.9380
1.6325 -15.7075 -2.5012 0.9380
3.5125 -15.3965 -2.5012 0.9380
5.3413 -14.8614 -2.5012 0.9380
10.2607 -12.0045 -2.5012 0.9380
11.6319 -10.6812 -2.5012 0.9380
13.8487 -7.5898 -2.5012 0.9380
15.2618 -4.0579 -2.5012 0.9380
15.7894 -0.2906 -2.5012 0.9380
14.7929 1.5192 -2.3553 0.9416
14.4636 3.2810 -2.3490 0.9417
13.9632 4.9992 -2.3490 0.9417
13.2594 6.6446 -2.3490 0.9417
12.3707 8.1986 -2.3506 0.9417
6.6698 5.6868 -1.3882 0.9651
5.5408 6.0192 -1.2958 0.9674
3.1142 5.6658 -1.0240 0.9742
2.2771 5.6710 -0.9679 0.9756
1.5165 5.6757 -0.9305 0.9765
0.1116 5.6843 -0.9005 0.9772
-2.0320 5.6975 -0.9581 0.9758
-4.7519 5.5871 -1.1617 0.9707
-10.4294 5.7491 -1.8862 0.9529
-13.7563 5.5432 -2.3490 0.9417
-14.3238 3.8460 -2.3490 0.9417
-14.6827 2.0928 -2.3490 0.9417
-15.7887 0.3292 -2.5012 0.9380
-15.7134 -1.5749 -2.5012 0.9380
-9.7469 -2.1860 -1.5821 0.9604
-9.5409 -3.3896 -1.6037 0.9598
-14.1358 -7.0406 -2.5012 0.9380
-13.1849 -8.6919 -2.5012 0.9380
-12.0420 -10.2167 -2.5012 0.9380
-7.6405 -13.8207 -2.5012 0.9380
-5.9203 -14.6404 -2.5012 0.9380
-0.3485 -15.7882 -2.5012 0.9380
1.5556 -15.7153 -2.5012 0.9380
8.6757 -13.1955 -2.5012 0.9380
12.7885 -9.2652 -2.5012 0.9380
14.6331 -5.9382 -2.5012 0.9380
15.7878 -0.3678 -2.5012 0.9380
14.4795 3.2103 -2.3490 0.9417
13.9875 4.9309 -2.3490 0.9417
13.2918 6.5796 -2.3490 0.9417
12.4095 8.1372 -2.3503 0.9417
11.3652 9.5947 -2.3558 0.9415
5.5405 5.9600 -1.2889 0.9676
0.1394 5.6841 -0.9005 0.9772
-1.2548 5.6927 -0.9233 0.9767
-2.0006 5.6973 -0.9564 0.9758
-7.8730 5.7334 -1.5426 0.9613
-10.3085 5.7483 -1.8694 0.9533
-14.3048 3.9161 -2.3490 0.9417
-15.7869 0.4064 -2.5012 0.9380
-15.7209 -1.4980 -2.5012 0.9380
-9.8042 -2.1485 -1.5897 0.9602
-9.5415 -3.3373 -1.6010 0.9599
-14.1701 -6.9713 -2.5012 0.9380
-13.2273 -8.6273 -2.5012 0.9380
-9.3120 -12.7545 -2.5012 0.9380
-7.7080 -13.7832 -2.5012 0.9380
-0.4257 -15.7863 -2.5012 0.9380
8.6111 -13.2378 -2.5012 0.9380
13.7738 -7.7249 -2.5012 0.9380
15.6173 -2.3431 -2.5012 0.9380
15.7858 -0.4450 -2.5012 0.9380
14.4951 3.1394 -2.3490 0.9417
5.5401 5.9015 -1.2820 0.9678
4.4898 6.1181 -1.2019 0.9697
2.3416 5.6706 -0.9717 0.9755
1.5761 5.6753 -0.9329 0.9764
-0.5209 5.6882 -0.9047 0.9771
-1.2256 5.6925 -0.9223 0.9767
-4.6638 5.5934 -1.1535 0.9709
-5.8517 5.5069 -1.2727 0.9680
-7.7920 5.7329 -1.5322 0.9616
-10.1897 5.7476 -1.8529 0.9537
-14.2855 3.9860 -2.3490 0.9417
-15.7847 0.4836 -2.5012 0.9380
-15.7280 -1.4211 -2.5012 0.9380
-9.8683 -2.1121 -1.5984 0.9600
-9.5419 -3.2852 -1.5984 0.9600
-12.1414 -10.0983 -2.5012 0.9380
-10.8367 -11.4872 -2.5012 0.9380
-6.0632 -14.5817 -2.5012 0.9380
-0.5029 -15.7841 -2.5012 0.9380
1.4018 -15.7297 -2.5012 0.9380
3.2862 -15.4464 -2.5012 0.9380
6.8845 -14.2124 -2.5012 0.9380
11.4739 -10.8508 -2.5012 0.9380
12.6973 -9.3898 -2.5012 0.9380
15.2006 -4.2814 -2.5012 0.9380
14.5102 3.0685 -2.3490 0.9417
14.0350 4.7938 -2.3490 0.9417
12.4860 8.0139 -2.3499 0.9417
4.5124 6.0863 -1.2000 0.9698
3.2230 5.6652 -1.0323 0.9739
2.3741 5.6704 -0.9736 0.9754
1.6060 5.6751 -0.9341 0.9764
0.1950 5.6838 -0.9008 0.9772
-0.4929 5.6880 -0.9043 0.9771
-1.1965 5.6923 -0.9213 0.9767
-3.6263 5.6651 -1.0653 0.9731
-5.7987 5.5108 -1.2670 0.9681
-7.7119 5.7324 -1.5219 0.9618
-13.6734 5.7445 -2.3490 0.9417
-14.6504 2.3081 -2.3490 0.9417
-15.7821 0.5608 -2.5012 0.9380
-9.9271 -2.0739 -1.6062 0.9598
-9.5423 -3.2332 -1.5957 0.9600
-13.3110 -8.4975 -2.5012 0.9380
-6.1345 -14.5519 -2.5012 0.9380
-4.3372 -15.1848 -2.5012 0.9380
1.3249 -15.7364 -2.5012 0.9380
3.2105 -15.4623 -2.5012 0.9380
5.0495 -14.9630 -2.5012 0.9380
6.8149 -14.2459 -2.5012 0.9380
10.0239 -12.2029 -2.5012 0.9380
11.4207 -10.9068 -2.5012 0.9380
13.6975 -7.8593 -2.5012 0.9380
15.1795 -4.3557 -2.5012 0.9380
13.3869 6.3839 -2.3490 0.9417
11.5017 9.4244 -2.3551 0.9416
5.5641 5.8121 -1.2744 0.9679
3.2596 5.6649 -1.0352 0.9739
2.4067 5.6702 -0.9756 0.9754
0.9113 5.6494 -0.9063 0.9771
0.2228 5.6836 -0.9009 0.9772
-0.4649 5.6878 -0.9039 0.9772
-1.1674 5.6921 -0.9203 0.9767
-1.9069 5.6967 -0.9515 0.9760
-2.7104 5.7016 -0.9999 0.9748
-3.5889 5.6676 -1.0625 0.9732
-10.0169 2.9009 -1.6517 0.9586
-15.7792 0.6380 -2.5012 0.9380
-12.2396 -9.9791 -2.5012 0.9380
-6.2056 -14.5217 -2.5012 0.9380
-0.6573 -15.7784 -2.5012 0.9380
1.2479 -15.7427 -2.5012 0.9380
3.1349 -15.4778 -2.5012 0.9380
4.9762 -14.9876 -2.5012 0.9380
6.7452 -14.2791 -2.5012 0.9380
9.9641 -12.2518 -2.5012 0.9380
11.3672 -10.9625 -2.5012 0.9380
12.6048 -9.5136 -2.5012 0.9380
14.5141 -6.2234 -2.5012 0.9380
15.1580 -4.4299 -2.5012 0.9380
15.5812 -2.5720 -2.5012 0.9380
14.8256 1.1570 -2.3553 0.9416
11.5466 9.3671 -2.3549 0.9416
4.5576 6.0231 -1.1963 0.9699
2.4394 5.6700 -0.9776 0.9753
2.4604 14.7929 -2.3751 0.9411
-0.4369 5.6877 -0.9035 0.9772
-1.1384 5.6920 -0.9194 0.9768
-3.5517 5.6701 -1.0597 0.9733
-5.6943 5.5186 -1.2559 0.9684
-7.5551 5.7314 -1.5020 0.9623
-9.8454 5.7455 -1.8055 0.9549
-13.6166 5.8780 -2.3490 0.9417
-10.0281 2.9574 -1.6559 0.9585
-14.6272 2.4513 -2.3490 0.9417
-9.5426 -3.1296 -1.5906 0.9601
-14.3038 -6.6927 -2.5012 0.9380
-12.2883 -9.9191 -2.5012 0.9380
-9.5598 -12.5698 -2.5012 0.9380
4.9029 -15.0117 -2.5012 0.9380
11.3134 -11.0180 -2.5012 0.9380
12.5581 -9.5752 -2.5012 0.9380
15.7741 -0.7538 -2.5012 0.9380
14.8311 1.0844 -2.3553 0.9416
14.5537 2.8552 -2.3490 0.9417
12.5986 7.8275 -2.3492 0.9417
11.5913 9.3097 -2.3547 0.9416
5.5864 5.7222 -1.2666 0.9681
4.5800 5.9916 -1.1945 0.9699
2.4722 5.6698 -0.9797 0.9753
1.6961 5.6746 -0.9381 0.9763
2.5327 14.7804 -2.3751 0.9411
-1.1094 5.6918 -0.9185 0.9768
-2.6421 5.7012 -0.9952 0.9749
-3.5148 5.6726 -1.0569 0.9733
-4.4910 5.6056 -1.1376 0.9713
-5.6428 5.5224 -1.2505 0.9685
-13.5877 5.9445 -2.3490 0.9417
-10.0278 3.0107 -1.6583 0.9585
-14.6150 2.5228 -2.3490 0.9417
-10.4727 -2.0279 -1.6895 0.9577
-9.5427 -3.0780 -1.5881 0.9602
-14.3363 -6.6227 -2.5012 0.9380
-13.4343 -8.3012 -2.5012 0.9380
-11.0594 -11.2730 -2.5012 0.9380
-9.6212 -12.5229 -2.5012 0.9380
-6.3474 -14.4603 -2.5012 0.9380
1.0937 -15.7542 -2.5012 0.9380
6.6051 -14.3444 -2.5012 0.9380
8.2848 -13.4444 -2.5012 0.9380
11.2594 -11.0732 -2.5012 0.9380
12.5111 -9.6365 -2.5012 0.9380
13.5807 -8.0595 -2.5012 0.9380
15.1140 -4.5780 -2.5012 0.9380
14.5675 2.7839 -2.3490 0.9417
11.6356 9.2521 -2.3545 0.9416
5.5861 5.6662 -1.2602 0.9683
4.6024 5.9602 -1.1927 0.9700
3.3708 5.6643 -1.0440 0.9737
2.6049 14.7675 -2.3751 0.9411
-0.3809 5.6873 -0.9028 0.9772
-1.0805 5.6916 -0.9176 0.9768
-2.6083 5.7010 -0.9930 0.9749
-3.4780 5.6750 -1.0542 0.9734
-4.4485 5.6086 -1.1338 0.9714
-5.5917 5.5261 -1.2452 0.9687
-7.4024 5.7305 -1.4827 0.9628
-12.9680 5.7492 -2.2467 0.9442
-14.6025 2.5942 -2.3490 0.9417
-15.7681 0.8695 -2.5012 0.9380
-15.7581 -1.0359 -2.5012 0.9380
-10.7074 -2.0191 -1.7258 0.9568
-11.1144 -11.2187 -2.5012 0.9380
-8.1092 -13.5510 -2.5012 0.9380
-6.4180 -14.4291 -2.5012 0.9380
-2.7814 -15.5452 -2.5012 0.9380
-0.8888 -15.7671 -2.5012 0.9380
4.7558 -15.0590 -2.5012 0.9380
8.2189 -13.4848 -2.5012 0.9380
9.7832 -12.3967 -2.5012 0.9380
14.4212 -6.4357 -2.5012 0.9380
15.0914 -4.6519 -2.5012 0.9380
15.5418 -2.8004 -2.5012 0.9380
14.8453 0.9395 -2.3560 0.9415
14.1481 4.4491 -2.3490 0.9417
12.6737 7.7033 -2.3490 0.9417
11.6797 9.1942 -2.3543 0.9416
5.6386 5.6638 -1.2658 0.9682
4.6247 5.9289 -1.1909 0.9700
3.4083 5.6640 -1.0470 0.9736
-1.6442 -12.7622 -2.5012 0.9489
-0.0951 -12.8673 -2.5012 0.9489
1.4553 -12.7851 -2.5012 0.9489
5.8912 -11.4399 -2.5012 0.9489
7.2262 -10.6470 -2.5012 0.9489
9.5626 -8.6102 -2.5012 0.9489
10.5300 -7.3957 -2.5012 0.9489
11.3441 -6.0736 -2.5012 0.9489
12.4674 -3.1846 -2.5012 0.9489
12.7602 -1.6598 -2.5012 0.9489
12.8672 -0.1109 -2.5012 0.9489
12.4599 1.4029 -2.4373 0.9502
11.7585 2.7886 -2.3490 0.9519
10.7505 5.5196 -2.3490 0.9519
2.2131 5.6714 -1.1834 0.9755
0.0559 5.6846 -1.1050 0.9771
-5.5329 10.8090 -2.3603 0.9517
-5.9606 5.3934 -1.5625 0.9678
-8.1230 5.7349 -1.9328 0.9603
-11.2525 4.4068 -2.3490 0.9519
-12.8669 0.1423 -2.5012 0.9489
-8.9461 -3.2772 -1.8519 0.9619
-11.4614 -5.8492 -2.5012 0.9489
-10.6735 -7.1871 -2.5012 0.9489
-7.4343 -10.5028 -2.5012 0.9489
-6.1152 -11.3217 -2.5012 0.9489
-3.2303 -12.4556 -2.5012 0.9489
-1.7066 -12.7540 -2.5012 0.9489
-0.1581 -12.8667 -2.5012 0.9489
2.9234 -12.5312 -2.5012 0.9489
4.4114 -12.0879 -2.5012 0.9489
5.8352 -11.4686 -2.5012 0.9489
11.3142 -6.1290 -2.5012 0.9489
11.9701 -4.7217 -2.5012 0.9489
12.4516 -3.2456 -2.5012 0.9489
12.8665 -0.1738 -2.5012 0.9489
12.5023 1.3458 -2.4442 0.9501
10.7774 5.4669 -2.3490 0.9519
10.0405 6.7252 -2.3490 0.9519
9.1589 7.8868 -2.3494 0.9519
5.5412 6.0790 -1.5989 0.9670
3.0783 5.6661 -1.2534 0.9741
2.2450 5.6712 -1.1856 0.9755
0.7742 5.6802 -1.1143 0.9769
0.0837 5.6845 -1.1051 0.9771
-2.0635 5.6977 -1.1779 0.9756
-3.7415 5.6007 -1.3092 0.9729
-5.9178 5.4075 -1.5582 0.9679
-8.0385 5.7344 -1.9194 0.9606
-11.9719 1.6467 -2.3490 0.9519
-12.7971 -1.3458 -2.5012 0.9489
-8.9404 -3.2256 -1.8475 0.9620
-11.4899 -5.7931 -2.5012 0.9489
-10.7085 -7.1348 -2.5012 0.9489
-9.7712 -8.3726 -2.5012 0.9489
-8.6917 -9.4885 -2.5012 0.9489
-6.1705 -11.2917 -2.5012 0.9489
-4.7655 -11.9527 -2.5012 0.9489
-0.2210 -12.8658 -2.5012 0.9489
1.3302 -12.7987 -2.5012 0.9489
2.8620 -12.5453 -2.5012 0.9489
5.7790 -11.4970 -2.5012 0.9489
8.3606 -9.7815 -2.5012 0.9489
10.4571 -7.4984 -2.5012 0.9489
12.7433 -1.7846 -2.5012 0.9489
12.8655 -0.2367 -2.5012 0.9489
12.5447 1.2883 -2.4513 0.9499
10.8040 5.4141 -2.3490 0.9519
5.5408 6.0192 -1.5903 0.9672
4.4442 6.1819 -1.4799 0.9695
-1.2841 5.6929 -1.1344 0.9765
-2.0320 5.6975 -1.1758 0.9757
-2.8320 5.6687 -1.2317 0.9745
-3.7038 5.6034 -1.3056 0.9730
-4.7028 5.5294 -1.4110 0.9709
-7.9552 5.7339 -1.9061 0.9608
-11.9637 1.7053 -2.3490 0.9519
-11.5181 -5.7368 -2.5012 0.9489
-10.7433 -7.0823 -2.5012 0.9489
-9.8121 -8.3247 -2.5012 0.9489
-8.7380 -9.4459 -2.5012 0.9489
-7.5367 -10.4296 -2.5012 0.9489
-4.8240 -11.9292 -2.5012 0.9489
1.2676 -12.8051 -2.5012 0.9489
4.2929 -12.1304 -2.5012 0.9489
7.0692 -10.7519 -2.5012 0.9489
8.3127 -9.8222 -2.5012 0.9489
9.4352 -8.7495 -2.5012 0.9489
10.4203 -7.5494 -2.5012 0.9489
11.9233 -4.8385 -2.5012 0.9489
12.4193 -3.3673 -2.5012 0.9489
10.8304 5.3612 -2.3490 0.9519
10.1058 6.6266 -2.3490 0.9519
9.2343 7.7957 -2.3491 0.9519
5.5405 5.9600 -1.5818 0.9674
3.1502 5.6656 -1.2601 0.9739
1.5462 5.6755 -1.1434 0.9763
0.1394 5.6841 -1.1052 0.9771
