ply
format ascii 1.0
element vertex 1572
property float32 x
property float32 y
property float32 z
property float32 I
end_header
2.5761 5.6692 0.7646 0.9752
1.7923 5.6740 0.7306 0.9763
-0.3170 5.6869 0.6993 0.9773
-1.7418 5.6957 0.7313 0.9763
-3.4038 5.7059 0.8158 0.9736
-4.4188 5.7121 0.8867 0.9713
-5.6466 5.7197 0.9869 0.9681
-9.3509 5.7425 1.3474 0.9567
-12.5582 5.7622 1.6965 0.9458
-90.8631 -39.8883 12.1843 0.6704
-32.2553 -24.7638 4.9930 0.8488
-27.6210 -34.5123 5.4276 0.8368
-21.3892 -34.5454 4.9889 0.8490
-16.9592 -36.6072 4.9537 0.8499
-12.4698 -38.4916 4.9680 0.8495
13.3614 -44.8644 5.7478 0.8281
18.5795 -42.7477 5.7231 0.8287
26.4660 -45.1133 6.4221 0.8099
44.0199 -45.2473 7.7511 0.7754
49.6323 -40.0208 7.8284 0.7734
50.0538 -31.2454 7.2450 0.7884
54.1073 -10.7656 6.7738 0.8007
54.1482 -4.1152 6.6677 0.8034
54.1884 2.4235 6.6601 0.8036
49.9660 14.6819 6.3944 0.8107
28.8488 16.7827 4.0980 0.8741
2.6767 5.6685 0.7697 0.9751
1.1513 5.6779 0.7113 0.9769
-1.6508 5.6951 0.7281 0.9764
-2.4279 5.6999 0.7607 0.9753
-4.2860 5.7113 0.8768 0.9716
-5.4826 5.7187 0.9727 0.9686
-9.0480 5.7406 1.3157 0.9577
-32.6789 -24.3368 5.0029 0.8486
-70.9917 -67.5643 12.0334 0.6737
-28.4557 -34.5072 5.4917 0.8351
-21.9805 -34.3660 5.0089 0.8484
-17.5438 -36.4597 4.9680 0.8495
-13.0320 -38.3049 4.9680 0.8495
-3.6285 -41.6805 5.1371 0.8448
15.0195 -53.2713 6.7959 0.8001
18.0152 -43.1673 5.7433 0.8282
33.4857 -45.3090 6.9177 0.7969
42.7161 -45.2132 7.6373 0.7783
49.6249 -41.2282 7.9216 0.7710
72.2132 -24.8634 9.3775 0.7351
24.3904 22.8749 4.1058 0.8739
1.9765 5.6728 0.7376 0.9761
1.2380 5.6774 0.7135 0.9769
-0.1501 5.6859 0.6984 0.9773
-1.5606 5.6946 0.7250 0.9765
-2.3242 5.6861 0.7542 0.9755
-3.1803 5.7045 0.8019 0.9740
-4.1561 5.7105 0.8672 0.9719
-6.7913 5.7267 1.0908 0.9648
-8.7590 5.7388 1.2857 0.9587
-11.6343 5.7565 1.5938 0.9490
-29.5878 -0.6727 3.6339 0.8876
-68.3141 -18.4533 8.6885 0.7519
-89.4926 -36.1995 11.8532 0.6777
23.9998 -43.7993 6.1323 0.8177
23.8875 -33.3320 5.0351 0.8477
41.5407 -45.2791 7.5448 0.7806
49.6173 -42.4650 8.0188 0.7686
72.2171 -26.0537 9.4265 0.7339
54.0971 -12.4206 6.8151 0.7996
54.1786 0.8351 6.6531 0.8038
50.4070 13.2210 6.3985 0.8106
24.9588 17.7490 3.7604 0.8839
3.7989 5.6616 0.8372 0.9729
2.0699 5.6723 0.7414 0.9760
1.3253 5.6768 0.7158 0.9768
0.6205 5.6812 0.7017 0.9772
-0.0668 5.6854 0.6981 0.9773
-0.7571 5.6896 0.7048 0.9771
-1.4712 5.6940 0.7221 0.9766
-3.0713 5.7038 0.7954 0.9742
-6.5915 5.7255 1.0720 0.9654
-8.4828 5.7371 1.2574 0.9596
-11.2130 5.7539 1.5475 0.9505
-31.4882 -0.2548 3.8664 0.8808
-68.0734 -17.3230 8.6247 0.7535
-30.2173 -34.5315 5.6341 0.8312
-23.5430 -34.5373 5.1322 0.8450
-18.6039 -35.9304 4.9680 0.8495
-10.3726 -88.9267 10.9928 0.6971
23.1699 -43.7942 6.0834 0.8190
31.4686 -45.2966 6.7722 0.8007
40.2638 -45.1982 7.4323 0.7835
50.0370 -34.3776 7.4541 0.7830
53.4271 -27.9117 7.4013 0.7843
54.0920 -13.2560 6.8382 0.7990
54.1334 -6.5152 6.6947 0.8027
54.1738 0.0416 6.6517 0.8039
50.3194 6.1347 6.2242 0.8152
32.8533 17.2278 4.5549 0.8611
24.8550 17.1328 3.7066 0.8855
24.6283 21.7785 4.0367 0.8759
5.0213 5.6541 0.9285 0.9700
2.1643 5.6717 0.7454 0.9758
1.4131 5.6763 0.7182 0.9767
0.7048 5.6806 0.7028 0.9772
-5.0172 5.7158 0.9338 0.9698
-6.3984 5.7243 1.0541 0.9660
-10.8155 5.7514 1.5041 0.9518
-31.1167 -34.5260 5.7069 0.8292
-19.9618 -28.3818 4.2605 0.8695
-19.1279 -35.6542 4.9680 0.8495
-11.4634 -87.1646 10.7946 0.7017
15.4246 -42.0685 5.5016 0.8348
30.4302 -45.2001 6.6904 0.8028
50.0303 -35.4623 7.5296 0.7810
51.5516 -27.9001 7.1973 0.7896
49.9467 11.5486 6.2945 0.8133
45.9225 16.6473 5.9976 0.8213
24.8811 21.3609 4.0264 0.8762
5.1705 5.6532 0.9407 0.9696
2.2597 5.6711 0.7496 0.9757
0.7894 5.6801 0.7041 0.9772
0.0997 5.6844 0.6981 0.9773
-1.2944 5.6929 0.7168 0.9767
-4.8701 5.7149 0.9219 0.9702
-7.9652 5.7339 1.2051 0.9612
-90.3742 24.2637 11.4895 0.6858
-93.4966 -33.1210 12.1790 0.6705
-73.6308 -36.5720 10.0945 0.7180
-68.5960 -45.0941 10.0795 0.7183
-25.0734 -34.5629 5.2429 0.8419
-10.6075 -19.0957 2.6821 0.9157
-14.9145 -36.6479 4.8582 0.8526
-11.8195 -43.3889 5.5217 0.8342
14.7819 -42.2178 5.4922 0.8350
22.0903 -44.8864 6.1426 0.8174
29.4328 -45.1316 6.6157 0.8048
37.9897 -45.2461 7.2541 0.7881
48.4612 -45.3103 8.1460 0.7654
49.8043 -27.9049 7.0096 0.7945
54.2168 -14.9824 6.9065 0.7972
50.6756 4.6771 6.2486 0.8146
48.0712 16.6341 6.2458 0.8146
26.0755 16.8696 3.8133 0.8824
4.1691 5.6594 0.8631 0.9721
3.2015 5.6653 0.7990 0.9741
1.5883 5.6665 0.7226 0.9766
0.8742 5.6796 0.7056 0.9771
0.1829 5.6838 0.6982 0.9773
-0.5040 5.6881 0.7011 0.9772
-1.2069 5.6924 0.7145 0.9768
-1.9480 5.6970 0.7393 0.9760
-6.9836 2.9320 0.9300 0.9699
-75.6022 -36.1810 10.2910 0.7134
-25.8505 -34.5582 5.2990 0.8404
-20.1638 -35.0788 4.9680 0.8495
14.2292 -42.6310 5.5183 0.8343
20.3550 -42.9358 5.8343 0.8257
27.0844 -33.2339 5.2641 0.8413
51.1942 -21.9351 6.8385 0.7990
54.1185 -8.9395 6.7350 0.8017
54.1591 -2.3387 6.6561 0.8038
54.1994 4.2031 6.6748 0.8033
53.8179 10.7940 6.7395 0.8016
49.9770 16.4781 6.4614 0.8089
34.8505 16.3660 4.7274 0.8563
24.9739 20.2011 3.9440 0.8786
5.4585 5.6280 0.9627 0.9689
3.3115 5.6646 0.8057 0.9739
2.4540 5.6699 0.7586 0.9754
18.3366 61.9177 7.9289 0.7709
0.9595 5.6791 0.7072 0.9771
0.2663 5.6833 0.6986 0.9773
-0.4201 5.6876 0.7002 0.9773
54.1410 -21.5576 5.0984 0.7914
54.2273 -7.5221 4.7897 0.8027
47.6025 4.9331 4.1870 0.8252
49.9456 11.3689 4.4814 0.8141
46.4084 16.6444 4.3134 0.8204
1.5205 5.6690 0.5135 0.9767
0.8091 5.6800 0.5020 0.9772
0.1191 5.6842 0.4974 0.9774
-0.5685 5.6885 0.5002 0.9773
-2.0199 5.6974 0.5289 0.9760
-3.7544 5.7080 0.5977 0.9729
-4.8364 5.7147 0.6550 0.9704
-23.0596 21.3920 2.7519 0.8814
-7.9076 5.7336 0.8545 0.9615
-6.9653 2.8327 0.6578 0.9703
-21.3725 5.8163 1.9379 0.9149
-75.8653 -37.3597 7.3985 0.7121
-10.5349 -18.8134 1.8864 0.9171
-11.9901 -43.4303 3.9418 0.8345
15.3588 -44.3505 4.1062 0.8282
29.2131 -45.1305 4.7034 0.8058
37.2686 -44.6962 5.0914 0.7916
54.2223 -8.3324 4.7995 0.8023
54.1701 -1.7301 4.7417 0.8044
48.0035 4.2653 4.2163 0.8241
34.7315 16.7887 3.3750 0.8565
24.8764 20.5885 2.8251 0.8784
4.1989 5.6592 0.6165 0.9721
2.3789 5.6704 0.5380 0.9756
0.8941 5.6795 0.5030 0.9772
-0.4844 5.6879 0.4994 0.9773
-1.1866 5.6923 0.5087 0.9769
-1.9262 5.6968 0.5261 0.9761
-2.7304 5.7018 0.5531 0.9749
-3.6354 5.7073 0.5920 0.9732
-4.6938 5.7138 0.6469 0.9707
-5.9895 5.7218 0.7247 0.9673
-7.6669 5.7321 0.8375 0.9623
-10.0028 5.7465 1.0093 0.9547
-20.1749 5.8090 1.8368 0.9192
-35.1703 -36.5471 4.4375 0.8157
-15.6897 -36.6431 3.4874 0.8521
-13.2586 -80.3891 7.1281 0.7210
11.3215 -56.3749 5.0306 0.7938
14.6318 -44.3405 4.0850 0.8290
36.5602 -45.1754 5.0845 0.7919
46.6654 -45.2376 5.6862 0.7703
49.6974 -29.0362 5.0357 0.7937
54.1296 -23.4117 5.1597 0.7891
54.0824 -16.0016 4.9344 0.7973
54.2173 -9.1460 4.8104 0.8019
54.2580 -2.5286 4.7521 0.8040
54.2055 4.0174 4.7554 0.8039
17.1193 5.5798 1.5753 0.9303
26.9677 16.7640 2.7781 0.8803
4.3281 5.6584 0.6233 0.9718
2.4769 5.6698 0.5413 0.9755
0.9794 5.6790 0.5042 0.9771
-0.4006 5.6874 0.4988 0.9774
-4.5547 5.7130 0.6392 0.9711
-5.8155 5.7207 0.7137 0.9678
-7.4354 5.7307 0.8213 0.9630
-13.0663 5.7653 1.2495 0.9443
-90.1480 4.8630 7.8984 0.6959
-20.6983 -34.5497 3.5236 0.8507
-13.3677 -43.4218 3.9749 0.8332
13.8185 -44.0320 4.0375 0.8309
20.3813 -45.0759 4.3280 0.8199
27.3651 -45.1188 4.6167 0.8091
45.3099 -45.2291 5.6011 0.7733
49.8386 -38.9969 5.5365 0.7756
54.2122 -9.9637 4.8224 0.8015
54.2531 -3.3251 4.7554 0.8039
54.2006 3.2199 4.7503 0.8041
54.3343 9.8807 4.8316 0.8011
36.1968 16.2072 3.4698 0.8528
3.4497 5.6638 0.5802 0.9737
1.0651 5.6784 0.5055 0.9771
-0.3170 5.6869 0.4983 0.9774
-2.5274 5.7005 0.5456 0.9753
-4.4188 5.7121 0.6318 0.9714
-5.6466 5.7197 0.7032 0.9682
-7.2127 5.7293 0.8059 0.9637
-9.4250 3.0153 0.8658 0.9610
-16.9722 -36.6353 3.5324 0.8503
13.3015 -44.6631 4.0771 0.8293
19.0034 -43.7230 4.1710 0.8258
26.5799 -45.3074 4.5957 0.8098
49.6852 -31.0153 5.1243 0.7904
47.7270 -22.3233 4.6097 0.8093
54.1957 2.4238 4.7462 0.8043
54.3292 9.0602 4.8188 0.8016
18.9510 5.5685 1.7281 0.9238
28.7973 16.7528 2.9147 0.8748
24.8653 18.8025 2.7274 0.8823
4.5955 5.6567 0.6376 0.9712
3.5640 5.6631 0.5854 0.9735
2.6767 5.6685 0.5484 0.9751
1.1513 5.6779 0.5069 0.9770
0.4528 5.6822 0.4987 0.9774
-0.2335 5.6864 0.4979 0.9774
-1.6508 5.6951 0.5188 0.9765
-5.4826 5.7187 0.6931 0.9687
-9.0480 5.7406 0.9375 0.9579
-17.6264 -36.6313 3.5565 0.8494
13.0766 -46.3799 4.2159 0.8241
48.1470 -23.3850 4.6829 0.8066
54.0664 -18.6154 5.0027 0.7949
54.2021 -11.6121 4.8497 0.8005
54.1908 1.6291 4.7432 0.8044
54.3242 8.2438 4.8072 0.8020
20.0074 5.5620 1.8168 0.9200
39.1939 16.1888 3.7100 0.8434
24.8618 18.2338 2.6974 0.8836
4.7340 5.6559 0.6453 0.9708
3.6804 5.6624 0.5908 0.9732
0.5366 5.6817 0.4993 0.9773
-1.5606 5.6946 0.5166 0.9766
-2.3242 5.6861 0.5374 0.9756
-3.1803 5.7045 0.5714 0.9741
-6.7913 5.7267 0.7772 0.9650
-8.7590 5.7388 0.9161 0.9588
-11.6344 5.7565 1.1357 0.9492
-29.5853 -0.6727 2.5890 0.8880
-31.0691 -36.5722 4.1984 0.8247
-24.1746 -36.6044 3.8378 0.8385
17.0929 -42.7062 4.0245 0.8314
23.9898 -43.7812 4.3677 0.8184
23.8922 -33.3385 3.5884 0.8482
50.3569 -18.1672 4.6836 0.8066
54.1970 -12.4436 4.8650 0.7999
54.1859 0.8352 4.7412 0.8044
40.8545 16.1786 3.8444 0.8383
31.7282 17.2347 3.1590 0.8650
24.8584 17.6775 2.6687 0.8847
4.8758 5.6550 0.6533 0.9705
3.7989 5.6616 0.5965 0.9730
2.8820 5.6673 0.5562 0.9748
-0.7571 5.6896 0.5022 0.9772
-1.4712 5.6940 0.5145 0.9767
-18.7687 47.9069 4.5015 0.8133
-3.0713 5.7038 0.5668 0.9743
-4.0290 5.7097 0.6114 0.9723
-5.1682 5.7167 0.6742 0.9695
-11.2130 5.7539 1.1026 0.9507
-31.4954 -0.2549 2.7556 0.8812
-67.9522 -17.2921 6.1345 0.7546
-18.9625 -36.6231 3.6081 0.8474
-12.2031 -50.5957 4.5535 0.8114
-10.8761 -93.2426 8.2130 0.6860
13.3271 -53.1845 4.7969 0.8024
16.3780 -42.7228 4.0030 0.8322
23.2883 -44.0181 4.3568 0.8188
31.4062 -45.2068 4.8159 0.8017
40.2638 -45.1982 5.2958 0.7842
49.6686 -34.1244 5.2722 0.7851
54.0554 -20.4008 5.0548 0.7930
54.1919 -13.2805 4.8815 0.7993
44.5212 5.4278 3.9239 0.8352
49.9515 12.3228 4.5012 0.8134
42.6401 16.1676 3.9897 0.8327
24.6283 21.7785 2.8763 0.8763
5.0213 5.6541 0.6616 0.9701
3.9198 5.6609 0.6024 0.9727
2.9868 5.6666 0.5604 0.9746
1.4131 5.6763 0.5118 0.9768
-0.6725 5.6891 0.5012 0.9773
-5.0172 5.7158 0.6654 0.9699
-10.8154 5.7514 1.0717 0.9520
-32.9504 -36.5607 4.3060 0.8207
-14.2942 -36.6517 3.4418 0.8539
-11.4634 -87.1646 7.6916 0.7026
15.7357 -42.9169 3.9992 0.8323
22.6502 -44.3717 4.3586 0.8187
38.1240 -44.0792 5.0987 0.7914
49.6619 -35.2011 5.3256 0.7832
50.8600 -27.5258 5.0596 0.7928
54.1423 -21.3442 5.0916 0.7916
54.1762 -0.7517 4.7403 0.8045
44.9534 4.8137 3.9554 0.8340
49.9467 11.5486 4.4851 0.8140
44.5663 16.1557 4.1473 0.8267
34.0420 17.2205 3.3377 0.8580
25.1159 16.7754 2.6424 0.8858
5.1705 5.6532 0.6703 0.9697
4.0432 5.6601 0.6086 0.9725
3.0933 5.6660 0.5648 0.9744
2.2597 5.6711 0.5341 0.9758
0.7894 5.6801 0.5017 0.9772
0.0997 5.6844 0.4974 0.9774
-1.2944 5.6929 0.5108 0.9768
-2.8585 5.7025 0.5581 0.9747
-3.7825 5.7082 0.5991 0.9729
-4.8701 5.7149 0.6569 0.9703
-23.2191 21.3930 2.7622 0.8809
-7.9652 5.7339 0.8586 0.9614
-6.9792 2.8106 0.6583 0.9702
-21.6708 5.8182 1.9631 0.9138
-73.7484 -36.6304 7.2042 0.7185
-33.9280 -36.5547 4.3634 0.8185
-26.5439 -36.5899 3.9548 0.8340
-10.4986 -18.8997 1.8915 0.9169
-11.8310 -43.4312 3.9382 0.8346
15.5589 -44.4371 4.1192 0.8277
29.4297 -45.1268 4.7135 0.8055
37.3546 -44.4898 5.0824 0.7920
47.2661 -44.1929 5.6612 0.7712
49.7047 -27.8490 4.9846 0.7955
54.1815 -14.9727 4.9179 0.7980
54.2234 -8.1432 4.7971 0.8024
54.1713 -1.5451 4.7413 0.8044
47.9094 4.4218 4.2093 0.8243
49.9420 10.7798 4.4700 0.8145
48.0714 16.6342 4.4504 0.8153
5.3236 5.6523 0.6793 0.9693
4.1691 5.6594 0.6150 0.9722
3.2015 5.6653 0.5693 0.9742
2.3563 5.6705 0.5372 0.9756
0.8742 5.6796 0.5028 0.9772
0.1829 5.6838 0.4975 0.9774
-1.2069 5.6924 0.5091 0.9769
-2.7545 5.7019 0.5540 0.9749
-3.6629 5.7075 0.5933 0.9731
-7.7221 5.7324 0.8414 0.9621
-10.0387 5.7216 1.0109 0.9547
-75.7435 -36.2486 7.3465 0.7138
-34.9322 -36.5485 4.4232 0.8163
-27.3666 -36.5849 3.9972 0.8324
-20.6793 -35.9757 3.6304 0.8465
-15.4812 -36.5000 3.4687 0.8528
-12.5156 -43.4271 3.9540 0.8340
-2.4381 -61.6982 5.4021 0.7804
14.8323 -44.4378 4.0987 0.8285
21.4787 -45.3059 4.3866 0.8176
28.6188 -45.3199 4.6894 0.8064
46.7737 -45.0338 5.6806 0.7705
49.6483 -37.4226 5.4394 0.7791
54.0836 -15.8015 4.9295 0.7975
54.2066 4.2037 4.7567 0.8039
52.8503 10.6000 4.7159 0.8054
34.8505 16.3660 3.3685 0.8568
26.7655 16.7653 2.7631 0.8809
24.8735 20.1199 2.7989 0.8795
4.2977 5.6586 0.6217 0.9719
18.3365 61.9177 5.6496 0.7716
0.9595 5.6791 0.5039 0.9771
-0.4201 5.6876 0.4990 0.9774
42.6660 -23.2798 2.5472 0.8231
59.1373 -15.6295 3.2057 0.7827
59.0402 -1.0207 3.0946 0.7894
42.7347 4.4286 2.2516 0.8419
24.2459 5.5190 1.3032 0.9052
34.3291 17.2187 2.0127 0.8574
6.1410 6.6686 0.4751 0.9643
3.1184 5.6658 0.3389 0.9744
2.2821 5.6710 0.3204 0.9758
1.5205 5.6690 0.3076 0.9768
0.8091 5.6800 0.3007 0.9773
0.1191 5.6842 0.2980 0.9775
-2.0199 5.6974 0.3168 0.9761
-23.0596 21.3920 1.6484 0.8816
-7.9076 5.7336 0.5119 0.9616
-10.3547 5.7486 0.6207 0.9537
-6.9652 2.8327 0.3941 0.9703
-32.2587 -34.5191 2.4761 0.8276
-25.2532 -34.5618 2.2433 0.8424
-14.2103 -34.5788 1.9593 0.8609
-9.8476 -65.6832 3.4808 0.7664
12.4427 -57.5774 3.0872 0.7898
21.9617 -45.0119 2.6248 0.8182
24.2657 -29.1019 1.9858 0.8592
28.9649 -27.2675 2.0848 0.8527
49.8030 -28.1280 2.9976 0.7952
59.0935 -9.0809 3.1333 0.7870
59.0459 -1.8858 3.0960 0.7893
58.9992 5.2423 3.1042 0.7888
48.5985 16.6309 2.6919 0.8140
24.8763 20.5885 1.6923 0.8787
5.4264 5.7221 0.4133 0.9689
3.2270 5.6651 0.3417 0.9742
17.8676 62.9206 3.4279 0.7695
-1.9262 5.6968 0.3152 0.9762
-2.7261 5.6926 0.3308 0.9750
-3.6305 5.6997 0.3542 0.9733
-5.9847 5.7172 0.4338 0.9674
-7.6669 5.7321 0.5017 0.9624
-13.6101 5.7686 0.7747 0.9425
-20.1749 5.8090 1.1003 0.9193
-26.0342 -34.5571 2.2675 0.8409
-14.8042 -34.5752 1.9711 0.8601
-11.8372 -40.5526 2.2140 0.8443
-10.8574 -65.8302 3.4966 0.7655
21.1785 -45.0695 2.6098 0.8192
24.2603 -29.9771 2.0211 0.8569
49.6466 -37.6880 3.2666 0.7791
50.1458 -29.2981 3.0437 0.7924
49.4574 -21.3909 2.8240 0.8059
59.1499 -17.5010 3.2327 0.7811
59.0516 -2.7520 3.0981 0.7892
59.0049 4.3731 3.1008 0.7890
53.9412 10.6275 2.8813 0.8023
34.8496 16.2206 2.0145 0.8573
5.1057 6.6749 0.4404 0.9669
3.3374 5.6645 0.3446 0.9740
1.7002 5.6701 0.3102 0.9766
0.9794 5.6790 0.3020 0.9772
-0.4006 5.6874 0.2988 0.9774
-1.8336 5.6962 0.3136 0.9763
-2.6239 5.6918 0.3285 0.9752
-4.5454 5.7014 0.3821 0.9712
-33.4239 5.8904 1.7787 0.8729
-90.2668 4.8694 4.7376 0.6962
-34.1944 -34.5072 2.5460 0.8232
-15.4055 -34.5715 1.9836 0.8593
-11.7882 -38.2913 2.0997 0.8517
-14.4434 -80.2374 4.2726 0.7214
16.5432 -89.1160 4.7502 0.6956
20.3814 -45.0762 2.5926 0.8202
27.3102 -45.0282 2.7599 0.8098
24.2548 -30.8842 2.0580 0.8545
27.3060 -27.2573 2.0220 0.8568
50.1397 -30.2880 3.0699 0.7909
49.4017 -22.2311 2.8391 0.8049
59.1562 -18.4490 3.2475 0.7802
59.0106 3.5057 3.0981 0.7892
17.9928 5.5744 0.9872 0.9273
36.1968 16.2072 2.0785 0.8531
5.2616 6.6740 0.4454 0.9665
2.5761 5.6692 0.3263 0.9754
1.0651 5.6784 0.3028 0.9771
0.3692 5.6827 0.2984 0.9774
-0.3170 5.6869 0.2985 0.9774
-1.0134 5.6912 0.3030 0.9771
-1.7418 5.6957 0.3121 0.9764
-3.3990 5.6979 0.3477 0.9738
-4.4093 5.6999 0.3777 0.9715
-5.6403 5.7133 0.4207 0.9684
-7.2072 5.7250 0.4824 0.9638
-9.3509 5.7425 0.5751 0.9570
-9.4232 3.0147 0.5185 0.9611
-35.2043 -34.5010 2.5833 0.8208
-27.6211 -34.5123 2.3166 0.8377
-11.7764 -36.3512 2.0026 0.8581
-15.2247 -78.0091 4.1654 0.7273
-5.9046 -81.6468 4.2901 0.7204
13.5266 -45.4190 2.4836 0.8271
19.5574 -44.9976 2.5713 0.8216
26.4129 -45.0227 2.7356 0.8113
24.2490 -31.8252 2.0969 0.8519
26.5132 -27.2524 1.9926 0.8587
50.0801 -40.3819 3.3715 0.7728
50.1335 -31.2951 3.0973 0.7892
59.0631 -4.4887 3.1043 0.7888
59.0162 2.6395 3.0960 0.7893
42.8673 7.1488 2.2776 0.8402
18.9510 5.5685 1.0352 0.9239
28.7973 16.7528 1.7460 0.8751
6.9001 6.6639 0.5027 0.9623
3.5640 5.6631 0.3507 0.9736
2.6767 5.6685 0.3285 0.9752
1.8840 5.6734 0.3133 0.9763
1.1513 5.6779 0.3036 0.9771
-1.6508 5.6951 0.3108 0.9765
-4.2790 5.7020 0.3736 0.9718
-9.0480 5.7406 0.5616 0.9580
-12.0818 5.7592 0.7014 0.9478
-90.7519 -25.9460 4.9467 0.6852
-28.4557 -34.5072 2.3440 0.8360
-22.0958 -34.5462 2.1491 0.8485
14.1194 -90.8010 4.8159 0.6921
15.0490 -53.3758 2.9064 0.8008
18.8131 -45.0792 2.5600 0.8223
25.5375 -45.0284 2.7129 0.8127
49.7786 -32.0959 3.1040 0.7888
57.6855 -28.0179 3.3609 0.7735
59.1174 -12.6651 3.1685 0.7849
59.0219 1.7743 3.0946 0.7894
20.0074 5.5620 1.0883 0.9202
39.1939 16.1888 2.2224 0.8438
24.3904 22.8749 1.7525 0.8746
5.5845 6.6720 0.4560 0.9657
3.6804 5.6624 0.3539 0.9733
2.7786 5.6679 0.3308 0.9750
1.9765 5.6728 0.3148 0.9762
1.2380 5.6774 0.3045 0.9770
0.5366 5.6817 0.2991 0.9774
-0.8422 5.6902 0.3015 0.9772
-1.5606 5.6946 0.3094 0.9766
-4.1513 5.7039 0.3697 0.9721
-5.3158 5.7097 0.4088 0.9692
-8.7590 5.7388 0.5488 0.9589
-22.8354 -34.5767 2.1716 0.8471
-17.2575 -34.5602 2.0245 0.8566
-12.4255 -34.8405 1.9386 0.8623
-11.9065 -52.7424 2.8337 0.8053
17.4799 -43.6731 2.4653 0.8283
23.9882 -43.7782 2.6162 0.8188
50.3507 -18.1650 2.8052 0.8070
20.4735 2.8009 1.0830 0.9206
31.7282 17.2347 1.8923 0.8653
24.8584 17.6775 1.5986 0.8850
2.8820 5.6673 0.3332 0.9749
2.0699 5.6723 0.3164 0.9761
-0.0668 5.6854 0.2980 0.9775
-0.7571 5.6896 0.3008 0.9773
-18.7687 47.9069 2.6965 0.8138
-3.0667 5.6952 0.3390 0.9744
-6.5826 5.7177 0.4569 0.9657
-11.2130 5.7539 0.6605 0.9508
-15.6646 5.7812 0.8751 0.9353
-31.5025 -0.2549 1.6510 0.8814
-67.8093 -17.2558 3.6670 0.7556
-23.5595 -34.5615 2.1921 0.8457
-14.1699 -27.3670 1.6151 0.8839
13.4879 -53.8262 2.9081 0.8007
17.0586 -44.4980 2.4975 0.8262
23.1759 -43.8057 2.5973 0.8200
24.2257 -34.8710 2.2252 0.8436
59.1297 -14.4906 3.1905 0.7836
59.0332 0.0453 3.0938 0.7894
42.3168 5.1591 2.2341 0.8430
22.4843 5.5468 1.2137 0.9114
42.6401 16.1676 2.3899 0.8331
24.8550 17.1328 1.5821 0.8861
24.6283 21.7785 1.7230 0.8766
3.9198 5.6609 0.3609 0.9728
2.1643 5.6717 0.3181 0.9760
1.4131 5.6763 0.3066 0.9768
0.0164 5.6849 0.2979 0.9775
-0.6725 5.6891 0.3002 0.9773
-1.3825 5.6935 0.3071 0.9768
-2.1367 5.6981 0.3189 0.9759
-2.9595 5.6944 0.3363 0.9746
-5.0089 5.7064 0.3979 0.9700
-6.3977 5.7237 0.4499 0.9662
-8.2185 5.7355 0.5252 0.9607
-10.8154 5.7514 0.6420 0.9521
-14.9744 5.7770 0.8412 0.9377
-45.5337 -10.8800 2.4535 0.8290
-67.2299 -45.6198 4.2581 0.7222
-19.8825 -28.2691 1.8113 0.8707
-18.5425 -34.5629 2.0556 0.8546
-13.4876 -34.5833 1.9454 0.8618
-11.8719 -46.2417 2.5020 0.8259
-11.4634 -87.1646 4.6074 0.7032
16.1819 -44.1337 2.4635 0.8284
22.5357 -44.1473 2.5977 0.8199
30.3879 -45.1374 2.8517 0.8042
24.2721 -28.0635 1.9445 0.8619
30.0406 -27.2741 2.1264 0.8500
42.4012 -22.9479 2.5267 0.8244
59.1892 -23.3339 3.3343 0.7750
59.1358 -15.4133 3.2027 0.7829
59.0863 -7.9908 3.1248 0.7876
59.0389 -0.8192 3.0944 0.7894
42.6551 4.5676 2.2482 0.8421
23.9504 5.5378 1.2883 0.9062
25.1158 16.7754 1.5829 0.8861
24.8811 21.3609 1.7186 0.8769
4.0432 5.6601 0.3645 0.9725
0.0997 5.6844 0.2979 0.9775
-2.0418 5.6975 0.3172 0.9760
-2.8540 5.6936 0.3338 0.9748
-23.2191 21.3930 1.6546 0.8812
-7.9652 5.7339 0.5144 0.9615
-10.4395 5.7491 0.6246 0.9534
-6.9792 2.8106 0.3943 0.9703
-21.6708 5.8182 1.1759 0.9140
-10.6042 -19.0898 1.1444 0.9162
-9.6224 -65.7098 3.4804 0.7664
15.6228 -44.6195 2.4776 0.8275
24.2669 -28.9022 1.9778 0.8597
49.8543 -36.4457 3.2365 0.7809
49.8043 -27.9049 2.9919 0.7956
59.1961 -24.3441 3.3544 0.7739
59.0446 -1.6841 3.0957 0.7893
48.5026 4.4766 2.5527 0.8228
49.9420 10.7798 2.6776 0.8149
48.0714 16.6342 2.6659 0.8157
34.6940 16.9168 2.0229 0.8568
25.9222 16.7704 1.6180 0.8837
4.1691 5.6594 0.3684 0.9722
2.3563 5.6705 0.3218 0.9757
1.5883 5.6665 0.3084 0.9767
-0.5040 5.6881 0.2993 0.9774
-1.2069 5.6924 0.3050 0.9770
-1.9480 5.6970 0.3155 0.9762
-2.7501 5.6928 0.3313 0.9750
-4.7178 5.7032 0.3879 0.9708
-6.0262 5.7177 0.4354 0.9673
-10.0387 5.7216 0.6056 0.9548
-32.9548 -34.4797 2.4996 0.8261
-25.8506 -34.5582 2.2618 0.8413
-19.8626 -34.5548 2.0888 0.8524
-10.6047 -65.6939 3.4874 0.7660
15.3881 -46.1031 2.5472 0.8231
21.3625 -45.0610 2.6135 0.8189
24.2616 -29.7702 2.0127 0.8574
49.6483 -37.4226 3.2583 0.7796
50.1472 -29.0700 3.0378 0.7928
59.2030 -25.3666 3.3755 0.7726
59.0503 -2.5499 3.0976 0.7892
59.0036 4.5757 3.1015 0.7890
34.8505 16.3660 2.0178 0.8571
26.7655 16.7653 1.6552 0.8812
5.4585 5.6280 0.4109 0.9691
3.3115 5.6646 0.3439 0.9741
2.4540 5.6699 0.3238 0.9756
0.2663 5.6833 0.2982 0.9775
-0.4201 5.6876 0.2989 0.9774
38.2723 -27.3247 0.8208 0.8285
69.4166 -27.6400 1.3042 0.7416
80.7590 -21.3440 1.4580 0.7159
43.3321 4.4906 0.7604 0.8401
24.2459 5.5190 0.4340 0.9053
24.5279 8.7970 0.4548 0.9010
24.5478 12.3126 0.4794 0.8960
24.8802 21.2131 0.5707 0.8774
4.0723 5.6600 0.1217 0.9725
2.2821 5.6710 0.1067 0.9758
0.1191 5.6842 0.0992 0.9775
-1.2739 5.6928 0.1018 0.9769
-2.0199 5.6974 0.1055 0.9761
-3.7390 5.6847 0.1188 0.9731
-7.9076 5.7336 0.1705 0.9617
-72.1610 -35.5356 1.4040 0.7248
-31.9381 -34.1760 0.8165 0.8293
-27.6712 -37.8711 0.8187 0.8289
21.9978 -45.0860 0.8756 0.8182
24.2147 -37.4085 0.7778 0.8367
24.2657 -29.1019 0.6614 0.8593
28.9648 -27.2675 0.6944 0.8529
37.0817 -27.3031 0.8038 0.8317
66.3988 -27.5714 1.2549 0.7500
50.0172 10.6174 0.8925 0.8150
26.2697 16.8684 0.5449 0.8826
5.4264 5.7221 0.1376 0.9689
3.2270 5.6651 0.1138 0.9743
2.3789 5.6704 0.1073 0.9757
17.5841 61.9224 1.1236 0.7730
0.2024 5.6837 0.0993 0.9775
-1.1866 5.6923 0.1015 0.9770
-1.9262 5.6968 0.1050 0.9762
-2.7210 5.6821 0.1100 0.9751
-4.6560 5.6678 0.1280 0.9711
-20.1749 5.8090 0.3665 0.9194
-36.6710 5.9104 0.6484 0.8619
-72.9851 -34.6231 1.4100 0.7238
-32.9076 -34.1958 0.8284 0.8271
-19.7801 -34.1412 0.6887 0.8540
-14.6319 -34.1727 0.6489 0.8618
-11.4338 -39.1706 0.7123 0.8494
-10.9687 -66.5052 1.1765 0.7636
29.8415 -90.4320 1.6622 0.6832
24.2603 -29.9771 0.6731 0.8570
35.9664 -27.3029 0.7882 0.8347
63.8262 -27.6056 1.2138 0.7571
80.4407 -23.8004 1.4643 0.7149
80.6237 5.9753 1.4111 0.7237
53.7727 10.5943 0.9566 0.8031
17.0566 5.5593 0.3131 0.9307
24.5353 11.4199 0.4724 0.8974
27.0793 16.8334 0.5566 0.8802
24.9429 20.0355 0.5584 0.8799
25.4098 26.0206 0.6348 0.8646
4.9192 6.4311 0.1413 0.9681
3.3374 5.6645 0.1148 0.9740
2.4769 5.6698 0.1080 0.9756
-0.4006 5.6874 0.0995 0.9774
-1.0998 5.6917 0.1012 0.9771
-3.5040 5.6831 0.1165 0.9736
-9.6687 5.7444 0.1963 0.9560
-12.9983 5.7353 0.2480 0.9447
-67.5774 -21.4797 1.2377 0.7530
-33.8805 -34.1905 0.8402 0.8248
-27.7668 -35.7553 0.7902 0.8343
-20.6982 -34.5496 0.7030 0.8512
-15.2261 -34.1691 0.6530 0.8610
16.9773 -91.4542 1.6236 0.6893
28.3774 -90.4232 1.6542 0.6844
20.3814 -45.0762 0.8635 0.8204
25.5210 -42.0783 0.8590 0.8213
24.2548 -30.8842 0.6855 0.8546
34.8949 -27.3039 0.7734 0.8376
45.3057 -27.3679 0.9239 0.8092
80.6164 4.7892 1.4096 0.7239
58.1247 10.5700 1.0312 0.7895
17.9331 5.5559 0.3277 0.9276
24.5294 10.9831 0.4691 0.8981
27.9758 16.8279 0.5699 0.8776
24.9392 19.4388 0.5519 0.8812
1.0651 5.6784 0.1008 0.9772
0.3692 5.6827 0.0994 0.9775
-1.7418 5.6957 0.1040 0.9765
-3.3897 5.6823 0.1155 0.9739
-4.3939 5.6800 0.1253 0.9717
-5.6027 5.6752 0.1392 0.9686
-9.3509 5.7425 0.1915 0.9570
-9.4215 3.0141 0.1727 0.9612
-30.6926 5.8736 0.5455 0.8825
-73.5988 -32.3094 1.4030 0.7250
-34.9106 -34.2133 0.8532 0.8224
-21.3892 -34.5454 0.7092 0.8500
-13.7490 -42.4403 0.7787 0.8365
-12.9653 -66.4324 1.1815 0.7628
25.8216 -86.7024 1.5791 0.6963
20.1329 -46.3217 0.8816 0.8170
24.2490 -31.8252 0.6984 0.8521
26.5132 -27.2524 0.6637 0.8589
33.8534 -27.2975 0.7591 0.8403
43.8277 -27.3588 0.9018 0.8133
58.9565 -27.5757 1.1361 0.7708
18.9235 5.5604 0.3443 0.9241
28.9164 16.8221 0.5839 0.8747
5.0620 6.2309 0.1401 0.9684
3.5640 5.6631 0.1168 0.9736
2.6767 5.6685 0.1094 0.9752
1.8840 5.6734 0.1043 0.9764
1.1513 5.6779 0.1011 0.9771
0.4528 5.6822 0.0995 0.9775
-0.2335 5.6864 0.0993 0.9775
-1.6508 5.6951 0.1035 0.9766
-2.4262 5.6960 0.1081 0.9755
-9.0480 5.7406 0.1870 0.9580
-17.2276 5.7909 0.3172 0.9299
-28.4557 -34.5072 0.7807 0.8362
-16.4381 -34.1616 0.6617 0.8593
-12.2894 -58.4070 1.0418 0.7876
25.4901 -90.4084 1.6396 0.6867
23.8713 -42.0903 0.8447 0.8240
25.7428 -27.2477 0.6543 0.8607
32.8496 -27.2914 0.7455 0.8429
80.4674 -27.7054 1.4855 0.7114
80.4776 2.4193 1.4054 0.7246
39.3645 5.9736 0.6950 0.8528
19.9826 5.5551 0.3620 0.9204
24.5277 10.1310 0.4632 0.8993
29.7817 16.7467 0.5964 0.8722
25.3962 23.8183 0.6077 0.8700
3.6804 5.6624 0.1179 0.9733
1.2380 5.6774 0.1014 0.9770
0.5366 5.6817 0.0996 0.9774
-0.1501 5.6859 0.0993 0.9775
-1.5606 5.6946 0.1031 0.9767
-3.1671 5.6808 0.1135 0.9743
-5.2813 5.6727 0.1353 0.9695
-8.7590 5.7388 0.1828 0.9590
-16.4129 5.7859 0.3038 0.9327
-65.6697 -17.7390 1.1873 0.7618
-25.2948 -38.3007 0.8012 0.8322
-13.7248 -38.4838 0.7132 0.8492
21.9037 -82.2823 1.4871 0.7113
23.0767 -42.1148 0.8382 0.8252
24.9938 -27.2431 0.6453 0.8625
41.0722 -27.3419 0.8612 0.8209
20.4701 2.8004 0.3606 0.9207
21.1785 5.5548 0.3822 0.9161
24.5279 9.7131 0.4605 0.8998
31.7282 17.2347 0.6302 0.8655
5.2025 6.0339 0.1391 0.9686
2.8820 5.6673 0.1110 0.9749
1.3253 5.6768 0.1018 0.9769
0.6205 5.6812 0.0998 0.9774
-0.0668 5.6854 0.0992 0.9775
-0.7571 5.6896 0.1002 0.9773
-18.7687 47.9069 0.8981 0.8140
-5.1273 5.6715 0.1335 0.9699
-8.4828 5.7371 0.1788 0.9599
-31.5096 -0.2550 0.5500 0.8816
-65.6152 -16.6975 1.1818 0.7627
-26.1049 -38.2957 0.8090 0.8308
-14.1700 -27.3670 0.5379 0.8840
-13.7142 -36.7446 0.6846 0.8548
-12.1333 -50.3063 0.9033 0.8130
21.7318 -86.7252 1.5606 0.6993
20.0954 -52.4197 0.9799 0.7988
22.2504 -42.0563 0.8305 0.8267
39.7850 -27.3340 0.8426 0.8244
73.1655 -27.6130 1.3650 0.7314
40.2779 4.9105 0.7083 0.8502
24.8550 17.1328 0.5269 0.8862
25.3878 22.4501 0.5916 0.8732
2.9868 5.6666 0.1118 0.9747
1.4131 5.6763 0.1021 0.9769
0.7048 5.6806 0.0999 0.9774
-3.8886 5.6857 0.1202 0.9728
-4.9773 5.6703 0.1317 0.9703
-6.3984 5.7243 0.1499 0.9662
-8.2185 5.7355 0.1749 0.9607
-10.7831 5.7343 0.2132 0.9523
-14.9744 5.7770 0.2802 0.9378
-23.0304 5.8230 0.4146 0.9093
-67.2482 -45.6323 1.4185 0.7224
-30.7627 -34.1332 0.8021 0.8321
-19.8741 -28.2572 0.6030 0.8709
-18.3210 -34.1501 0.6765 0.8564
-14.2380 -36.5076 0.6840 0.8549
-12.9885 -50.5909 0.9117 0.8114
-11.4634 -87.1646 1.5346 0.7035
21.4335 -91.1760 1.6349 0.6875
20.0808 -54.7674 1.0182 0.7919
24.2234 -35.9808 0.7571 0.8407
24.2721 -28.0635 0.6476 0.8621
30.0406 -27.2741 0.7082 0.8502
38.5522 -27.3264 0.8248 0.8277
70.1232 -27.6443 1.3157 0.7397
82.2294 -21.4324 1.4833 0.7118
40.5876 4.3462 0.7125 0.8493
24.5280 8.8916 0.4554 0.9009
25.1159 16.7754 0.5272 0.8862
24.8811 21.3609 0.5724 0.8771
5.3410 5.8397 0.1381 0.9688
4.0432 5.6601 0.1214 0.9726
3.0933 5.6660 0.1127 0.9745
2.2597 5.6711 0.1066 0.9759
1.5016 5.6757 0.1025 0.9768
0.7894 5.6801 0.1001 0.9773
-0.5881 5.6886 0.0998 0.9774
-2.8465 5.6787 0.1109 0.9749
-3.7670 5.6849 0.1190 0.9731
-4.8312 5.6692 0.1300 0.9706
-23.2191 21.3930 0.5511 0.8813
-73.8342 -36.6730 1.4390 0.7191
-31.7051 -34.1597 0.8135 0.8299
-14.8559 -36.5038 0.6879 0.8541
20.6809 -42.0224 0.8175 0.8291
37.3558 -27.3087 0.8077 0.8310
67.0534 -27.5754 1.2655 0.7482
5.4024 5.7359 0.1375 0.9690
3.2015 5.6653 0.1136 0.9743
0.8742 5.6796 0.1003 0.9773
-0.5040 5.6881 0.0997 0.9774
-1.9480 5.6970 0.1051 0.9762
-2.7444 5.6811 0.1101 0.9751
-3.6479 5.6841 0.1179 0.9733
-5.9846 5.6782 0.1440 0.9675
-7.7221 5.7324 0.1679 0.9623
-10.0387 5.7216 0.2017 0.9548
-6.9833 2.9318 0.1322 0.9702
-20.4427 5.8106 0.3710 0.9185
-37.5179 5.9156 0.6630 0.8590
-32.6867 -34.1992 0.8258 0.8276
-19.6254 -34.1421 0.6874 0.8542
-14.4945 -34.1736 0.6479 0.8620
-11.4369 -39.6842 0.7209 0.8477
20.0482 -60.0648 1.1053 0.7762
21.6415 -45.6493 0.8818 0.8170
24.1986 -38.3202 0.7911 0.8342
24.2616 -29.7702 0.6703 0.8576
28.3168 -27.2635 0.6861 0.8545
38.6083 -22.3810 0.7790 0.8365
80.6254 6.2524 1.4115 0.7236
24.5367 11.5226 0.4732 0.8972
5.4585 5.6280 0.1369 0.9691
3.3115 5.6646 0.1145 0.9741
2.4540 5.6699 0.1078 0.9756
0.9595 5.6791 0.1005 0.9772
0.2663 5.6833 0.0993 0.9775
-0.4201 5.6876 0.0995 0.9774
41.9001 -22.8620 -0.8332 0.8262
87.2477 -23.0589 -1.5752 0.6970
24.2459 5.5190 -0.4340 0.9053
25.3007 16.7743 -0.5299 0.8856
3.1184 5.6658 -0.1129 0.9745
-1.2739 5.6928 -0.1018 0.9769
-2.0199 5.6974 -0.1055 0.9761
-2.8217 5.6774 -0.1107 0.9750
-4.7772 5.6448 -0.1291 0.9708
-10.3443 5.7429 -0.2065 0.9538
-6.9651 2.8326 -0.1312 0.9704
-64.6613 1.5915 -1.1290 0.7720
-76.3538 -7.3480 -1.3389 0.7357
-57.4413 -12.6335 -1.0266 0.7903
-71.1050 -46.3967 -1.4820 0.7120
-68.2974 -57.3729 -1.5569 0.6999
-21.3230 -22.8172 -0.5451 0.8826
-13.1480 -23.4799 -0.4697 0.8979
-10.3568 -25.2017 -0.4756 0.8967
-8.4162 -30.4850 -0.5520 0.8812
-8.0176 -53.4769 -0.9439 0.8055
20.5844 -95.2526 -1.7010 0.6771
16.1356 -46.5937 -0.8607 0.8210
20.4179 -41.8479 -0.8128 0.8300
28.9648 -27.2675 -0.6944 0.8529
34.7315 16.7887 -0.6733 0.8570
26.1155 16.7693 -0.5417 0.8832
3.2270 5.6651 -0.1138 0.9743
17.5841 61.9224 -1.1236 0.7730
0.8941 5.6795 -0.1004 0.9773
-0.4844 5.6879 -0.0996 0.9774
-1.1866 5.6923 -0.1015 0.9770
-1.9262 5.6968 -0.1050 0.9762
-3.6104 5.6681 -0.1173 0.9735
-5.9029 5.6391 -0.1425 0.9679
-10.0028 5.7465 -0.2014 0.9549
-13.3775 5.6700 -0.2536 0.9435
-82.9461 -27.7084 -1.5265 0.7048
-70.7586 -44.7074 -1.4610 0.7154
-68.4764 -55.8338 -1.5422 0.7022
-22.1592 -23.0267 -0.5578 0.8800
-10.6510 -24.8753 -0.4723 0.8974
-8.7104 -29.8404 -0.5426 0.8831
-8.0291 -48.6816 -0.8612 0.8209
19.0182 -57.6330 -1.0593 0.7844
20.2819 -43.1615 -0.8324 0.8263
24.2603 -29.9771 -0.6731 0.8570
28.1228 -27.2623 -0.6837 0.8550
40.6743 -23.7644 -0.8223 0.8282
64.0010 -27.6812 -1.2171 0.7566
53.9412 10.6275 -0.9596 0.8026
26.9677 16.7641 -0.5543 0.8807
24.8726 19.9791 -0.5569 0.8802
4.9192 6.4311 -0.1413 0.9681
3.3374 5.6645 -0.1148 0.9740
2.4769 5.6698 -0.1080 0.9756
1.7002 5.6700 -0.1033 0.9766
-1.8336 5.6962 -0.1045 0.9763
-3.4944 5.6675 -0.1162 0.9737
-7.4354 5.7307 -0.1639 0.9631
-19.0958 5.8023 -0.3484 0.9233
-33.4239 5.8904 -0.5924 0.8730
-64.8703 3.4994 -1.1340 0.7711
-97.3076 -6.4959 -1.7023 0.6770
-57.5033 -26.2543 -1.1034 0.7766
-22.8468 -23.0558 -0.5666 0.8782
-17.2035 -22.1530 -0.4896 0.8939
-14.1026 -23.5401 -0.4790 0.8960
-8.8388 -28.7107 -0.5244 0.8868
-7.9303 -44.0550 -0.7813 0.8360
16.9246 -91.1706 -1.6186 0.6901
25.4266 -41.9227 -0.8558 0.8219
27.3060 -27.2573 -0.6734 0.8570
62.6593 -28.1970 -1.1994 0.7597
59.0895 10.7455 -1.0483 0.7864
17.6839 5.4787 -0.3231 0.9286
35.1553 15.7409 -0.6723 0.8572
24.8689 19.3840 -0.5504 0.8815
4.9909 6.3306 -0.1407 0.9683
3.4497 5.6638 -0.1158 0.9738
2.5761 5.6692 -0.1087 0.9754
1.7923 5.6740 -0.1039 0.9765
1.0651 5.6784 -0.1008 0.9772
0.3692 5.6827 -0.0994 0.9775
-0.3170 5.6869 -0.0994 0.9775
-2.5234 5.6914 -0.1087 0.9754
-3.3805 5.6669 -0.1152 0.9739
-5.5655 5.6376 -0.1383 0.9688
-9.3509 5.7425 -0.1915 0.9570
-12.4173 5.6975 -0.2385 0.9468
-9.4197 3.0136 -0.1726 0.9612
-30.6926 5.8736 -0.5455 0.8825
-64.8645 4.4523 -1.1349 0.7710
-67.7638 -20.4516 -1.2355 0.7534
-65.2955 -28.6643 -1.2447 0.7518
-24.0975 -23.6161 -0.5889 0.8737
-17.8162 -22.2613 -0.4977 0.8922
-11.3663 -24.5347 -0.4720 0.8975
-9.0767 -28.0180 -0.5141 0.8889
-7.8994 -40.4751 -0.7198 0.8479
26.9279 -90.4172 -1.6467 0.6856
15.7495 -36.2365 -0.6897 0.8538
33.8534 -27.2975 -0.7591 0.8403
43.8277 -27.3588 -0.9018 0.8133
88.1654 3.9431 -1.5405 0.7025
39.6540 17.0626 -0.7535 0.8414
28.7973 16.7528 -0.5815 0.8752
24.8653 18.8025 -0.5441 0.8827
25.4006 24.5312 -0.6164 0.8683
3.5640 5.6631 -0.1168 0.9736
2.6767 5.6685 -0.1094 0.9752
1.8840 5.6734 -0.1043 0.9764
-0.2335 5.6864 -0.0993 0.9775
-1.6508 5.6951 -0.1035 0.9766
-2.4262 5.6960 -0.1081 0.9755
-3.2686 5.6662 -0.1142 0.9742
-4.2549 5.6699 -0.1237 0.9720
-9.0480 5.7406 -0.1870 0.9580
-11.9826 5.7119 -0.2317 0.9483
-28.0204 5.7887 -0.4994 0.8918
-63.4135 5.2867 -1.1107 0.7752
-83.1877 -13.2476 -1.4703 0.7139
-67.1922 -19.2102 -1.2198 0.7561
-69.6486 -39.8384 -1.4005 0.7254
-25.3976 -24.1714 -0.6120 0.8691
-18.4799 -22.4100 -0.5070 0.8903
-11.7152 -24.3465 -0.4716 0.8975
-9.2655 -27.2342 -0.5021 0.8913
-8.3045 -95.3943 -1.6714 0.6818
23.7674 -41.9072 -0.8409 0.8247
42.4182 -27.3502 -0.8810 0.8172
80.4626 2.4189 -1.4051 0.7247
19.9196 5.5376 -0.3609 0.9206
24.8618 18.2338 -0.5382 0.8840
25.3962 23.8183 -0.6077 0.8700
5.1325 6.1320 -0.1396 0.9685
1.9765 5.6728 -0.1049 0.9763
-0.8422 5.6902 -0.1004 0.9773
-2.3242 5.6861 -0.1072 0.9757
-5.2473 5.6361 -0.1344 0.9697
-6.7913 5.7267 -0.1551 0.9651
-8.7590 5.7388 -0.1828 0.9590
-16.4129 5.7859 -0.3038 0.9327
-26.2954 5.8351 -0.4701 0.8978
-63.4076 6.2222 -1.1121 0.7750
-29.5740 -0.6724 -0.5162 0.8884
-63.8283 -25.8184 -1.2018 0.7592
-71.9339 -51.9514 -1.5488 0.7012
-15.0366 -22.7680 -0.4763 0.8966
-12.0125 -24.0564 -0.4693 0.8980
-7.9583 -35.2531 -0.6308 0.8654
21.8961 -82.2538 -1.4856 0.7114
20.1087 -50.2413 -0.9446 0.8053
41.0722 -27.3419 -0.8612 0.8209
54.6691 -27.5493 -1.0685 0.7828
50.3359 -18.1596 -0.9340 0.8073
20.4667 2.8000 -0.3606 0.9207
43.3412 17.1633 -0.8137 0.8299
24.8584 17.6775 -0.5324 0.8851
25.3920 23.1250 -0.5995 0.8716
2.8820 5.6673 -0.1110 0.9749
2.0699 5.6723 -0.1054 0.9761
1.3253 5.6768 -0.1018 0.9769
-6.5915 5.7255 -0.1524 0.9657
-24.2496 5.7549 -0.4350 0.9051
-64.6413 7.3003 -1.1355 0.7709
-31.5167 -0.2550 -0.5501 0.8815
-65.6339 -16.7022 -1.1821 0.7627
-68.3106 -36.4612 -1.3516 0.7336
-9.6703 -25.9099 -0.4827 0.8953
-8.5300 -73.1292 -1.2851 0.7449
15.1756 -39.5863 -0.7400 0.8440
87.5236 -21.4489 -1.5730 0.6973
24.8550 17.1328 -0.5269 0.8862
2.9868 5.6666 -0.1118 0.9747
0.7048 5.6806 -0.0999 0.9774
0.0164 5.6849 -0.0992 0.9775
-1.3825 5.6935 -0.1023 0.9768
-2.1367 5.6981 -0.1062 0.9759
-2.9476 5.6715 -0.1116 0.9748
-3.8776 5.6696 -0.1199 0.9729
-4.9476 5.6366 -0.1309 0.9704
-14.9744 5.7770 -0.2802 0.9378
-97.2175 0.6372 -1.6970 0.6778
-67.1241 -7.6852 -1.1793 0.7632
-67.8943 -34.9715 -1.3331 0.7367
-12.8375 -23.9290 -0.4740 0.8971
-9.9030 -25.3920 -0.4757 0.8967
-8.0885 -61.5030 -1.0828 0.7802
21.3458 -90.8031 -1.6282 0.6885
21.3808 -41.8850 -0.8208 0.8285
24.2721 -28.0635 -0.6476 0.8621
30.0406 -27.2741 -0.7082 0.8502
38.5522 -27.3264 -0.8248 0.8277
39.5286 -21.3932 -0.7845 0.8354
87.2496 -22.7409 -1.5738 0.6972
41.8235 4.4785 -0.7341 0.8451
23.9504 5.5378 -0.4291 0.9063
24.8811 21.3609 -0.5724 0.8771
4.0432 5.6601 -0.1214 0.9726
3.0933 5.6660 -0.1127 0.9745
2.2597 5.6711 -0.1066 0.9759
0.7894 5.6801 -0.1001 0.9773
0.0997 5.6844 -0.0992 0.9775
-2.0418 5.6975 -0.1056 0.9761
-2.8454 5.6763 -0.1108 0.9749
-4.8091 5.6432 -0.1294 0.9708
-23.2190 21.3930 -0.5511 0.8813
-10.4215 5.7392 -0.2077 0.9535
-6.9791 2.8106 -0.1313 0.9703
-64.6295 9.2227 -1.1395 0.7701
-64.6777 1.3710 -1.1292 0.7720
-57.5333 -12.8598 -1.0290 0.7899
-67.4275 -33.4908 -1.3141 0.7399
-67.8255 -57.3724 -1.5506 0.7009
-21.3038 -22.9532 -0.5466 0.8822
-10.6039 -19.0893 -0.3812 0.9163
20.5674 -41.7918 -0.8130 0.8300
24.2163 -37.1328 -0.7738 0.8375
24.2669 -28.9022 -0.6587 0.8599
37.3700 -27.3191 -0.8080 0.8309
67.5356 -27.7738 -1.2746 0.7467
34.6940 16.9168 -0.6737 0.8569
25.9223 16.7705 -0.5389 0.8838
24.8772 20.7327 -0.5653 0.8785
3.2015 5.6653 -0.1136 0.9743
0.1829 5.6838 -0.0993 0.9775
-1.2069 5.6924 -0.1016 0.9770
-1.9480 5.6970 -0.1051 0.9762
-2.7444 5.6811 -0.1101 0.9751
-3.6377 5.6683 -0.1176 0.9734
-64.6719 2.3186 -1.1296 0.7719
-57.1417 -11.8967 -1.0188 0.7918
-82.9374 -28.0203 -1.5281 0.7045
-70.8744 -45.1198 -1.4665 0.7145
-68.4620 -56.2121 -1.5463 0.7016
-21.8448 -22.8556 -0.5519 0.8812
-16.5330 -22.1022 -0.4818 0.8955
-13.5039 -23.4926 -0.4730 0.8973
-10.6188 -25.0360 -0.4747 0.8969
-8.0485 -49.8589 -0.8816 0.8171
20.2831 -42.7841 -0.8265 0.8274
24.2090 -38.3366 -0.7914 0.8341
24.2616 -29.7702 -0.6703 0.8576
64.4375 -27.6094 -1.2237 0.7554
87.4311 6.7802 -1.5307 0.7041
53.8179 10.7940 -0.9581 0.8028
49.9771 16.4781 -0.9185 0.8102
36.6361 17.2045 -0.7065 0.8505
26.7656 16.7653 -0.5513 0.8813
24.8735 20.1199 -0.5584 0.8799
4.9024 6.4547 -0.1415 0.9681
3.3115 5.6646 -0.1145 0.9741
0.9595 5.6791 -0.1005 0.9772
0.2663 5.6833 -0.0993 0.9775
-0.4201 5.6876 -0.0995 0.9774
36.4830 -26.0473 -2.3493 0.8356
38.0409 -15.1470 -2.1459 0.8487
47.2786 -6.5583 -2.5015 0.8260
24.2459 5.5190 -1.3032 0.9052
24.5786 20.9559 -1.6927 0.8786
5.3571 5.8172 -0.4144 0.9688
3.1184 5.6658 -0.3389 0.9744
0.8091 5.6800 -0.3007 0.9773
-0.5685 5.6885 -0.2996 0.9774
-2.0199 5.6974 -0.3168 0.9761
-3.7182 5.6529 -0.3546 0.9733
-6.0376 5.6010 -0.4316 0.9676
-6.9650 2.8326 -0.3940 0.9703
-45.0521 1.1089 -2.3618 0.8348
-44.6210 -4.2942 -2.3493 0.8356
-45.0458 -15.7845 -2.5015 0.8260
-39.9741 -26.0835 -2.5015 0.8260
-10.1978 -24.8148 -1.4060 0.8981
-6.6464 -44.3317 -2.3493 0.8356
10.0822 -46.6543 -2.5015 0.8260
19.6566 -40.2876 -2.3493 0.8356
24.3698 -29.2267 -1.9943 0.8586
28.8527 -27.1619 -2.0767 0.8532
37.7847 -15.6897 -2.1441 0.8488
45.9633 -12.8706 -2.5015 0.8260
44.6512 3.9674 -2.3493 0.8356
19.0138 6.5067 -1.0532 0.9227
19.8100 9.5759 -1.1531 0.9156
20.2464 13.0006 -1.2610 0.9081
24.5748 20.3389 -1.6718 0.8801
5.4264 5.7221 -0.4133 0.9689
3.2270 5.6651 -0.3417 0.9742
2.3789 5.6704 -0.3223 0.9757
12.9811 45.7127 -2.4904 0.8267
-0.4844 5.6879 -0.2992 0.9774
-1.9262 5.6968 -0.3152 0.9762
-2.7210 5.6821 -0.3302 0.9751
-3.6004 5.6525 -0.3512 0.9735
-5.8628 5.6008 -0.4249 0.9680
-7.6669 5.7321 -0.5017 0.9624
-10.0028 5.7465 -0.6046 0.9548
-13.2659 5.6228 -0.7551 0.9439
-20.1749 5.8090 -1.1003 0.9193
-32.4789 5.2347 -1.7241 0.8765
-45.0666 1.7698 -2.3637 0.8347
-44.6791 -3.6404 -2.3493 0.8356
-43.9170 -8.9870 -2.3493 0.8356
-45.2721 -15.1233 -2.5015 0.8260
-43.1249 -20.4578 -2.5015 0.8260
-34.7421 -28.3277 -2.3493 0.8356
-21.9905 -22.8514 -1.6621 0.8807
-16.4639 -21.8538 -1.4340 0.8962
-10.5573 -24.6566 -1.4057 0.8981
-7.2948 -44.2296 -2.3493 0.8356
3.7021 -47.5875 -2.5015 0.8260
14.0840 -42.6804 -2.3554 0.8353
19.0647 -40.5711 -2.3493 0.8356
24.3644 -30.1057 -2.0297 0.8563
35.7047 -27.1043 -2.3493 0.8356
45.7699 -13.5422 -2.5015 0.8260
47.6795 -2.2220 -2.5015 0.8260
44.0441 8.6776 -2.3526 0.8354
19.0156 6.1979 -1.0482 0.9230
19.0562 8.8696 -1.1016 0.9193
19.2044 11.9381 -1.1851 0.9134
19.2755 15.4831 -1.2957 0.9057
24.9066 25.5053 -1.8683 0.8669
3.3374 5.6645 -0.3446 0.9740
1.7002 5.6701 -0.3102 0.9766
-0.4006 5.6874 -0.2988 0.9774
-1.0998 5.6917 -0.3038 0.9770
-3.4848 5.6520 -0.3480 0.9738
-4.4976 5.6414 -0.3781 0.9715
-12.7970 5.6465 -0.7330 0.9455
-19.0958 5.8023 -1.0459 0.9232
-30.0319 5.2926 -1.5982 0.8850
-37.4305 -29.6181 -2.5015 0.8260
-5.1811 -28.7826 -1.5327 0.8895
8.7118 -46.9295 -2.5015 0.8260
18.4686 -40.8458 -2.3493 0.8356
27.4117 -27.3628 -2.0298 0.8563
34.7598 -27.1982 -2.3131 0.8380
33.5367 -15.0917 -1.9273 0.8630
45.5667 -14.2108 -2.5015 0.8260
46.9450 -8.6280 -2.5015 0.8260
47.6419 -2.9199 -2.5015 0.8260
39.1211 7.1142 -2.0839 0.8528
19.2657 15.0165 -1.2801 0.9068
24.9021 24.7647 -1.8405 0.8688
4.9909 6.3306 -0.4225 0.9682
1.7923 5.6740 -0.3118 0.9764
1.0651 5.6784 -0.3028 0.9771
-1.7418 5.6957 -0.3121 0.9764
-3.3714 5.6516 -0.3449 0.9740
-4.3690 5.6478 -0.3742 0.9718
-12.3547 5.6688 -0.7124 0.9470
-29.0070 5.5510 -1.5478 0.8884
-45.0656 3.0930 -2.3673 0.8345
-44.1614 -7.6972 -2.3493 0.8356
-45.6955 -13.7912 -2.5015 0.8260
-17.5990 -21.9900 -1.4761 0.8933
-14.1466 -22.8481 -1.4084 0.8980
-11.2497 -24.2830 -1.4026 0.8983
-8.9824 -27.7267 -1.5274 0.8898
-5.5956 -28.6708 -1.5309 0.8896
-3.4429 -47.6069 -2.5015 0.8260
13.6202 -45.7332 -2.5008 0.8260
24.1449 -31.6887 -2.0879 0.8525
26.6158 -27.3579 -2.0003 0.8582
45.3538 -14.8765 -2.5015 0.8260
47.5940 -3.6171 -2.5015 0.8260
44.7824 2.0029 -2.3493 0.8356
18.6416 5.4776 -1.0183 0.9251
19.1901 11.1638 -1.1635 0.9149
19.2562 14.5610 -1.2652 0.9078
24.8976 24.0454 -1.8140 0.8705
3.5640 5.6631 -0.3507 0.9736
2.6767 5.6685 -0.3285 0.9752
1.8840 5.6734 -0.3133 0.9763
1.1513 5.6779 -0.3036 0.9771
-0.2335 5.6864 -0.2983 0.9775
-0.9276 5.6907 -0.3022 0.9772
-1.6508 5.6951 -0.3108 0.9765
-3.2631 5.6567 -0.3422 0.9742
-4.2429 5.6540 -0.3705 0.9721
-11.9173 5.6808 -0.6919 0.9485
-17.2276 5.7909 -0.9525 0.9298
-27.4577 5.6725 -1.4694 0.8938
-45.0500 3.7558 -2.3692 0.8344
-44.8796 -1.6781 -2.3537 0.8354
-44.2693 -7.0499 -2.3493 0.8356
-45.8925 -13.1207 -2.5015 0.8260
-43.9816 -18.5443 -2.5015 0.8260
-18.2393 -22.1183 -1.5025 0.8915
-11.6033 -24.1140 -1.4025 0.8984
-9.1616 -26.9288 -1.4907 0.8923
-7.4411 -35.3648 -1.8940 0.8652
-4.1396 -47.5514 -2.5015 0.8260
1.6089 -47.7042 -2.5015 0.8260
12.9526 -45.9402 -2.5015 0.8260
17.2647 -41.3691 -2.3493 0.8356
22.1144 -38.9926 -2.3493 0.8356
24.1390 -32.6621 -2.1285 0.8499
37.6747 -24.2917 -2.3493 0.8356
31.3716 -15.2372 -1.8278 0.8696
45.1311 -15.5389 -2.5015 0.8260
46.6722 -9.9989 -2.5015 0.8260
47.5360 -4.3136 -2.5015 0.8260
40.2733 6.1116 -2.1348 0.8495
19.8645 5.5223 -1.0805 0.9207
19.0373 7.8632 -1.0795 0.9208
19.1833 10.7871 -1.1534 0.9156
1.2380 5.6774 -0.3045 0.9770
-0.1501 5.6859 -0.2981 0.9775
-0.8422 5.6902 -0.3015 0.9772
-1.5606 5.6946 -0.3094 0.9766
-2.3242 5.6861 -0.3219 0.9757
-3.1564 5.6617 -0.3397 0.9744
-6.7913 5.7267 -0.4656 0.9650
-8.7590 5.7388 -0.5488 0.9589
-25.1796 5.5875 -1.3517 0.9018
-41.7749 -23.0897 -2.5015 0.8260
-14.8455 -22.4785 -1.4118 0.8977
-7.7198 -34.1966 -1.8373 0.8690
-4.8226 -47.3611 -2.4949 0.8264
16.6571 -41.6174 -2.3493 0.8356
24.9938 -27.2431 -1.9376 0.8624
31.1548 -15.6998 -1.8284 0.8696
44.8988 -16.1981 -2.5015 0.8260
46.5208 -10.6811 -2.5015 0.8260
47.4677 -5.0091 -2.5015 0.8260
21.1785 5.5548 -1.1475 0.9160
19.0314 7.5365 -1.0728 0.9213
24.8891 22.6670 -1.7643 0.8739
5.2025 6.0339 -0.4175 0.9686
3.7989 5.6616 -0.3573 0.9731
2.8820 5.6673 -0.3332 0.9749
2.0699 5.6723 -0.3164 0.9761
1.3253 5.6768 -0.3055 0.9769
-0.0668 5.6854 -0.2980 0.9775
-14.3381 36.5979 -2.0600 0.8543
-5.0742 5.6128 -0.3965 0.9701
-6.5915 5.7255 -0.4576 0.9656
-8.4828 5.7371 -0.5367 0.9598
-23.8854 5.6685 -1.2865 0.9063
-37.8904 4.2792 -1.9984 0.8584
-31.5239 -0.2551 -1.6521 0.8814
-44.4568 -5.7505 -2.3493 0.8356
-45.3021 -11.5283 -2.4498 0.8292
-42.1085 -22.4756 -2.5015 0.8260
-39.1000 -27.3764 -2.5015 0.8260
-33.3626 -29.9401 -2.3493 0.8356
-19.4846 -22.2666 -1.5506 0.8882
-9.5569 -25.6058 -1.4324 0.8963
-7.9633 -33.0169 -1.7800 0.8728
11.6019 -46.2998 -2.5015 0.8260
16.0461 -41.8569 -2.3493 0.8356
24.1263 -34.7279 -2.2161 0.8442
28.8246 -25.4102 -2.0138 0.8573
36.9473 -25.3844 -2.3493 0.8356
31.1071 -16.2512 -1.8393 0.8689
47.7313 0.0366 -2.5015 0.8260
22.4843 5.5468 -1.2137 0.9114
19.0258 7.2139 -1.0664 0.9217
19.0790 10.0047 -1.1290 0.9173
19.2299 13.2553 -1.2240 0.9107
5.2720 5.9365 -0.4161 0.9687
3.9198 5.6609 -0.3609 0.9728
2.1643 5.6717 -0.3181 0.9760
-0.6725 5.6891 -0.3002 0.9773
-4.9329 5.6198 -0.3919 0.9705
-10.7624 5.7233 -0.6388 0.9523
-14.9744 5.7770 -0.8412 0.9377
-22.7032 5.7403 -1.2273 0.9105
-33.2638 4.2507 -1.7575 0.8743
-44.7535 -16.5952 -2.5015 0.8260
-15.5352 -22.0881 -1.4152 0.8975
-12.7167 -23.7037 -1.4097 0.8979
-9.8009 -25.1302 -1.4136 0.8976
-7.9708 -31.0466 -1.6798 0.8795
-5.4950 -41.7825 -2.2086 0.8447
-0.4875 -47.7288 -2.5015 0.8260
39.0655 -21.1425 -2.3279 0.8370
46.1882 -12.0386 -2.5015 0.8260
47.3007 -6.3969 -2.5015 0.8260
47.7267 -0.6622 -2.5015 0.8260
23.9504 5.5378 -1.2883 0.9062
19.4715 13.0054 -1.2271 0.9105
24.5795 21.1020 -1.6978 0.8783
5.3410 5.8397 -0.4147 0.9688
4.0432 5.6601 -0.3645 0.9725
2.2597 5.6711 -0.3199 0.9758
1.5016 5.6757 -0.3077 0.9768
0.7894 5.6801 -0.3005 0.9773
-2.0418 5.6975 -0.3172 0.9760
-4.7949 5.6267 -0.3874 0.9708
-6.0791 5.6010 -0.4332 0.9674
-21.6708 5.8182 -1.1759 0.9140
-32.2977 4.6089 -1.7098 0.8775
-34.2250 -28.9503 -2.3493 0.8356
-21.0765 -22.7083 -1.6237 0.8833
-16.0115 -22.0715 -1.4290 0.8965
-10.6038 -19.0891 -1.1444 0.9163
14.8137 -42.3087 -2.3493 0.8356
24.3710 -29.0262 -1.9863 0.8592
29.0521 -27.1632 -2.0844 0.8527
38.4850 -21.5628 -2.3119 0.8380
37.7531 -15.5258 -2.1393 0.8492
47.2020 -7.0887 -2.5015 0.8260
44.6374 4.1199 -2.3493 0.8356
43.9361 9.4834 -2.3556 0.8352
19.0150 6.5798 -1.0545 0.9226
19.4786 9.4978 -1.1357 0.9169
20.0966 13.0016 -1.2544 0.9086
24.5756 20.4814 -1.6766 0.8797
3.2015 5.6653 -0.3410 0.9743
2.3563 5.6705 -0.3218 0.9757
0.1829 5.6838 -0.2980 0.9775
-1.2069 5.6924 -0.3050 0.9770
-2.7444 5.6811 -0.3306 0.9750
-3.6277 5.6526 -0.3520 0.9735
-4.6600 5.6334 -0.3832 0.9711
-7.7221 5.7324 -0.5040 0.9622
-6.9831 2.9317 -0.3969 0.9701
-32.2947 5.0920 -1.7134 0.8773
-45.0641 1.6156 -2.3632 0.8348
-44.6664 -3.7929 -2.3493 0.8356
-40.2645 -25.6330 -2.5015 0.8260
-34.6452 -28.4461 -2.3493 0.8356
-16.4214 -21.9530 -1.4368 0.8960
-13.3621 -23.2459 -1.4052 0.8982
-10.4691 -24.6829 -1.4051 0.8982
-7.1438 -44.2542 -2.3493 0.8356
3.8646 -47.5746 -2.5015 0.8260
9.5577 -46.7646 -2.5015 0.8260
19.2030 -40.5058 -2.3493 0.8356
24.3657 -29.8979 -2.0213 0.8569
35.7971 -26.9822 -2.3493 0.8356
35.2048 -15.0841 -2.0072 0.8578
47.0931 -7.7790 -2.5015 0.8260
44.6929 3.4659 -2.3493 0.8356
19.0100 6.2678 -1.0490 0.9230
19.0577 8.9496 -1.1034 0.9191
19.2062 12.0303 -1.1877 0.9132
4.9024 6.4547 -0.4248 0.9681
2.4540 5.6699 -0.3238 0.9756
0.2663 5.6833 -0.2982 0.9775
23.2700 -16.6138 -2.5015 0.8915
27.6430 -7.3058 -2.5015 0.8915
28.3210 -3.9285 -2.5015 0.8915
28.5879 -0.4942 -2.5015 0.8915
24.2459 5.5190 -2.1755 0.9050
19.5139 9.7877 -1.9100 0.9161
19.6435 13.0236 -2.0620 0.9097
5.3571 5.8172 -0.6919 0.9687
4.0723 5.6600 -0.6100 0.9724
2.2821 5.6710 -0.5348 0.9758
0.1191 5.6842 -0.4974 0.9774
-0.5685 5.6885 -0.5002 0.9773
-1.2739 5.6928 -0.5104 0.9768
-3.7078 5.6372 -0.5903 0.9733
-7.9076 5.7336 -0.8545 0.9615
-10.3426 5.7419 -1.0350 0.9536
-6.9650 2.8326 -0.6578 0.9703
-21.3725 5.8163 -1.9379 0.9149
-26.8444 0.6607 -2.3493 0.8978
-28.4607 -2.7390 -2.5015 0.8915
-25.6506 -12.6316 -2.5015 0.8915
-23.9454 -15.6246 -2.5015 0.8915
-21.8927 -18.3908 -2.5015 0.8915
-18.3344 -19.6191 -2.3493 0.8978
-15.8420 -21.6815 -2.3493 0.8978
-10.1283 -24.6459 -2.3312 0.8985
-7.1460 -25.8842 -2.3493 0.8978
-4.2393 -28.2761 -2.5015 0.8915
2.6316 -28.4365 -2.4985 0.8917
6.0394 -27.9470 -2.5015 0.8915
9.3564 -27.0179 -2.5015 0.8915
14.6314 -22.6037 -2.3557 0.8975
17.1965 -20.6237 -2.3493 0.8978
19.5518 -18.4061 -2.3493 0.8978
23.0108 -16.9427 -2.5000 0.8916
26.4061 -10.9649 -2.5015 0.8915
28.2604 -4.3428 -2.5015 0.8915
28.5776 -0.9127 -2.5015 0.8915
26.7471 2.3766 -2.3493 0.8978
20.2464 13.0006 -2.1051 0.9079
5.4264 5.7221 -0.6899 0.9688
4.1989 5.6592 -0.6165 0.9721
2.3789 5.6704 -0.5380 0.9756
-0.4844 5.6879 -0.4994 0.9773
-2.7210 5.6821 -0.5512 0.9750
-4.6156 5.6186 -0.6362 0.9712
-5.8232 5.5629 -0.7046 0.9682
-13.1095 5.5565 -1.2457 0.9444
-28.0117 -5.7322 -2.5015 0.8915
-27.1190 -9.0592 -2.5015 0.8915
-18.6196 -19.3485 -2.3493 0.8978
-16.1577 -21.4473 -2.3493 0.8978
-13.3033 -22.9620 -2.3217 0.8989
-1.2265 -28.5658 -2.5015 0.8915
12.1600 -25.8775 -2.5015 0.8915
19.2802 -18.6903 -2.3493 0.8978
24.6873 -14.4238 -2.5015 0.8915
26.2427 -11.3503 -2.5015 0.8915
27.4172 -8.1121 -2.5015 0.8915
28.5611 -1.3311 -2.5015 0.8915
26.7790 1.9847 -2.3493 0.8978
26.3460 5.1907 -2.3493 0.8978
19.1108 19.5702 -2.3931 0.8960
2.4769 5.6698 -0.5413 0.9755
0.9794 5.6790 -0.5042 0.9771
-1.0998 5.6917 -0.5072 0.9770
-3.4814 5.6464 -0.5804 0.9737
-12.6616 5.5867 -1.2108 0.9459
-19.0958 5.8023 -1.7461 0.9230
-26.4450 4.6605 -2.3493 0.8978
-28.5157 -1.9036 -2.5004 0.8916
-28.0926 -5.3214 -2.5015 0.8915
-26.0095 -11.8751 -2.5015 0.8915
-18.9009 -19.0739 -2.3493 0.8978
-10.8192 -24.2795 -2.3255 0.8988
-7.9008 -25.6638 -2.3493 0.8978
-4.7572 -26.4277 -2.3493 0.8978
-1.6446 -28.5448 -2.5015 0.8915
1.8000 -28.5354 -2.5015 0.8915
8.5613 -27.2803 -2.5015 0.8915
11.7799 -26.0527 -2.5015 0.8915
16.5852 -21.1184 -2.3493 0.8978
19.0045 -18.9706 -2.3493 0.8978
22.1256 -17.3124 -2.4579 0.8933
24.4735 -14.7837 -2.5015 0.8915
27.2955 -8.5126 -2.5015 0.8915
28.1211 -5.1684 -2.5015 0.8915
27.1732 1.6143 -2.3815 0.8965
26.4192 4.8044 -2.3493 0.8978
12.5618 5.6246 -1.2041 0.9462
2.5761 5.6692 -0.5448 0.9753
1.0651 5.6784 -0.5055 0.9771
-0.3170 5.6869 -0.4983 0.9774
-1.7418 5.6957 -0.5211 0.9764
-3.3714 5.6516 -0.5757 0.9739
-5.5021 5.5733 -0.6852 0.9690
-7.2127 5.7293 -0.8059 0.9637
-26.3739 5.0471 -2.3493 0.8978
-28.1675 -4.9095 -2.5015 0.8915
