ply
format ascii 1.0
element vertex 1573
property float32 x
property float32 y
property float32 z
property float32 I
end_header
-10.5523 -14.7709 2.8751 0.9291
-17.0402 -31.2214 5.6336 0.8658
-13.7852 -34.6268 5.9030 0.8599
-12.8890 -48.8141 7.9964 0.8151
13.1042 -57.3205 9.3129 0.7881
15.7128 -43.6575 7.3489 0.8287
22.4570 -44.6289 7.9130 0.8168
30.7093 -46.1717 8.7827 0.7989
50.0654 -35.8705 9.7548 0.7792
50.3638 -27.5775 9.0944 0.7925
56.1704 -22.4512 9.5809 0.7827
54.0428 -14.3489 8.8561 0.7974
54.1654 5.5799 8.6244 0.8021
49.9029 11.3364 8.1052 0.8128
46.4453 16.6441 7.8143 0.8189
34.3360 17.2187 6.0838 0.8559
25.2955 16.7743 4.8073 0.8843
5.2012 5.6530 1.2167 0.9694
2.2757 5.6710 0.9678 0.9756
1.5060 5.6409 0.9247 0.9766
0.8014 5.6800 0.9085 0.9770
0.1106 5.6843 0.9005 0.9772
-0.5781 5.6885 0.9056 0.9771
-1.2850 5.6929 0.9243 0.9766
-2.0329 5.6975 0.9581 0.9758
-2.8499 5.7025 1.0097 0.9745
-4.8617 5.7149 1.1884 0.9701
-23.1873 21.3928 4.9968 0.8801
-10.4313 5.7491 1.8865 0.9529
-87.1326 23.3910 14.2891 0.6939
-68.1874 -15.2934 11.0681 0.7535
-10.5736 -19.1229 3.4609 0.9153
-14.0054 -34.6255 5.9158 0.8596
-11.8654 -43.9584 7.2115 0.8316
15.5359 -43.9213 7.3788 0.8281
29.6625 -45.1332 8.5540 0.8035
50.0952 -46.4737 10.8228 0.7583
50.0628 -36.2861 9.7929 0.7785
49.6640 -27.5497 8.9952 0.7945
54.0827 -7.8581 8.6558 0.8015
54.1232 -1.2756 8.5747 0.8031
49.9012 11.0483 8.0950 0.8130
34.6127 17.1203 6.1160 0.8552
25.5967 16.7724 4.8469 0.8834
4.1141 5.6597 1.1082 0.9721
3.1530 5.6656 1.0269 0.9741
1.5465 5.6675 0.9305 0.9765
0.8332 5.6798 0.9092 0.9770
-0.5466 5.6883 0.9051 0.9771
-2.8107 5.7022 1.0069 0.9746
-6.1131 5.7025 1.3241 0.9667
-10.2586 5.7276 1.8609 0.9535
-89.6982 2.3599 14.2117 0.6953
-69.1771 -15.1171 11.2151 0.7507
-66.7302 -43.4643 12.6133 0.7243
-10.5566 -14.4391 2.8330 0.9301
-19.1143 -34.1256 6.1951 0.8535
49.7615 -27.9620 9.0405 0.7936
54.0809 -8.1612 8.6626 0.8013
54.1214 -1.5728 8.5756 0.8031
49.8994 10.7610 8.0850 0.8132
5.3163 5.6523 1.2290 0.9691
4.1615 5.6594 1.1126 0.9720
2.3481 5.6705 0.9721 0.9755
17.2630 61.9242 10.1818 0.7708
0.8651 5.6796 0.9099 0.9770
-1.9625 5.6970 0.9544 0.9759
-3.6842 5.7076 1.0760 0.9729
-4.7540 5.7142 1.1773 0.9703
-7.7738 5.7327 1.5298 0.9616
-34.4305 -36.4059 7.9364 0.8163
29.0797 -45.3227 8.5289 0.8041
50.0888 -47.5013 10.9334 0.7561
49.6097 -36.7950 9.7827 0.7787
49.6596 -28.2645 9.0501 0.7934
56.7733 -23.7837 9.7492 0.7794
54.0370 -15.3042 8.8952 0.7966
54.0790 -8.4647 8.6696 0.8012
54.1196 -1.8700 8.5768 0.8031
54.1599 4.6793 8.6100 0.8024
50.5628 10.6140 8.1829 0.8112
48.9246 16.6288 8.1843 0.8112
34.7504 16.7162 6.1076 0.8554
26.2141 16.7687 4.9287 0.8816
24.8332 20.4878 5.0990 0.8778
5.3747 5.6519 1.2353 0.9689
3.2347 5.6651 1.0332 0.9739
0.2042 5.6837 0.9008 0.9772
-1.1868 5.6923 0.9210 0.9767
-3.6398 5.7073 1.0721 0.9730
-4.7009 5.7139 1.1719 0.9705
-6.0005 5.7219 1.3132 0.9670
-7.6843 5.7322 1.5184 0.9619
-88.5203 25.3331 14.5831 0.6887
-60.8839 -29.0818 10.6867 0.7609
-67.8101 -43.1150 12.7272 0.7222
-27.3690 -36.5848 7.2365 0.8311
-19.6357 -34.1712 6.2421 0.8525
11.5330 -56.0891 9.0695 0.7930
14.7883 -44.1045 7.3677 0.8283
28.7284 -45.3206 8.4987 0.8047
49.6087 -37.2183 9.8227 0.7779
54.0771 -8.7687 8.6768 0.8010
34.8089 16.5097 6.1019 0.8555
26.5307 16.7667 4.9709 0.8806
24.8318 20.2586 5.0758 0.8783
4.2576 5.6588 1.1216 0.9717
2.4212 5.6701 0.9765 0.9753
17.9965 61.9197 10.2129 0.7702
0.9289 5.6793 0.9115 0.9770
0.2354 5.6835 0.9010 0.9772
-1.1541 5.6921 0.9199 0.9768
-1.8927 5.6966 0.9508 0.9760
-87.8203 25.6550 14.4907 0.6904
-89.3267 -17.9844 14.4319 0.6914
-66.3597 -21.9468 11.0702 0.7535
-27.5727 -36.4386 7.2374 0.8311
-14.8958 -34.6200 5.9693 0.8584
-12.7506 -43.4256 7.1683 0.8325
50.0084 -48.4786 11.0314 0.7542
54.0330 -15.9457 8.9229 0.7960
54.0753 -9.0733 8.6844 0.8009
54.1159 -2.4649 8.5800 0.8030
54.1561 4.0807 8.6018 0.8026
49.9339 16.3625 8.3225 0.8083
1.6763 5.6516 0.9337 0.9764
0.2667 5.6833 0.9011 0.9772
-1.1216 5.6919 0.9188 0.9768
-1.8580 5.6964 0.9490 0.9760
-3.5520 5.7068 1.0646 0.9731
-5.8693 5.7210 1.2982 0.9674
-7.5095 5.7311 1.4962 0.9625
-9.7792 5.7451 1.7964 0.9551
-88.3643 4.2678 14.0119 0.6989
-67.4572 -21.8998 11.2331 0.7503
-35.5772 -36.3989 8.0615 0.8137
-27.8128 -36.3396 7.2479 0.8308
-11.1528 5.7535 1.5409 0.9507
-31.5229 -0.2090 3.8706 0.8807
-68.1194 -17.2543 8.6281 0.7534
-23.5456 -34.5373 5.1324 0.8450
-18.5990 -35.9318 4.9679 0.8495
-13.9056 -37.2914 4.8868 0.8518
-12.1778 -50.5958 6.3898 0.8108
13.0712 -51.9038 6.5720 0.8060
17.4530 -45.3431 5.9656 0.8222
23.2559 -43.7948 6.0885 0.8189
31.5837 -45.2973 6.7803 0.8005
40.4174 -45.1992 7.4450 0.7832
54.1686 -20.2836 7.1021 0.7921
54.0920 -6.3491 6.6873 0.8029
24.4238 21.7797 4.0180 0.8764
4.9777 5.6544 0.9250 0.9701
2.1327 5.6719 0.7440 0.9759
0.6747 5.6808 0.7024 0.9772
-0.7047 5.6893 0.7039 0.9772
-2.1754 5.6983 0.7489 0.9757
-3.0086 5.7035 0.7918 0.9743
-3.9576 5.7093 0.8530 0.9724
-5.0833 5.7162 0.9392 0.9696
-6.4851 5.7248 1.0621 0.9657
-8.3401 5.7362 1.2429 0.9600
-11.0024 5.7526 1.5244 0.9512
-31.5252 -0.0359 3.8708 0.8807
-69.3835 -17.1698 8.7761 0.7497
-74.7310 -39.2903 10.3667 0.7116
-30.5348 -34.4945 5.6564 0.8306
-18.7960 -35.8291 4.9679 0.8495
-13.9017 -36.6650 4.8146 0.8538
-11.8916 -48.2417 6.1006 0.8185
-10.7737 -88.6340 10.9630 0.6978
12.7271 -51.7349 6.5416 0.8068
15.8159 -41.7724 5.4843 0.8353
31.0480 -45.0541 6.7183 0.8021
39.9706 -45.1963 7.4083 0.7842
54.0046 -20.5608 7.0953 0.7922
54.0487 -13.4018 6.8373 0.7990
54.0902 -6.6501 6.6914 0.8028
50.1590 6.0034 6.2027 0.8158
24.8120 17.0485 3.6964 0.8857
24.6935 21.7781 4.0427 0.8757
5.0327 5.6540 0.9294 0.9700
2.9925 5.6666 0.7868 0.9745
1.4157 5.6763 0.7183 0.9767
0.7063 5.6806 0.7029 0.9772
-1.3841 5.6935 0.7194 0.9767
-2.1396 5.6981 0.7473 0.9758
-6.4133 5.7244 1.0555 0.9659
-8.2419 5.7356 1.2329 0.9603
-10.8551 5.7517 1.5084 0.9517
-67.3316 -45.9925 10.0119 0.7199
-24.1271 -34.5687 5.1761 0.8438
-14.1276 -36.6527 4.8231 0.8536
-11.9205 -47.2416 5.9823 0.8217
49.9908 -34.9930 7.4925 0.7820
52.5636 -28.0364 7.3147 0.7866
54.0025 -20.9002 7.1099 0.7919
54.0467 -13.7167 6.8465 0.7987
54.0883 -6.9514 6.6958 0.8027
49.9479 5.7001 6.1726 0.8166
50.3572 12.0224 6.3568 0.8117
44.9129 16.6536 5.8815 0.8244
5.0883 5.6537 0.9339 0.9698
3.9739 5.6605 0.8492 0.9725
3.0323 5.6663 0.7891 0.9744
2.2039 5.6714 0.7471 0.9758
1.4488 5.6761 0.7193 0.9767
0.7380 5.6804 0.7033 0.9772
0.0481 5.6847 0.6980 0.9774
-1.3510 5.6933 0.7185 0.9767
-2.1039 5.6979 0.7458 0.9758
-3.8651 5.7087 0.8465 0.9726
-10.7109 5.7508 1.4927 0.9522
-7.1126 2.7752 0.9374 0.9697
-75.1000 -38.4378 10.3587 0.7118
-67.2998 -45.4311 9.9700 0.7209
-31.2448 -34.5253 5.7174 0.8289
-20.0161 -28.3459 4.2607 0.8695
-19.1881 -35.6207 4.9679 0.8495
-14.3586 -36.6513 4.8332 0.8533
-11.9138 -46.1455 5.8517 0.8253
-11.5672 -87.1640 10.7962 0.7016
12.4034 -52.9162 6.6734 0.8033
22.5012 -44.1120 6.0802 0.8191
30.4222 -45.1999 6.6898 0.8029
39.4383 -45.5933 7.4019 0.7843
49.8042 -45.1964 8.2578 0.7626
49.9883 -35.4017 7.5211 0.7813
51.6247 -27.9006 7.2052 0.7894
54.0983 -14.0463 6.8627 0.7983
54.0864 -7.2531 6.7004 0.8026
54.1269 -0.6811 6.6465 0.8040
50.0770 5.4366 6.1848 0.8163
45.6677 16.6489 5.9683 0.8221
33.8764 17.2215 4.6661 0.8580
24.9993 16.7761 3.6966 0.8857
5.1445 5.6533 0.9385 0.9697
0.7697 5.6802 0.7038 0.9772
-0.6097 5.6887 0.7025 0.9772
-2.8892 5.7027 0.7849 0.9746
-3.8194 5.7084 0.8433 0.9727
-4.9163 5.7152 0.9256 0.9701
-23.4459 21.3944 3.8972 0.8799
-7.0412 2.7920 0.9300 0.9699
-77.9053 -17.9226 9.8154 0.7246
-67.3134 -44.9042 9.9353 0.7217
-31.5892 -34.5231 5.7456 0.8281
-20.1732 -28.2380 4.2611 0.8695
-18.7948 -34.4365 4.8170 0.8538
-11.8716 -44.9609 5.7097 0.8291
15.2464 -42.3616 5.5280 0.8341
22.3375 -44.3914 6.1017 0.8185
16.9031 -19.7594 3.1927 0.9005
49.7997 -45.6933 8.2985 0.7616
50.3639 -27.5775 7.0502 0.7934
54.1780 -14.3848 6.8827 0.7978
54.0846 -7.5554 6.7052 0.8025
54.1251 -0.9782 6.6468 0.8040
50.2573 5.1773 6.2035 0.8158
49.9029 11.3364 6.2834 0.8136
46.4454 16.6441 6.0579 0.8197
34.3360 17.2187 4.7163 0.8566
25.2955 16.7743 3.7268 0.8849
5.2012 5.6530 0.9432 0.9695
4.0670 5.6600 0.8558 0.9723
3.1125 5.6658 0.7937 0.9743
2.2757 5.6710 0.7503 0.9757
1.5060 5.6409 0.7169 0.9767
0.8014 5.6800 0.7043 0.9771
0.1106 5.6843 0.6981 0.9773
-2.8499 5.7025 0.7827 0.9746
-90.3973 24.2674 11.4924 0.6858
-73.5780 -36.6451 10.0927 0.7180
-68.6018 -45.2214 10.0887 0.7181
-24.9546 -34.5287 5.2309 0.8422
-11.8654 -43.9584 5.5906 0.8324
-12.5417 -87.1580 10.8119 0.7013
14.9521 -42.2710 5.5053 0.8347
48.6816 -45.1623 8.1534 0.7652
49.8139 -36.1057 7.5540 0.7804
49.6640 -27.5497 6.9734 0.7954
68.5448 -27.8346 9.0837 0.7422
54.1760 -14.7032 6.8926 0.7975
54.0827 -7.8581 6.7102 0.8023
54.1232 -1.2756 6.6473 0.8040
50.4715 4.9196 6.2265 0.8152
50.0013 11.0705 6.2881 0.8135
47.2465 16.6392 6.1504 0.8172
5.2584 5.6526 0.9479 0.9694
4.1141 5.6597 0.8591 0.9722
3.1530 5.6656 0.7961 0.9742
1.5465 5.6675 0.7213 0.9766
-0.5466 5.6883 0.7017 0.9772
-1.2522 5.6927 0.7157 0.9768
-1.9977 5.6973 0.7413 0.9760
-2.8107 5.7022 0.7806 0.9747
-3.7290 5.7079 0.8371 0.9729
-4.8076 5.7145 0.9169 0.9704
-6.1131 5.7025 1.0265 0.9669
-10.2586 5.7276 1.4426 0.9538
-7.0011 2.8654 0.9288 0.9700
-89.9375 24.6739 11.4509 0.6867
-74.9035 -36.7935 10.2467 0.7144
-17.4486 -31.1517 4.3841 0.8660
14.6916 -42.2708 5.4947 0.8350
22.0067 -44.9565 6.1458 0.8173
29.3075 -45.1308 6.6073 0.8050
48.3393 -45.3405 8.1376 0.7656
51.5362 -21.2580 6.8450 0.7988
54.0809 -8.1612 6.7155 0.8022
34.6550 16.9051 4.7344 0.8561
24.9352 20.8030 3.9872 0.8773
5.3163 5.6523 0.9528 0.9692
-0.5151 5.6881 0.7013 0.9772
-2.7718 5.7020 0.7785 0.9748
-4.7540 5.7142 0.9127 0.9705
-10.0944 5.7087 1.4239 0.9543
-7.0156 2.9164 0.9329 0.9698
-90.3571 -19.2266 11.3428 0.6892
-75.2922 -36.4729 10.2723 0.7138
-32.6438 -34.5167 5.8333 0.8258
-25.5593 -34.5599 5.2778 0.8409
-19.9655 -35.1908 4.9679 0.8495
-11.8539 -42.0746 5.3672 0.8385
14.6342 -42.8630 5.5612 0.8332
21.7635 -45.0846 6.1469 0.8173
37.5058 -45.3338 7.2243 0.7889
47.8068 -45.3372 8.0898 0.7668
49.6097 -36.7950 7.5839 0.7796
49.6597 -28.2645 7.0159 0.7943
51.3812 -21.5248 6.8400 0.7989
54.1721 -15.3425 6.9131 0.7970
50.8065 4.3896 6.2615 0.8142
50.5986 10.6215 6.3481 0.8119
48.9246 16.6288 6.3447 0.8120
24.9338 20.5708 3.9689 0.8779
5.3747 5.6519 0.9577 0.9691
4.1900 5.6331 0.8620 0.9721
0.2042 5.6837 0.6983 0.9773
-3.6398 5.7073 0.8312 0.9731
-4.7009 5.7139 0.9085 0.9706
-6.0005 5.7219 1.0180 0.9671
-7.6843 5.7322 1.1771 0.9621
-13.6656 5.7690 1.8213 0.9420
-86.3894 24.7232 11.0331 0.6962
-75.3578 -35.9954 10.2542 0.7142
-15.4676 -36.5000 4.8674 0.8523
-11.8843 -41.3127 5.2783 0.8409
-14.1886 -88.2680 10.9771 0.6975
14.2837 -42.5997 5.5168 0.8344
21.1683 -44.4735 6.0477 0.8200
28.6054 -45.1265 6.5603 0.8063
27.1554 -33.1923 5.2656 0.8413
49.6087 -37.2184 7.6148 0.7789
50.1059 -28.8839 7.1012 0.7921
51.2268 -21.7913 6.8353 0.7990
54.1177 -2.1674 6.6501 0.8039
53.7508 10.9753 6.7359 0.8016
26.6875 16.8658 3.8763 0.8805
24.9323 20.3407 3.9508 0.8784
4.2576 5.6588 0.8695 0.9719
3.2759 5.6648 0.8035 0.9740
2.4212 5.6701 0.7570 0.9755
17.9965 61.9198 7.9174 0.7712
0.9289 5.6793 0.7066 0.9771
-0.4521 5.6877 0.7006 0.9773
-2.6946 5.7015 0.7743 0.9749
-3.5958 5.7071 0.8282 0.9732
-4.6483 5.7135 0.9044 0.9708
-7.5963 5.7317 1.1684 0.9624
-92.9975 -18.7234 11.6478 0.6823
-74.5655 -35.1157 10.1200 0.7174
-20.3507 -34.9695 4.9679 0.8495
-15.7660 -36.6427 4.8979 0.8515
-11.8791 -40.4574 5.1772 0.8437
-14.6728 -88.1888 10.9771 0.6975
14.4882 -44.0100 5.6890 0.8297
20.1570 -42.9546 5.8260 0.8259
49.6045 -37.6424 7.6458 0.7781
51.0727 -22.0579 6.8308 0.7992
54.0753 -9.0733 6.7324 0.8017
54.1159 -2.4649 6.6515 0.8039
53.8991 10.6978 6.7471 0.8014
49.9339 16.3625 6.4519 0.8092
24.9309 20.1126 3.9331 0.8789
24.3614 25.0612 4.2914 0.8686
4.3062 5.6585 0.8731 0.9718
2.4580 5.6699 0.7588 0.9754
1.6763 5.6516 0.7238 0.9765
0.2667 5.6833 0.6986 0.9773
-1.1216 5.6919 0.7123 0.9769
-1.8580 5.6964 0.7357 0.9761
-3.5520 5.7068 0.8253 0.9733
-9.7792 5.7451 1.3926 0.9553
-13.2515 5.7664 1.7745 0.9434
-60.3829 -28.0324 8.1741 0.7647
-33.7310 -34.5100 5.9252 0.8233
-26.4466 -34.5545 5.3428 0.8392
-16.0043 -36.6412 4.9094 0.8512
-11.8401 -39.5202 5.0656 0.8468
-15.1566 -88.1070 10.9771 0.6975
-11.1528 5.7535 1.0979 0.9509
-15.5675 5.7806 1.4528 0.9355
-31.5301 -0.2090 2.7586 0.8811
-67.9794 -17.2189 6.1352 0.7546
-31.8858 -36.4215 4.2351 0.8234
-24.8532 -36.4553 3.8601 0.8376
-18.9568 -36.6231 3.6079 0.8474
-13.9056 -37.2914 3.4820 0.8523
-12.1778 -50.5958 4.5530 0.8114
-10.9008 -93.9844 8.2777 0.6839
13.3830 -53.1416 4.7945 0.8025
16.4465 -42.7281 4.0056 0.8321
51.4948 -45.2069 5.9950 0.7595
49.6273 -33.9330 5.2597 0.7855
54.0140 -20.2257 5.0460 0.7933
54.1504 -13.1120 4.8745 0.7995
44.3939 5.5607 3.9143 0.8356
32.5540 17.2297 3.2224 0.8625
24.4238 21.7797 2.8630 0.8769
4.9777 5.6544 0.6591 0.9702
3.8822 5.6611 0.6006 0.9728
1.3827 5.6765 0.5111 0.9768
-0.7047 5.6893 0.5016 0.9772
-1.4173 5.6937 0.5133 0.9767
-2.1754 5.6983 0.5336 0.9758
-3.9576 5.7093 0.6078 0.9725
-5.0833 5.7162 0.6692 0.9698
-6.4851 5.7248 0.7568 0.9659
-8.3401 5.7362 0.8856 0.9602
-69.4903 -17.1962 6.2630 0.7502
-32.3670 -36.5642 4.2722 0.8220
-19.2117 -36.6216 3.6181 0.8470
13.1192 -53.3285 4.8047 0.8021
16.1881 -42.7555 3.9998 0.8323
31.2630 -45.3661 4.8202 0.8015
38.7995 -43.8722 5.1240 0.7904
49.6248 -34.3326 5.2794 0.7848
54.1485 -13.4265 4.8808 0.7993
54.1378 -0.0870 4.7364 0.8046
44.5316 5.3298 3.9238 0.8352
42.8750 16.1661 4.0089 0.8319
32.9856 17.2270 3.2557 0.8612
24.6935 21.7781 2.8806 0.8762
5.0327 5.6540 0.6622 0.9701
2.9925 5.6666 0.5606 0.9746
2.1683 5.6717 0.5312 0.9759
0.7063 5.6806 0.5008 0.9773
0.0169 5.6849 0.4974 0.9774
-0.6730 5.6891 0.5012 0.9773
-5.0271 5.7159 0.6660 0.9699
-6.4133 5.7244 0.7521 0.9661
-10.8551 5.7517 1.0748 0.9519
-15.0505 5.7775 1.4104 0.9373
-48.1247 -11.6292 4.3316 0.8197
-19.4679 -36.6200 3.6284 0.8466
-12.7660 -50.5922 4.5650 0.8110
12.9191 -53.7860 4.8395 0.8008
15.9621 -42.8676 4.0020 0.8322
38.5559 -44.0819 5.1237 0.7905
49.6223 -34.7351 5.2993 0.7841
51.6152 -27.5305 5.1179 0.7907
54.0098 -20.9030 5.0668 0.7925
54.1360 -0.3841 4.7364 0.8046
44.7311 5.1048 3.9389 0.8346
49.9065 11.9149 4.4890 0.8138
43.5865 16.1617 4.0670 0.8297
24.8108 16.8479 2.6238 0.8865
24.8405 21.6665 2.8838 0.8760
2.2039 5.6714 0.5323 0.9759
1.4488 5.6761 0.5125 0.9768
0.7380 5.6804 0.5012 0.9773
-0.6413 5.6889 0.5009 0.9773
-1.3510 5.6933 0.5119 0.9768
-2.9288 5.7030 0.5609 0.9746
-3.8651 5.7087 0.6032 0.9727
-4.9714 5.7155 0.6627 0.9700
-6.3281 5.7110 0.7458 0.9664
-10.7109 5.7508 1.0636 0.9524
-7.1122 2.7751 0.6679 0.9698
-48.2715 -11.3847 4.3391 0.8194
-45.3127 -39.3044 5.2479 0.7860
-33.0860 -36.5598 4.3139 0.8204
-19.7256 -36.6184 3.6389 0.8462
-13.0614 -50.5904 4.5712 0.8107
-11.5672 -87.1640 7.6927 0.7025
15.7127 -42.9166 3.9985 0.8323
22.6215 -44.3480 4.3556 0.8188
30.3540 -45.0985 4.7562 0.8039
48.3736 -43.8982 5.7150 0.7693
50.9321 -27.5263 5.0651 0.7926
54.1446 -14.0583 4.8941 0.7988
54.1864 -7.2665 4.7831 0.8029
54.1341 -0.6812 4.7365 0.8046
44.8707 4.8714 3.9487 0.8342
49.9048 11.6253 4.4830 0.8140
44.3189 16.1572 4.1270 0.8274
5.1445 5.6533 0.6687 0.9698
3.0723 5.6661 0.5639 0.9745
-0.6097 5.6887 0.5005 0.9773
-1.3180 5.6931 0.5113 0.9768
-2.8892 5.7027 0.5593 0.9747
-3.8194 5.7084 0.6009 0.9728
-4.9163 5.7152 0.6596 0.9702
-23.4459 21.3944 2.7769 0.8803
-8.0503 5.7344 0.8647 0.9611
-10.5697 5.7499 1.0527 0.9528
-54.5139 -27.5249 5.3428 0.7825
-45.5205 -39.0489 5.2471 0.7860
-33.4508 -36.5576 4.3352 0.8196
-20.1696 -28.2330 3.0356 0.8699
-18.9143 -34.6552 3.4541 0.8534
-13.3575 -50.5886 4.5776 0.8105
12.3423 -53.9878 4.8452 0.8006
22.4570 -44.6289 4.3710 0.8182
47.8398 -43.8949 5.6803 0.7705
46.7694 -33.5091 5.0336 0.7937
50.2628 -27.5222 5.0135 0.7945
53.5505 -21.4040 5.0454 0.7933
54.1427 -14.3754 4.9010 0.7986
54.1323 -0.9783 4.7367 0.8046
47.5737 4.9008 4.1842 0.8253
24.8376 21.1883 2.8563 0.8771
5.2012 5.6530 0.6721 0.9696
4.0670 5.6600 0.6098 0.9724
3.1125 5.6658 0.5656 0.9744
2.2757 5.6710 0.5346 0.9758
1.5060 5.6409 0.5108 0.9768
0.8014 5.6800 0.5019 0.9772
0.1106 5.6843 0.4974 0.9774
-1.2850 5.6929 0.5106 0.9768
-2.0329 5.6975 0.5292 0.9760
-2.8499 5.7025 0.5577 0.9747
-3.7740 5.7082 0.5987 0.9729
-7.9567 5.7339 0.8580 0.9614
-21.6730 5.8182 1.9633 0.9138
-54.9937 -27.3893 5.3750 0.7814
-33.8192 -36.5554 4.3569 0.8188
-14.8236 -36.6484 3.4587 0.8532
-11.8654 -43.9584 3.9835 0.8329
15.1953 -42.9584 3.9866 0.8328
22.2686 -44.8663 4.3822 0.8178
47.4071 -43.9799 5.6575 0.7713
49.6148 -35.9614 5.3610 0.7819
49.6640 -27.5497 4.9688 0.7961
52.6960 -21.3988 4.9759 0.7958
54.1407 -14.6936 4.9080 0.7983
47.7232 4.6517 4.1950 0.8249
49.9012 11.0484 4.4715 0.8145
47.2467 16.6392 4.3824 0.8178
25.5967 16.7725 2.6774 0.8844
5.2584 5.6526 0.6754 0.9695
3.1530 5.6656 0.5673 0.9743
2.3119 5.6708 0.5358 0.9757
-1.2522 5.6927 0.5100 0.9769
-2.8107 5.7022 0.5562 0.9748
-3.7290 5.7079 0.5965 0.9730
-7.0011 2.8654 0.6618 0.9701
-21.1763 5.8096 1.9211 0.9156
-75.9595 -37.3123 7.4041 0.7119
-26.7503 -36.5886 3.9654 0.8336
-10.5619 -18.8566 1.8909 0.9169
-15.0576 -36.6470 3.4663 0.8529
-11.9790 -43.4304 3.9415 0.8345
12.3247 -56.7724 5.0826 0.7919
29.3074 -45.1308 4.7079 0.8057
47.1853 -44.2581 5.6599 0.7712
45.8654 -33.6293 4.9758 0.7958
54.0939 -22.3130 5.1194 0.7906
54.1388 -15.0125 4.9153 0.7980
49.8994 10.7610 4.4660 0.8147
48.0727 16.6341 4.4505 0.8153
34.6550 16.9051 3.3734 0.8566
24.8347 20.7192 2.8296 0.8782
5.3163 5.6523 0.6789 0.9693
3.1937 5.6653 0.5690 0.9742
2.3481 5.6705 0.5370 0.9757
0.8651 5.6796 0.5026 0.9772
0.1730 5.6839 0.4975 0.9774
-0.5151 5.6881 0.4997 0.9773
-1.2194 5.6925 0.5093 0.9769
-3.6842 5.7076 0.5943 0.9731
-6.0672 5.7223 0.7297 0.9671
-20.7398 5.8124 1.8844 0.9171
-34.4305 -36.4060 4.3839 0.8177
-27.0583 -36.5867 3.9812 0.8330
-20.6901 -36.4681 3.6683 0.8451
-15.2926 -36.6456 3.4740 0.8526
-12.2354 -43.4288 3.9474 0.8343
-12.9027 -83.1793 7.3643 0.7132
12.2976 -58.1861 5.2031 0.7876
15.1446 -44.3580 4.1008 0.8284
21.7634 -45.0845 4.3799 0.8179
29.0797 -45.3227 4.7112 0.8056
47.0009 -44.5730 5.6671 0.7710
54.1789 -8.4803 4.7978 0.8024
54.2196 -1.8735 4.7464 0.8043
48.9248 16.6289 4.5209 0.8126
34.7504 16.7162 3.3736 0.8566
5.3747 5.6519 0.6824 0.9692
3.2347 5.6651 0.5707 0.9741
2.3846 5.6703 0.5382 0.9756
0.8970 5.6795 0.5030 0.9772
-0.4836 5.6879 0.4994 0.9773
-1.1868 5.6923 0.5087 0.9769
-6.0005 5.7219 0.7254 0.9673
-7.6843 5.7322 0.8387 0.9622
-75.7211 -36.1689 7.3417 0.7139
-20.7223 -36.0623 3.6388 0.8462
-12.4926 -43.4272 3.9535 0.8341
21.5234 -45.2194 4.3815 0.8178
49.6087 -37.2184 5.4259 0.7796
49.6574 -28.6255 5.0146 0.7944
54.0896 -23.0092 5.1426 0.7898
54.0423 -15.6266 4.9218 0.7978
54.1770 -8.7849 4.8018 0.8022
54.2177 -2.1714 4.7472 0.8042
54.2581 4.3879 4.7625 0.8037
51.9397 10.6055 4.6379 0.8083
16.6061 5.5427 1.5316 0.9321
34.8089 16.5097 3.3706 0.8567
4.2576 5.6588 0.6196 0.9720
3.2759 5.6648 0.5725 0.9741
2.4212 5.6701 0.5394 0.9755
17.9965 61.9198 5.6414 0.7719
-1.1541 5.6921 0.5081 0.9769
-7.5963 5.7317 0.8325 0.9625
-19.8786 5.8071 1.8118 0.9202
-77.9902 -36.7285 7.5420 0.7074
-20.7195 -35.6032 3.6039 0.8476
-15.7660 -36.6427 3.4900 0.8520
-12.7506 -43.4256 3.9596 0.8338
11.2714 -56.3838 5.0305 0.7938
14.5988 -44.3458 4.0846 0.8291
28.2583 -45.1246 4.6581 0.8075
36.5469 -45.1753 5.0837 0.7919
46.6652 -45.2377 5.6862 0.7703
49.6552 -28.9884 5.0304 0.7938
54.1752 -9.0900 4.8060 0.8021
54.1634 4.0812 4.7521 0.8040
53.3893 10.5966 4.7621 0.8037
17.0296 5.5803 1.5679 0.9306
34.8075 16.2754 3.3617 0.8570
26.8528 16.7647 2.7696 0.8806
24.8305 20.0316 2.7912 0.8798
6.4803 6.6665 0.8134 0.9634
1.6763 5.6516 0.5157 0.9766
0.9609 5.6791 0.5039 0.9771
-0.4207 5.6876 0.4990 0.9774
-1.8580 5.6964 0.5242 0.9762
-2.6563 5.7013 0.5503 0.9751
-3.5520 5.7068 0.5881 0.9734
-9.7792 5.7451 0.9923 0.9555
-60.2958 -27.9920 5.8159 0.7657
-27.8128 -36.3396 4.0036 0.8321
-20.7167 -35.1532 3.5699 0.8489
-16.0043 -36.6412 3.4981 0.8517
11.1708 -57.5210 5.1265 0.7904
-24.3896 5.8349 1.3143 0.9044
-31.5373 -0.2091 1.6529 0.8813
-30.2311 -34.5315 2.4052 0.8321
-14.1844 -27.4031 1.6171 0.8837
-11.9349 -49.5867 2.6729 0.8152
-10.6964 -92.2220 4.8655 0.6894
24.1889 -34.6917 2.2164 0.8442
24.3575 -27.2392 1.9150 0.8638
31.0749 -27.2805 2.1671 0.8474
50.0754 -34.2394 3.1792 0.7843
42.4759 -22.0603 2.5084 0.8255
59.1387 -22.1446 3.3095 0.7765
58.9896 0.2291 3.0915 0.7896
42.1415 5.2785 2.2258 0.8436
24.8133 17.2506 1.5838 0.8860
24.4238 21.7797 1.7150 0.8772
5.8720 6.6702 0.4657 0.9650
2.9530 5.6668 0.3349 0.9747
1.3827 5.6765 0.3062 0.9769
0.6747 5.6808 0.2998 0.9773
-0.0143 5.6851 0.2979 0.9775
-0.7047 5.6893 0.3004 0.9773
-1.4173 5.6937 0.3075 0.9768
-2.1754 5.6983 0.3197 0.9759
-3.0040 5.6947 0.3374 0.9745
-3.9528 5.7023 0.3636 0.9726
-5.0752 5.7071 0.4003 0.9699
-11.0024 5.7526 0.6507 0.9515
-23.7964 5.8312 1.2840 0.9065
-31.5842 -0.0360 1.6553 0.8812
-65.2263 -45.0813 4.1554 0.7279
-23.8472 -34.5705 2.2010 0.8452
-18.1275 -34.5549 2.0450 0.8553
-11.0850 -91.1956 4.8145 0.6921
14.0918 -57.2822 3.0915 0.7896
24.2337 -27.4020 1.9171 0.8637
30.7307 -27.2783 2.1535 0.8482
50.0729 -34.6426 3.1910 0.7836
42.3006 -22.2650 2.5052 0.8257
59.0390 -7.2585 3.1174 0.7880
58.9917 -0.0948 3.0916 0.7896
42.3246 5.0657 2.2340 0.8430
22.6766 5.5456 1.2235 0.9107
42.8750 16.1661 2.4014 0.8323
24.8120 17.0485 1.5777 0.8864
24.6935 21.7781 1.7255 0.8764
3.9279 5.6608 0.3611 0.9728
2.9925 5.6666 0.3358 0.9747
2.1683 5.6717 0.3182 0.9760
1.4157 5.6763 0.3066 0.9768
0.0169 5.6849 0.2979 0.9775
-2.1396 5.6981 0.3190 0.9759
-2.9640 5.6944 0.3364 0.9746
-6.4119 5.7231 0.4504 0.9662
-8.2419 5.7356 0.5262 0.9606
-10.8551 5.7517 0.6438 0.9520
-48.1579 -11.6372 2.5965 0.8200
-13.3304 -34.5842 1.9425 0.8620
-11.0811 -87.1669 4.6050 0.7033
13.0397 -54.2879 2.9260 0.7996
24.2318 -27.7048 1.9290 0.8629
30.3906 -27.2763 2.1401 0.8491
50.0704 -35.0487 3.2031 0.7829
42.1731 -22.4943 2.5049 0.8258
59.0906 -14.9968 3.1950 0.7833
59.0411 -7.5879 3.1197 0.7879
42.4511 4.8446 2.2392 0.8427
43.5865 16.1617 2.4362 0.8301
33.4264 17.2243 1.9707 0.8602
24.8108 16.8480 1.5717 0.8868
3.9739 5.6605 0.3625 0.9727
3.0323 5.6663 0.3368 0.9746
1.4488 5.6761 0.3070 0.9768
0.7380 5.6804 0.3002 0.9773
-0.6413 5.6889 0.3000 0.9773
-1.3510 5.6933 0.3067 0.9768
-2.1039 5.6979 0.3183 0.9760
-2.9242 5.6941 0.3355 0.9747
-3.8603 5.7016 0.3609 0.9728
-4.9630 5.7059 0.3963 0.9702
-6.3281 5.7110 0.4467 0.9664
-8.1454 5.7350 0.5221 0.9609
-48.2499 -11.3796 2.5980 0.8199
-31.2448 -34.5253 2.4403 0.8298
-18.6180 -34.5624 2.0574 0.8545
-13.5483 -34.5829 1.9465 0.8618
-11.9138 -46.1455 2.4977 0.8262
30.3801 -45.1373 2.8514 0.8042
24.2299 -28.0114 1.9410 0.8621
59.1463 -23.2650 3.3309 0.7752
59.0929 -15.3431 3.1996 0.7831
59.0433 -7.9179 3.1220 0.7877
58.9959 -0.7424 3.0921 0.7895
23.7770 5.5388 1.2795 0.9068
33.8764 17.2215 1.9916 0.8588
24.9992 16.7761 1.5778 0.8864
24.8390 21.4263 1.7192 0.8769
6.0687 6.6690 0.4726 0.9645
4.0203 5.6603 0.3639 0.9726
0.7697 5.6802 0.3004 0.9773
-0.6097 5.6887 0.2998 0.9773
-2.0683 5.6977 0.3177 0.9760
-3.8145 5.7012 0.3595 0.9729
-23.4459 21.3944 1.6634 0.8806
-10.5697 5.7499 0.6306 0.9529
-22.0580 5.7919 1.1952 0.9127
-31.5892 -34.5232 2.4524 0.8291
-20.1875 -28.2580 1.8200 0.8701
-18.8628 -34.5609 2.0635 0.8541
-11.8716 -44.9610 2.4371 0.8301
30.0198 -45.1350 2.8408 0.8048
46.7754 -33.5133 3.0157 0.7941
42.6553 -23.3566 2.5487 0.8230
59.0455 -8.2484 3.1245 0.7876
58.9981 -1.0663 3.0925 0.7895
42.7059 4.3994 2.2500 0.8420
24.2204 5.5021 1.3017 0.9053
46.4455 16.6442 2.5857 0.8207
34.3360 17.2187 2.0131 0.8574
25.2955 16.7743 1.5907 0.8855
4.0670 5.6600 0.3653 0.9725
3.1125 5.6658 0.3388 0.9744
1.5060 5.6409 0.3060 0.9769
0.1106 5.6843 0.2980 0.9775
-0.5781 5.6885 0.2997 0.9774
-2.8454 5.6935 0.3336 0.9748
-3.7691 5.7008 0.3582 0.9730
-7.9567 5.7339 0.5140 0.9615
-10.4313 5.7491 0.6242 0.9534
-7.0120 2.8251 0.3962 0.9702
-21.6730 5.8182 1.1761 0.9140
-73.7413 -36.7264 4.3174 0.7189
-31.9371 -34.5210 2.4647 0.8283
-24.9546 -34.5287 2.2326 0.8431
-12.5417 -87.1580 4.6148 0.7028
15.6150 -44.1450 2.4540 0.8290
22.1630 -44.6534 2.6126 0.8190
29.6622 -45.1329 2.8304 0.8055
24.2261 -28.6366 1.9658 0.8605
29.3952 -27.2701 2.1014 0.8516
42.9589 -23.8302 2.5746 0.8214
59.0976 -16.0388 3.2092 0.7825
47.2467 16.6392 2.6252 0.8182
25.5967 16.7724 1.6038 0.8846
24.8361 20.9526 1.7029 0.8780
2.3119 5.6708 0.3209 0.9758
1.5465 5.6675 0.3079 0.9767
-0.5466 5.6883 0.2995 0.9774
-2.8063 5.6932 0.3326 0.9749
-3.7241 5.7005 0.3569 0.9731
-4.7988 5.7041 0.3907 0.9706
-7.0010 2.8654 0.3964 0.9702
-21.1969 5.8153 1.1519 0.9157
-9.8211 -65.6914 3.4810 0.7664
12.4765 -57.4712 3.0821 0.7901
15.7371 -45.2791 2.5122 0.8253
21.9864 -44.9150 2.6208 0.8185
29.3074 -45.1307 2.8201 0.8061
24.2241 -28.9551 1.9785 0.8597
49.7615 -27.9620 2.9914 0.7956
59.1540 -24.4002 3.3535 0.7739
59.0499 -8.9110 3.1297 0.7873
59.0023 -1.7146 3.0935 0.7894
48.4566 4.4548 2.5502 0.8229
48.0727 16.6341 2.6659 0.8157
34.6550 16.9051 2.0208 0.8569
2.3481 5.6705 0.3217 0.9757
17.5413 62.9226 3.4234 0.7698
0.8651 5.6796 0.3011 0.9773
-1.2194 5.6925 0.3051 0.9770
-1.9625 5.6970 0.3158 0.9762
-3.6794 5.7001 0.3556 0.9732
-4.7451 5.7035 0.3888 0.9707
-6.0628 5.7181 0.4368 0.9672
-20.7398 5.8124 1.1288 0.9173
-32.6438 -34.5167 2.4898 0.8267
-25.5594 -34.5600 2.2527 0.8418
-17.7240 -31.2400 1.8824 0.8660
-14.4296 -34.5775 1.9636 0.8606
-10.1849 -65.6585 3.4822 0.7663
16.0826 -47.1052 2.6086 0.8192
24.2222 -29.2777 1.9914 0.8588
28.7514 -27.2662 2.0766 0.8532
49.6597 -28.2645 2.9946 0.7954
59.1566 -24.7821 3.3613 0.7734
59.1023 -16.7388 3.2192 0.7819
59.0522 -9.2431 3.1325 0.7871
59.0045 -2.0388 3.0941 0.7894
58.9577 5.0939 3.1014 0.7890
50.5986 10.6215 2.7096 0.8129
48.9248 16.6289 2.7081 0.8130
34.7504 16.7162 2.0209 0.8569
24.8332 20.4878 1.6872 0.8790
6.3403 6.6673 0.4822 0.9638
2.3846 5.6703 0.3224 0.9757
17.9134 62.9203 3.4285 0.7695
0.2042 5.6837 0.2981 0.9775
-0.4836 5.6879 0.2992 0.9774
-1.1868 5.6923 0.3047 0.9770
-1.9276 5.6968 0.3152 0.9762
-2.7287 5.6926 0.3308 0.9750
-10.0325 5.7466 0.6059 0.9547
-19.8561 -34.5548 2.0886 0.8525
-11.8843 -41.3126 2.2529 0.8418
12.1576 -59.1269 3.1635 0.7852
21.4460 -45.0568 2.6152 0.8188
24.2202 -29.6046 2.0046 0.8580
28.4352 -27.2642 2.0646 0.8540
50.1059 -28.8840 3.0310 0.7932
59.1046 -17.0904 3.2244 0.7816
53.7508 10.9754 2.8751 0.8027
16.6061 5.5427 0.9175 0.9323
26.5307 16.7667 1.6448 0.8819
24.8318 20.2586 1.6795 0.8795
5.0225 6.6754 0.4378 0.9671
3.2759 5.6648 0.3429 0.9741
-1.1541 5.6921 0.3044 0.9770
-1.8927 5.6966 0.3146 0.9762
-3.5909 5.6994 0.3530 0.9734
-5.9294 5.7166 0.4316 0.9675
-7.5963 5.7317 0.4987 0.9626
-13.4559 5.7677 0.7672 0.9430
-35.7375 5.8956 1.8982 0.8650
-20.1085 -34.5533 2.0952 0.8520
11.8255 -59.1557 3.1616 0.7853
21.1499 -45.0705 2.6092 0.8192
28.1226 -27.2623 2.0527 0.8548
49.5295 -21.3914 2.8275 0.8057
59.0566 -9.9091 3.1383 0.7867
53.8991 10.6978 2.8798 0.8024
17.0296 5.5803 0.9392 0.9307
24.8304 20.0315 1.6720 0.8800
6.4803 6.6665 0.4872 0.9634
5.0798 6.6751 0.4396 0.9670
3.3174 5.6646 0.3440 0.9740
2.4580 5.6699 0.3239 0.9756
1.6763 5.6516 0.3089 0.9767
0.2667 5.6833 0.2982 0.9775
-0.4207 5.6876 0.2989 0.9774
-1.8580 5.6964 0.3140 0.9763
-2.6520 5.6920 0.3291 0.9752
-7.5095 5.7311 0.4951 0.9629
-34.5661 5.8974 1.8377 0.8690
-26.4466 -34.5545 2.2805 0.8401
-20.3622 -34.5517 2.1018 0.8516
-15.1011 -34.5734 1.9772 0.8597
-13.8283 -80.3856 4.2747 0.7213
16.9794 -87.4309 4.6677 0.6999
-11.1202 5.7367 0.2184 0.9512
-15.5675 5.7806 0.2899 0.9357
-31.5444 -0.2091 0.5506 0.8814
-65.6537 -16.6298 1.1822 0.7627
-29.8872 -34.1386 0.7920 0.8340
-26.1079 -38.2957 0.8090 0.8308
-14.1844 -27.4031 0.5383 0.8839
21.8299 -86.6829 1.5603 0.6993
24.1889 -34.6917 0.7382 0.8443
24.3575 -27.2392 0.6378 0.8640
73.8877 -27.6675 1.3772 0.7293
24.4706 9.3804 0.4574 0.9005
24.8133 17.2506 0.5275 0.8861
25.3463 22.6023 0.5928 0.8730
5.2281 5.9388 0.1381 0.9688
3.8822 5.6611 0.1198 0.9729
2.9530 5.6668 0.1115 0.9748
2.1327 5.6719 0.1058 0.9760
1.3827 5.6765 0.1020 0.9769
-0.7047 5.6893 0.1001 0.9773
-2.1754 5.6983 0.1065 0.9759
-2.9961 5.6797 0.1121 0.9746
-6.4851 5.7248 0.1510 0.9660
-10.9699 5.7356 0.2161 0.9517
-31.6136 -0.0360 0.5518 0.8812
-30.2180 -34.1366 0.7958 0.8333
-26.4157 -38.2938 0.8120 0.8302
-17.9165 -34.1526 0.6732 0.8570
-13.8429 -36.5100 0.6815 0.8554
-12.4715 -50.5940 0.9096 0.8118
20.0494 -52.9538 0.9883 0.7973
24.1864 -35.0971 0.7440 0.8432
30.7307 -27.2783 0.7172 0.8484
39.5065 -27.3323 0.8385 0.8252
40.2836 4.8214 0.7082 0.8502
22.6766 5.5456 0.4075 0.9108
24.4861 9.2325 0.4568 0.9006
24.5118 12.8015 0.4827 0.8953
24.8120 17.0485 0.5255 0.8865
2.9925 5.6666 0.1119 0.9747
2.1683 5.6717 0.1060 0.9760
0.0169 5.6849 0.0992 0.9775
-0.6730 5.6891 0.1000 0.9773
-2.1396 5.6981 0.1062 0.9759
-4.9871 5.6704 0.1318 0.9702
-8.2419 5.7356 0.1753 0.9606
-23.2163 5.8243 0.4178 0.9087
-67.0950 -45.8308 1.4183 0.7225
-19.7938 -28.3600 0.6037 0.8708
-18.1554 -34.1511 0.6751 0.8566
-14.0721 -36.5086 0.6830 0.8551
-12.7660 -50.5922 0.9108 0.8116
-11.0811 -87.1670 1.5337 0.7036
20.0441 -53.8301 1.0026 0.7947
24.1839 -35.5090 0.7499 0.8421
30.3906 -27.2763 0.7128 0.8493
39.0427 -27.3294 0.8319 0.8264
40.3285 -21.5104 0.7978 0.8329
40.3994 4.6104 0.7097 0.8499
23.2145 5.5423 0.4166 0.9089
24.5093 12.6294 0.4813 0.8956
24.8108 16.8479 0.5235 0.8869
3.0323 5.6663 0.1122 0.9746
1.4488 5.6761 0.1023 0.9768
0.7380 5.6804 0.1000 0.9773
-0.6413 5.6889 0.0999 0.9774
-2.1039 5.6979 0.1060 0.9760
-3.8493 5.6854 0.1198 0.9729
-4.9318 5.6700 0.1312 0.9704
-6.3281 5.7110 0.1488 0.9665
-7.1115 2.7748 0.1332 0.9699
-22.6726 5.8204 0.4086 0.9106
-48.2283 -11.3745 0.8649 0.8202
-73.4152 -37.5756 1.4396 0.7190
-30.8893 -34.1325 0.8035 0.8318
-19.9487 -28.2504 0.6037 0.8708
-14.3022 -36.5072 0.6844 0.8548
-13.0614 -50.5904 0.9120 0.8114
-11.5672 -87.1640 1.5348 0.7034
21.3905 -91.2578 1.6361 0.6873
20.0385 -54.7320 1.0174 0.7920
21.4748 -42.1000 0.8249 0.8277
24.2299 -28.0114 0.6465 0.8623
82.5534 -21.4344 1.4887 0.7109
23.7770 5.5388 0.4261 0.9069
24.4861 8.9268 0.4549 0.9010
24.5069 12.4584 0.4799 0.8958
24.9993 16.7761 0.5255 0.8865
24.8390 21.4263 0.5726 0.8770
4.0203 5.6603 0.1212 0.9726
2.2397 5.6712 0.1064 0.9759
0.7697 5.6802 0.1001 0.9773
-1.3180 5.6931 0.1020 0.9769
-2.0683 5.6977 0.1058 0.9760
-2.8771 5.6789 0.1111 0.9749
-4.8770 5.6696 0.1305 0.9705
-23.4459 21.3944 0.5540 0.8808
-8.0503 5.7344 0.1725 0.9612
-7.0410 2.7919 0.1322 0.9702
-67.4079 -15.5076 1.2073 0.7583
-73.6293 -37.1766 1.4397 0.7189
-27.3530 -38.2881 0.8213 0.8284
-18.6375 -34.1482 0.6791 0.8559
-11.8716 -44.9611 0.8117 0.8302
21.3767 -93.5064 1.6743 0.6813
20.0328 -55.6607 1.0326 0.7893
21.1831 -42.0973 0.8226 0.8282
29.7231 -27.2722 0.7041 0.8510
69.1481 -27.6383 1.2998 0.7424
43.5127 4.4825 0.7635 0.8395
24.2204 5.5021 0.4335 0.9054
24.8376 21.1883 0.5699 0.8776
4.0670 5.6600 0.1217 0.9725
2.2757 5.6710 0.1067 0.9759
1.5060 5.6409 0.1019 0.9769
-0.5781 5.6885 0.0998 0.9774
-2.0329 5.6975 0.1056 0.9761
-3.7585 5.6848 0.1190 0.9731
-4.8228 5.6691 0.1299 0.9707
-10.4178 5.7417 0.2076 0.9535
-7.0120 2.8250 0.1320 0.9702
-21.6730 5.8182 0.3917 0.9141
-14.7653 -36.5043 0.6873 0.8542
-12.4335 -86.4054 1.5237 0.7052
21.3622 -95.8616 1.7143 0.6751
16.5198 -46.7030 0.8647 0.8202
24.2261 -28.6366 0.6547 0.8607
37.6865 -27.3156 0.8124 0.8301
80.4104 -21.8231 1.4543 0.7165
49.9012 11.0483 0.8921 0.8151
25.7480 16.8716 0.5373 0.8841
24.9065 21.0119 0.5688 0.8778
5.3568 5.7584 0.1373 0.9690
3.1530 5.6656 0.1132 0.9744
2.3119 5.6708 0.1069 0.9758
0.1417 5.6841 0.0992 0.9775
-1.2522 5.6927 0.1017 0.9770
-1.9977 5.6973 0.1054 0.9761
-3.7137 5.6845 0.1185 0.9732
-4.7690 5.6687 0.1293 0.9708
-7.8646 5.7333 0.1699 0.9618
-21.1969 5.8153 0.3837 0.9158
-11.4915 -41.6631 0.7544 0.8412
-12.3152 -82.3743 1.4538 0.7166
16.1862 -46.5712 0.8606 0.8210
24.1733 -37.2247 0.7747 0.8373
29.0716 -27.2682 0.6957 0.8526
37.2421 -27.3066 0.8061 0.8313
24.9050 20.7778 0.5661 0.8783
5.3825 5.7227 0.1371 0.9691
2.3481 5.6705 0.1071 0.9757
17.2630 61.9244 1.1221 0.7732
0.8651 5.6796 0.1003 0.9773
-1.9625 5.6970 0.1052 0.9762
-4.7158 5.6683 0.1287 0.9709
-6.0208 5.6785 0.1445 0.9674
-10.0944 5.7087 0.2024 0.9547
-7.0153 2.9163 0.1326 0.9701
-20.7398 5.8124 0.3760 0.9174
-72.5540 -35.1466 1.4072 0.7243
-32.3472 -34.2031 0.8217 0.8283
-14.2616 -34.1750 0.6464 0.8623
-11.4860 -40.7690 0.7393 0.8441
21.7635 -45.0846 0.8738 0.8185
80.5873 6.9626 1.4119 0.7235
50.5628 10.6140 0.9018 0.8133
24.4973 11.7841 0.4745 0.8970
26.3690 16.8678 0.5464 0.8823
3.2347 5.6651 0.1139 0.9742
17.6292 61.9221 1.1238 0.7729
0.8970 5.6795 0.1004 0.9773
-1.1868 5.6923 0.1015 0.9770
-4.6644 5.6696 0.1281 0.9711
-5.9544 5.6779 0.1436 0.9676
-13.5976 5.7403 0.2576 0.9427
-20.3007 5.8097 0.3686 0.9190
-72.8634 -34.8040 1.4095 0.7239
-75.9071 -62.2752 1.7138 0.6752
-32.7027 -34.2011 0.8260 0.8275
-19.6190 -34.1422 0.6873 0.8542
-11.4808 -39.9098 0.7249 0.8469
21.6453 -45.4756 0.8791 0.8175
24.1606 -38.1146 0.7877 0.8348
28.4352 -27.2642 0.6876 0.8542
36.3878 -27.2996 0.7940 0.8336
38.8447 -22.3924 0.7826 0.8358
80.4017 -23.2485 1.4609 0.7155
16.6061 5.5427 0.3056 0.9324
24.4950 11.6179 0.4732 0.8972
24.9022 20.3161 0.5610 0.8794
5.4137 5.6307 0.1363 0.9692
3.2759 5.6648 0.1142 0.9742
2.4212 5.6701 0.1076 0.9756
0.9289 5.6793 0.1004 0.9772
0.2354 5.6835 0.0993 0.9775
-1.1541 5.6921 0.1014 0.9770
-2.6873 5.6860 0.1098 0.9752
-4.6144 5.6719 0.1276 0.9712
-5.8888 5.6774 0.1428 0.9678
-7.5963 5.7317 0.1661 0.9626
-9.9046 5.7458 0.1999 0.9552
-13.3879 5.7385 0.2542 0.9434
-35.7942 5.9050 0.6332 0.8649
-73.1697 -34.4584 1.4117 0.7236
-33.0587 -34.1957 0.8302 0.8267
-27.8154 -36.7592 0.8046 0.8316
-14.7031 -34.1723 0.6493 0.8617
-11.4757 -39.0837 0.7110 0.8496
-11.0549 -66.4441 1.1757 0.7638
29.7703 -90.4315 1.6618 0.6833
21.4359 -45.6800 0.8808 0.8172
24.1513 -38.5663 0.7943 0.8336
24.2181 -29.9359 0.6721 0.8572
35.9790 -27.3027 0.7884 0.8347
38.4391 -22.4405 0.7769 0.8369
80.3987 -23.7266 1.4632 0.7151
16.9667 5.5597 0.3116 0.9311
3.3174 5.6646 0.1146 0.9741
1.6763 5.6516 0.1029 0.9767
0.9609 5.6791 0.1005 0.9772
0.2667 5.6833 0.0993 0.9775
-1.1216 5.6919 0.1013 0.9771
-1.8580 5.6964 0.1046 0.9763
-2.6500 5.6877 0.1095 0.9752
-5.8240 5.6769 0.1420 0.9680
-34.5661 5.8974 0.6121 0.8691
-31.6494 -25.3896 0.7082 0.8502
-14.9253 -34.1709 0.6509 0.8614
-11.0704 5.7110 -0.2174 0.9514
-15.5675 5.7806 -0.2899 0.9357
-24.0959 5.7646 -0.4325 0.9056
-31.5515 -0.2092 -0.5507 0.8814
-83.0263 -10.6312 -1.4611 0.7154
-65.6139 -16.6197 -1.1815 0.7628
-83.1102 -32.1209 -1.5553 0.7002
-68.4322 -36.4594 -1.3534 0.7333
-71.6746 -50.1217 -1.5266 0.7048
-12.4588 -24.0694 -0.4731 0.8972
-9.6717 -25.9371 -0.4832 0.8952
-8.0586 -33.4817 -0.6011 0.8713
21.0431 -83.5588 -1.5041 0.7084
15.2373 -39.5867 -0.7404 0.8439
24.3575 -27.2392 -0.6378 0.8640
31.0749 -27.2805 -0.7218 0.8475
40.9983 -21.2929 -0.8064 0.8313
73.9537 -27.6922 -1.3784 0.7291
42.1008 5.2734 -0.7406 0.8439
22.1616 5.5488 -0.3988 0.9127
24.4706 9.3804 -0.4574 0.9005
3.8822 5.6611 -0.1198 0.9729
2.9530 5.6668 -0.1115 0.9748
2.1327 5.6719 -0.1058 0.9760
1.3827 5.6765 -0.1020 0.9769
0.6747 5.6808 -0.0999 0.9774
-0.0143 5.6851 -0.0992 0.9775
-2.1754 5.6983 -0.1065 0.9759
-2.9919 5.6717 -0.1119 0.9747
-3.9303 5.6699 -0.1204 0.9728
-5.0118 5.6358 -0.1316 0.9703
-8.3401 5.7362 -0.1767 0.9603
-10.9350 5.7174 -0.2154 0.9518
-15.3053 5.7790 -0.2856 0.9366
-23.5475 5.7702 -0.4232 0.9076
-31.6431 -0.0360 -0.5523 0.8811
-66.1275 -16.3641 -1.1891 0.7615
-20.0283 -22.6256 -0.5274 0.8861
-8.1056 -32.8826 -0.5911 0.8733
14.9878 -39.5851 -0.7388 0.8442
21.9508 -41.8904 -0.8255 0.8276
24.1864 -35.0971 -0.7440 0.8432
30.7307 -27.2783 -0.7172 0.8484
39.5065 -27.3323 -0.8385 0.8252
87.2140 -21.6254 -1.5684 0.6980
66.7888 -0.1073 -1.1658 0.7655
22.6766 5.5456 -0.4075 0.9108
25.3448 22.3524 -0.5899 0.8735
5.2539 5.9025 -0.1379 0.9689
3.9279 5.6608 -0.1203 0.9728
0.0169 5.6849 -0.0992 0.9775
-3.8842 5.6696 -0.1200 0.9729
-4.9589 5.6383 -0.1311 0.9704
-6.4133 5.7244 -0.1501 0.9662
-8.2419 5.7356 -0.1753 0.9606
-23.0232 5.7759 -0.4143 0.9094
-66.0637 -7.7231 -1.1610 0.7664
-48.2241 -11.6532 -0.8660 0.8200
-67.9680 -35.2596 -1.3365 0.7361
-67.1101 -45.8412 -1.4186 0.7224
-20.2467 -22.6208 -0.5299 0.8856
-15.6082 -22.3631 -0.4760 0.8966
-19.3913 -36.4760 -0.7211 0.8477
-9.8904 -25.6595 -0.4800 0.8958
-8.1601 -64.1898 -1.1294 0.7719
21.6883 -90.2950 -1.6209 0.6897
21.6571 -41.8877 -0.8231 0.8281
24.1839 -35.5090 -0.7499 0.8421
24.2318 -27.7048 -0.6425 0.8631
30.3906 -27.2763 -0.7128 0.8493
41.9310 -22.3652 -0.8295 0.8269
72.4915 -28.0559 -1.3568 0.7327
87.2109 -22.1336 -1.5705 0.6977
39.6453 4.5244 -0.6965 0.8525
23.2145 5.5423 -0.4166 0.9089
44.9130 16.6536 -0.8361 0.8256
5.2797 5.8664 -0.1378 0.9689
3.0323 5.6663 -0.1122 0.9746
1.4488 5.6761 -0.1023 0.9768
0.7380 5.6804 -0.1000 0.9773
0.0481 5.6847 -0.0992 0.9775
-0.6413 5.6889 -0.0999 0.9774
-1.3510 5.6933 -0.1021 0.9769
-2.1039 5.6979 -0.1060 0.9760
-4.9065 5.6408 -0.1305 0.9705
-6.3281 5.7110 -0.1488 0.9665
-8.1454 5.7350 -0.1739 0.9609
-22.5804 5.7967 -0.4069 0.9110
-64.7247 0.6368 -1.1298 0.7719
-48.2067 -11.3694 -0.8645 0.8202
-68.0164 -34.8122 -1.3337 0.7366
-71.4731 -48.2483 -1.5052 0.7082
-15.7241 -22.2676 -0.4758 0.8967
-12.8817 -23.9135 -0.4741 0.8970
14.5012 -39.6075 -0.7362 0.8447
21.3652 -41.8850 -0.8207 0.8285
24.2299 -28.0114 -0.6465 0.8623
39.4865 -21.3405 -0.7835 0.8356
87.2078 -22.6429 -1.5727 0.6974
23.7770 5.5388 -0.4261 0.9069
33.8764 17.2215 -0.6633 0.8590
24.9993 16.7761 -0.5255 0.8865
3.0723 5.6661 -0.1125 0.9745
2.2397 5.6712 -0.1064 0.9759
0.7697 5.6802 -0.1001 0.9773
0.0793 5.6845 -0.0992 0.9775
-0.6097 5.6887 -0.0999 0.9774
-4.8545 5.6433 -0.1299 0.9707
-23.4459 21.3943 -0.5540 0.8808
-8.0503 5.7344 -0.1725 0.9612
-22.0580 5.7919 -0.3981 0.9128
-48.4232 -11.1401 -0.8673 0.8197
-67.6017 -34.1332 -1.3219 0.7386
-71.3519 -47.5983 -1.4971 0.7095
-20.6828 -22.6038 -0.5348 0.8846
-15.8733 -22.2191 -0.4766 0.8965
-12.9575 -23.7411 -0.4721 0.8974
24.1787 -36.3529 -0.7621 0.8397
16.8950 -19.7498 -0.4537 0.9012
41.8723 -22.9279 -0.8333 0.8261
69.1482 -27.6384 -1.2998 0.7424
46.4455 16.6442 -0.8612 0.8209
34.3360 17.2187 -0.6705 0.8576
25.2956 16.7743 -0.5298 0.8857
5.3311 5.7943 -0.1374 0.9690
3.1125 5.6658 -0.1128 0.9745
1.5060 5.6409 -0.1019 0.9769
0.1106 5.6843 -0.0992 0.9775
-2.0329 5.6975 -0.1056 0.9761
-4.8029 5.6458 -0.1294 0.9708
-6.1131 5.6400 -0.1452 0.9673
-64.6720 9.2156 -1.1403 0.7700
-64.7203 1.3477 -1.1299 0.7718
-74.1822 -7.4363 -1.3013 0.7421
-57.6000 -12.9188 -1.0304 0.7897
-83.1723 -29.5482 -1.5407 0.7025
-67.5420 -33.6389 -1.3171 0.7394
-71.2856 -46.9906 -1.4903 0.7107
-10.5621 -19.1021 -0.3810 0.9164
-10.1517 -25.0980 -0.4726 0.8973
-8.1272 -56.4792 -0.9960 0.7959
20.8335 -93.4893 -1.6719 0.6817
20.0270 -56.6180 -1.0483 0.7864
20.7436 -41.7936 -0.8144 0.8297
29.3952 -27.2701 -0.6999 0.8518
68.6699 -27.8854 -1.2937 0.7434
87.2015 -23.6661 -1.5772 0.6966
50.0013 11.0705 -0.8939 0.8147
47.2467 16.6392 -0.8743 0.8184
34.6113 17.1196 -0.6740 0.8569
25.5968 16.7725 -0.5342 0.8848
4.1141 5.6597 -0.1221 0.9724
3.1530 5.6656 -0.1132 0.9744
2.3119 5.6708 -0.1069 0.9758
1.5465 5.6675 -0.1025 0.9768
-0.5466 5.6883 -0.0997 0.9774
-2.8001 5.6807 -0.1105 0.9750
-3.7033 5.6686 -0.1182 0.9733
-64.9238 1.7081 -1.1336 0.7712
-77.2274 -7.3136 -1.3540 0.7332
-57.4520 -12.5548 -1.0265 0.7904
-83.1218 -29.0175 -1.5368 0.7031
-71.1446 -46.3395 -1.4820 0.7120
-21.3627 -22.8383 -0.5459 0.8824
-16.2321 -22.2021 -0.4801 0.8958
-10.3857 -25.2765 -0.4770 0.8964
-8.4214 -30.5322 -0.5528 0.8810
16.1894 -46.5805 -0.8608 0.8210
20.4572 -41.7910 -0.8122 0.8302
24.1733 -37.2247 -0.7747 0.8373
29.0716 -27.2682 -0.6957 0.8526
41.6181 -23.3861 -0.8333 0.8261
67.4927 -27.8399 -1.2744 0.7467
24.8347 20.7192 -0.5645 0.8786
3.1937 5.6653 -0.1135 0.9743
2.3481 5.6705 -0.1071 0.9757
0.8651 5.6796 -0.1003 0.9773
-1.9625 5.6970 -0.1052 0.9762
-2.7623 5.6825 -0.1103 0.9750
-3.6589 5.6684 -0.1178 0.9734
-4.7011 5.6507 -0.1283 0.9710
-5.9794 5.6394 -0.1435 0.9677
-10.0944 5.7087 -0.2024 0.9547
-20.7398 5.8124 -0.3760 0.9174
-64.9216 2.0650 -1.1338 0.7712
-67.1257 -32.5170 -1.3019 0.7420
-68.6217 -56.9312 -1.5564 0.7000
-21.5714 -22.8091 -0.5480 0.8820
-16.4119 -22.1913 -0.4818 0.8955
-10.4099 -24.9452 -0.4718 0.8975
20.3397 -96.2368 -1.7169 0.6747
20.2007 -41.8472 -0.8111 0.8304
24.1706 -37.6715 -0.7813 0.8361
28.7514 -27.2662 -0.6916 0.8534
50.5986 10.6215 -0.9024 0.8132
48.9248 16.6289 -0.9020 0.8132
25.2712 26.5747 -0.6401 0.8635
17.6292 61.9221 -1.1238 0.7729
0.2042 5.6837 -0.0993 0.9775
-1.9276 5.6968 -0.1050 0.9762
-4.6509 5.6531 -0.1278 0.9711
-7.6843 5.7322 -0.1673 0.9624
-10.0325 5.7466 -0.2018 0.9548
-57.1592 -11.8348 -1.0189 0.7917
-83.1090 -27.9935 -1.5307 0.7041
-66.8216 -31.9180 -1.2926 0.7436
-70.9016 -45.0806 -1.4666 0.7145
-68.5037 -56.2014 -1.5466 0.7015
-16.5676 -22.1464 -0.4828 0.8953
-13.5254 -23.5377 -0.4739 0.8971
-10.6778 -25.1971 -0.4777 0.8963
-8.5531 -29.7325 -0.5400 0.8836
-8.0145 -49.8588 -0.8815 0.8171
19.0285 -56.7504 -1.0448 0.7871
20.2414 -42.5262 -0.8221 0.8283
24.2202 -29.6046 -0.6676 0.8581
28.4352 -27.2642 -0.6876 0.8542
64.9106 -27.6123 -1.2313 0.7541
53.7508 10.9754 -0.9576 0.8029
16.6061 5.5427 -0.3056 0.9324
36.2786 17.2067 -0.7009 0.8516
26.5308 16.7667 -0.5478 0.8820
24.8319 20.2587 -0.5594 0.8797
5.4137 5.6307 -0.1363 0.9692
4.8583 6.4572 -0.1410 0.9682
3.2759 5.6648 -0.1142 0.9742
0.2354 5.6835 -0.0993 0.9775
-0.4521 5.6877 -0.0996 0.9774
-1.1541 5.6921 -0.1014 0.9770
-13.2268 5.6695 -0.2512 0.9441
-19.8786 5.8071 -0.3615 0.9205
-64.9172 2.7784 -1.1342 0.7711
-83.2762 -16.7662 -1.4828 0.7119
-22.0113 -22.7683 -0.5528 0.8810
-16.7316 -22.1117 -0.4840 0.8950
-13.6500 -23.4554 -0.4737 0.8971
-10.6797 -24.8211 -0.4717 0.8975
-8.0480 -48.3715 -0.8559 0.8219
18.9733 -57.6341 -1.0584 0.7845
24.1649 -38.5881 -0.7947 0.8335
63.9589 -27.6233 -1.2161 0.7568
53.8991 10.6978 -0.9592 0.8027
16.7171 5.4779 -0.3071 0.9320
36.7925 17.2036 -0.7089 0.8500
26.8529 16.7648 -0.5526 0.8810
25.3678 26.0966 -0.6353 0.8645
3.3174 5.6646 -0.1146 0.9741
1.6763 5.6516 -0.1029 0.9767
0.9609 5.6791 -0.1005 0.9772
-1.8580 5.6964 -0.1046 0.9763
-3.5276 5.6677 -0.1165 0.9736
-4.5516 5.6579 -0.1267 0.9714
-7.5095 5.7311 -0.1649 0.9629
-9.7792 5.7451 -0.1980 0.9556
-13.0302 5.6701 -0.2480 0.9447
-34.5661 5.8974 -0.6121 0.8691
-83.2914 -16.2941 -1.4814 0.7121
-70.8507 -43.9637 -1.4554 0.7164
-22.5461 -23.0669 -0.5630 0.8789
-16.8998 -22.0809 -0.4853 0.8947
-10.8799 -24.9090 -0.4745 0.8970
-7.9920 -46.4583 -0.8228 0.8281
-23.7405 5.6796 -1.2793 0.9069
-37.3105 4.2756 -1.9682 0.8603
-45.2784 -11.4688 -2.4479 0.8294
-44.5241 -17.2079 -2.5016 0.8260
-39.1179 -27.3550 -2.5016 0.8260
-33.3766 -29.9281 -2.3494 0.8356
-15.1634 -22.2422 -1.4108 0.8978
-9.5607 -25.6393 -1.4341 0.8962
0.2509 -47.7330 -2.5016 0.8260
5.9976 -47.3554 -2.5016 0.8260
11.6571 -46.2884 -2.5016 0.8260
16.1036 -41.8373 -2.3494 0.8356
21.2728 -30.5094 -1.9492 0.8616
24.3451 -27.2253 -1.9141 0.8639
37.0060 -25.3031 -2.3494 0.8356
31.0539 -16.1282 -1.8339 0.8692
47.4082 -5.5646 -2.5016 0.8260
22.1616 5.5488 -1.1973 0.9126
18.9831 7.2769 -1.0655 0.9218
19.0367 10.0754 -1.1288 0.9173
24.8435 22.1540 -1.7445 0.8752
3.8822 5.6611 -0.3597 0.9729
2.1327 5.6719 -0.3176 0.9760
0.6747 5.6808 -0.2998 0.9773
-1.4173 5.6937 -0.3075 0.9768
-2.1754 5.6983 -0.3197 0.9759
-6.4851 5.7248 -0.4534 0.9659
-10.9350 5.7174 -0.6467 0.9518
-35.0785 4.2150 -1.8516 0.8680
-42.2502 -22.2133 -2.5016 0.8260
-19.8636 -22.4395 -1.5706 0.8869
-15.2738 -22.1419 -1.4097 0.8979
-12.4159 -23.6674 -1.4007 0.8985
-9.6486 -25.4475 -1.4263 0.8967
11.4028 -46.3517 -2.5016 0.8260
20.8073 -39.7075 -2.3494 0.8356
24.0825 -34.9463 -2.2242 0.8437
28.6896 -25.4666 -2.0105 0.8576
36.8665 -25.5058 -2.3494 0.8356
47.3770 -5.8248 -2.5016 0.8260
47.7336 -0.0767 -2.5016 0.8260
40.2229 4.8142 -2.1230 0.8502
22.6766 5.5456 -1.2235 0.9107
19.1851 13.1822 -1.2199 0.9110
24.5403 21.6430 -1.7148 0.8772
5.2539 5.9025 -0.4141 0.9688
2.9925 5.6666 -0.3358 0.9747
2.1683 5.6717 -0.3182 0.9760
0.7063 5.6806 -0.3000 0.9773
0.0169 5.6849 -0.2979 0.9775
-0.6730 5.6891 -0.3002 0.9773
-1.3841 5.6935 -0.3071 0.9768
-2.9531 5.6735 -0.3352 0.9747
-22.8540 5.7335 -1.2348 0.9099
-45.0161 0.1958 -2.3592 0.8350
-44.5263 -5.2053 -2.3494 0.8356
-44.4640 -10.7445 -2.3973 0.8326
-42.3715 -21.9809 -2.5016 0.8260
-39.4158 -26.9239 -2.5016 0.8260
-15.4426 -22.1258 -1.4141 0.8976
-12.6386 -23.7738 -1.4111 0.8978
-9.7400 -25.2694 -1.4193 0.8972
-7.9277 -31.4179 -1.6981 0.8783
-5.6535 -44.4716 -2.3494 0.8356
11.1483 -46.4136 -2.5016 0.8260
15.1970 -40.8129 -2.2823 0.8399
24.0799 -35.3564 -2.2419 0.8425
24.2224 -27.6941 -1.9282 0.8630
30.2730 -27.1707 -2.1318 0.8496
36.7260 -25.7078 -2.3494 0.8356
31.2598 -16.6733 -1.8567 0.8677
39.0461 -15.1118 -2.1942 0.8456
47.3443 -6.0847 -2.5016 0.8260
47.7325 -0.3386 -2.5016 0.8260
39.6253 4.5221 -2.0901 0.8524
18.9790 7.0373 -1.0608 0.9221
19.2055 13.0417 -1.2167 0.9112
24.5389 21.4034 -1.7065 0.8777
5.2797 5.8664 -0.4136 0.9689
1.4488 5.6761 -0.3070 0.9768
0.0481 5.6847 -0.2979 0.9775
-0.6413 5.6889 -0.3000 0.9773
-1.3510 5.6933 -0.3067 0.9768
-2.1039 5.6979 -0.3183 0.9760
-2.9146 5.6753 -0.3344 0.9748
-4.8919 5.6241 -0.3906 0.9706
-10.6717 5.7298 -0.6348 0.9526
-22.4335 5.7590 -1.2138 0.9114
-32.5272 4.2712 -1.7193 0.8769
-45.0280 0.4430 -2.3599 0.8350
-44.0511 -10.3892 -2.3720 0.8342
-42.4915 -21.7481 -2.5016 0.8260
-39.5631 -26.7072 -2.5016 0.8260
-33.8648 -29.3745 -2.3494 0.8356
-15.6001 -22.0921 -1.4174 0.8973
-12.7052 -23.5859 -1.4040 0.8982
-0.5351 -47.7307 -2.5016 0.8260
5.2171 -47.4477 -2.5016 0.8260
14.9684 -40.8839 -2.2817 0.8400
24.0774 -35.7731 -2.2599 0.8414
29.9385 -27.1686 -2.1188 0.8505
47.3102 -6.3444 -2.5016 0.8260
44.5677 4.8385 -2.3494 0.8356
23.7770 5.5388 -1.2795 0.9068
19.3811 13.0060 -1.2232 0.9107
5.3055 5.8303 -0.4131 0.9689
3.0723 5.6661 -0.3378 0.9745
2.2397 5.6712 -0.3196 0.9759
0.0793 5.6845 -0.2979 0.9775
-0.6097 5.6887 -0.2998 0.9773
-23.1149 21.0923 -1.6399 0.8822
-8.0503 5.7344 -0.5180 0.9612
-10.5436 5.7358 -0.6290 0.9531
-7.0408 2.7918 -0.3969 0.9701
-32.3413 4.4275 -1.7107 0.8774
-44.8911 -16.2264 -2.5016 0.8260
-39.7091 -26.4896 -2.5016 0.8260
-34.0256 -29.1882 -2.3494 0.8356
-20.6966 -22.6188 -1.6068 0.8844
-15.6867 -21.9579 -1.4143 0.8975
-5.7415 -41.5157 -2.1965 0.8455
15.1813 -42.1808 -2.3494 0.8356
24.0748 -36.1967 -2.2783 0.8402
29.6081 -27.1666 -2.1059 0.8513
36.4415 -26.1094 -2.3494 0.8356
38.6952 -21.1882 -2.3120 0.8380
46.1352 -12.2494 -2.5016 0.8260
47.7259 -0.8626 -2.5016 0.8260
44.5935 4.5938 -2.3494 0.8356
24.2204 5.5021 -1.3017 0.9053
19.6107 13.0046 -1.2332 0.9101
5.3311 5.7943 -0.4126 0.9690
4.0670 5.6600 -0.3653 0.9725
3.1125 5.6658 -0.3388 0.9744
1.5060 5.6409 -0.3060 0.9769
-0.5781 5.6885 -0.2997 0.9774
-2.8381 5.6789 -0.3327 0.9749
-3.7375 5.6530 -0.3552 0.9732
-6.0708 5.6010 -0.4329 0.9675
-7.9567 5.7339 -0.5140 0.9615
-7.0118 2.8250 -0.3962 0.9702
-21.6730 5.8182 -1.1761 0.9140
-45.0474 0.9380 -2.3613 0.8349
-44.6060 -4.4714 -2.3494 0.8356
-43.7428 -9.8109 -2.3494 0.8356
-44.9795 -15.9796 -2.5016 0.8260
-42.7277 -21.2803 -2.5016 0.8260
-39.8539 -26.2712 -2.5016 0.8260
-34.1854 -29.0009 -2.3494 0.8356
-15.9016 -22.0025 -1.4227 0.8970
-10.5620 -19.1019 -1.1439 0.9163
-10.1263 -25.0351 -1.4153 0.8975
-8.2253 -30.4729 -1.6542 0.8812
-1.0592 -47.7219 -2.5016 0.8260
4.6959 -47.5021 -2.5016 0.8260
14.9495 -42.2635 -2.3494 0.8356
27.1521 -25.1892 -1.9410 0.8621
36.2977 -26.3090 -2.3494 0.8356
38.5784 -21.4003 -2.3120 0.8380
46.0673 -12.5025 -2.5016 0.8260
47.7204 -1.1247 -2.5016 0.8260
43.9039 9.7205 -2.3566 0.8352
19.2054 9.4995 -1.1229 0.9178
19.8443 13.0031 -1.2434 0.9093
4.1141 5.6597 -0.3667 0.9724
1.5465 5.6675 -0.3079 0.9767
0.1417 5.6841 -0.2980 0.9775
-0.5466 5.6883 -0.2995 0.9774
-1.2522 5.6927 -0.3055 0.9769
-1.9977 5.6973 -0.3164 0.9761
-3.6930 5.6529 -0.3539 0.9733
-4.7379 5.6318 -0.3857 0.9710
-6.0043 5.6009 -0.4303 0.9676
-7.8646 5.7333 -0.5101 0.9618
-7.0008 2.8653 -0.3964 0.9702
-32.3390 4.7895 -1.7133 0.8773
-44.6299 -4.2266 -2.3494 0.8356
