ply
format ascii 1.0
element vertex 1561
property float32 x
property float32 y
property float32 z
property float32 I
end_header
-0.9141 -47.7204 -2.5014 0.8260
10.5210 -46.5552 -2.5014 0.8260
15.0736 -42.2146 -2.3492 0.8356
25.0156 -29.3954 -2.0229 0.8568
27.8513 -25.6879 -1.9857 0.8592
38.9101 -21.4390 -2.3282 0.8370
38.4152 -15.4726 -2.1704 0.8471
46.0980 -12.3713 -2.5014 0.8260
47.2523 -6.7304 -2.5014 0.8260
44.6014 4.4717 -2.3492 0.8356
24.6715 5.5333 -1.3251 0.9037
19.6878 6.9939 -1.0950 0.9197
19.8279 9.8742 -1.1609 0.9151
17.7768 43.9297 -2.4836 0.8271
0.8185 5.6799 -0.3007 0.9773
0.1274 5.6842 -0.2980 0.9775
-0.5610 5.6884 -0.2996 0.9774
-2.0078 5.6813 -0.3158 0.9762
-2.8017 5.6489 -0.3305 0.9751
-3.7080 5.6458 -0.3540 0.9733
-4.7337 5.5993 -0.3843 0.9711
-6.1645 5.7229 -0.4408 0.9669
-7.9042 5.7336 -0.5117 0.9616
-21.2399 5.7742 -1.1535 0.9156
-31.6508 4.6133 -1.6763 0.8798
-43.7702 -9.6676 -2.3492 0.8356
-45.0273 -15.8309 -2.5014 0.8260
-21.0503 -22.6011 -1.6186 0.8836
-15.8349 -21.7553 -1.4102 0.8978
-12.9344 -23.2065 -1.3924 0.8991
-7.9614 -29.0983 -1.5810 0.8862
-6.5373 -44.3458 -2.3492 0.8356
-1.2244 -47.7135 -2.5014 0.8260
24.4854 -37.5467 -2.3492 0.8356
25.0124 -29.7815 -2.0382 0.8557
29.0694 -27.1633 -2.0851 0.8527
46.0167 -12.6706 -2.5014 0.8260
47.2075 -7.0375 -2.5014 0.8260
47.7115 -1.3019 -2.5014 0.8260
44.6296 4.1816 -2.3492 0.8356
19.6854 6.8492 -1.0923 0.9199
25.2264 21.1168 -1.7241 0.8765
5.7645 6.1489 -0.4417 0.9668
18.0585 43.8050 -2.4831 0.8271
1.5726 5.6753 -0.3086 0.9767
-0.5237 5.6882 -0.2994 0.9774
-1.2282 5.6925 -0.3052 0.9769
-2.7560 5.6487 -0.3294 0.9751
-4.6716 5.5992 -0.3822 0.9712
-6.0841 5.7224 -0.4377 0.9671
-10.1425 5.7180 -0.6102 0.9544
18.2309 5.2254 -1.6592 0.9267
4.6507 5.6564 -0.6407 0.9710
3.6091 5.6628 -0.5875 0.9734
2.7152 5.6683 -0.5499 0.9751
1.1823 5.6777 -0.5074 0.9770
0.4819 5.6820 -0.4989 0.9774
-0.8997 5.6905 -0.5040 0.9771
-2.3827 5.6637 -0.5376 0.9756
-4.1711 5.6066 -0.6114 0.9723
-5.2919 5.5640 -0.6718 0.9696
-8.9741 5.7401 -0.9320 0.9581
-8.7687 2.9804 -0.8103 0.9635
-26.3717 -11.0440 -2.5014 0.8915
-24.8500 -14.1392 -2.5014 0.8915
-22.9667 -17.0285 -2.5014 0.8915
-19.7719 -18.7437 -2.3836 0.8964
-11.4118 -23.6261 -2.2955 0.9000
-8.6823 -25.4088 -2.3492 0.8978
0.9391 -28.5755 -2.5014 0.8915
7.7435 -27.5223 -2.5014 0.8915
14.0988 -24.8730 -2.5014 0.8915
15.9573 -21.5952 -2.3492 0.8978
24.0351 -15.4839 -2.5014 0.8915
25.7247 -12.4771 -2.5014 0.8915
27.9617 -5.9652 -2.5014 0.8915
28.4765 -2.5549 -2.5014 0.8915
28.5770 0.8926 -2.5014 0.8915
26.5419 4.0639 -2.3492 0.8978
18.9074 5.2865 -1.7176 0.9242
13.5509 5.6232 -1.2836 0.9428
20.2252 11.4209 -2.0321 0.9110
20.3255 14.9681 -2.2084 0.9036
6.0716 5.7185 -0.7297 0.9671
2.7605 5.6680 -0.5516 0.9750
1.2209 5.6775 -0.5081 0.9770
-0.1684 5.6860 -0.4977 0.9774
-2.3403 5.6657 -0.5363 0.9757
-3.1702 5.6355 -0.5657 0.9744
-4.1168 5.6094 -0.6087 0.9724
-6.8513 5.7271 -0.7812 0.9648
-16.6709 5.7874 -1.5439 0.9316
-26.7359 2.4863 -2.3492 0.8978
-26.8407 -0.7511 -2.3492 0.8978
-24.9414 -13.9774 -2.5014 0.8915
-17.2545 -20.5736 -2.3492 0.8978
-11.5626 -23.5462 -2.2950 0.9000
-5.7302 -26.2327 -2.3492 0.8978
-2.6937 -28.4637 -2.5014 0.8915
4.1893 -28.2823 -2.5014 0.8915
10.8294 -26.4606 -2.5014 0.8915
13.9368 -24.9641 -2.5014 0.8915
15.8166 -21.6985 -2.3492 0.8978
18.3143 -19.6361 -2.3492 0.8978
20.7626 -17.4706 -2.3740 0.8968
23.9340 -15.6398 -2.5014 0.8915
28.4593 -2.7399 -2.5014 0.8915
28.5822 0.7069 -2.5014 0.8915
26.5678 3.8912 -2.3492 0.8978
19.4484 5.3017 -1.7636 0.9222
13.8029 5.6229 -1.3040 0.9419
3.7131 5.6622 -0.5924 0.9732
2.8061 5.6677 -0.5533 0.9749
2.0004 5.6727 -0.5262 0.9761
0.5563 5.6815 -0.4994 0.9773
-0.1314 5.6858 -0.4976 0.9774
-3.1221 5.6353 -0.5636 0.9745
-4.0629 5.6121 -0.6062 0.9726
-8.7198 5.7386 -0.9133 0.9590
-16.3214 5.7853 -1.5150 0.9328
-26.2169 5.8609 -2.3503 0.8977
-26.7192 2.6602 -2.3492 0.8978
-26.8451 -0.5766 -2.3492 0.8978
-28.3024 -4.0514 -2.5014 0.8915
-27.6086 -7.4299 -2.5014 0.8915
-26.5131 -10.7002 -2.5014 0.8915
-23.1861 -16.7285 -2.5014 0.8915
-20.5395 -18.9706 -2.4462 0.8938
-17.3879 -20.4610 -2.3492 0.8978
-11.7133 -23.4662 -2.2946 0.9000
-8.9324 -25.0707 -2.3285 0.8986
-5.9007 -26.1949 -2.3492 0.8978
4.0054 -28.3090 -2.5014 0.8915
7.3850 -27.6207 -2.5014 0.8915
10.6571 -26.5305 -2.5014 0.8915
13.7742 -25.0542 -2.5014 0.8915
23.8318 -15.7951 -2.5014 0.8915
25.5603 -12.8105 -2.5014 0.8915
21.0304 2.9407 -1.8578 0.9183
20.6336 5.4810 -1.8678 0.9178
20.2161 11.0716 -2.0166 0.9116
4.8376 5.6552 -0.6511 0.9706
2.8520 5.6675 -0.5551 0.9748
1.2982 5.6770 -0.5095 0.9769
-0.0944 5.6856 -0.4975 0.9774
-2.2561 5.6696 -0.5339 0.9758
-4.0095 5.6148 -0.6036 0.9727
-5.0893 5.5644 -0.6597 0.9702
-6.6718 5.7260 -0.7692 0.9653
-8.5965 5.7378 -0.9042 0.9593
-11.1838 5.6507 -1.0963 0.9509
-15.9849 5.7832 -1.4872 0.9340
-25.4016 5.8522 -2.2806 0.9006
-26.8482 -0.4021 -2.3492 0.8978
-28.3281 -3.8673 -2.5014 0.8915
-27.6563 -7.2503 -2.5014 0.8915
-9.7319 -19.1836 -1.8820 0.9173
-9.0472 -24.8802 -2.3162 0.8992
-3.0635 -28.4263 -2.5014 0.8915
3.8213 -28.3344 -2.5014 0.8915
7.2053 -27.6681 -2.5014 0.8915
13.6110 -25.1432 -2.5014 0.8915
15.5396 -21.9113 -2.3502 0.8978
18.0575 -19.8725 -2.3492 0.8978
27.8400 -6.5094 -2.5014 0.8915
28.4213 -3.1097 -2.5014 0.8915
21.0335 2.8019 -1.8564 0.9183
21.4665 5.5530 -1.9399 0.9148
14.3412 5.6258 -1.3478 0.9400
20.3071 14.3524 -2.1756 0.9050
20.2341 18.3261 -2.3884 0.8962
3.8189 5.6615 -0.5975 0.9730
2.0835 5.6722 -0.5287 0.9760
1.3370 5.6767 -0.5102 0.9769
0.6309 5.6811 -0.5001 0.9773
-0.0574 5.6853 -0.4974 0.9774
-3.9566 5.6175 -0.6011 0.9728
-5.0233 5.5645 -0.6559 0.9703
-6.5840 5.7254 -0.7634 0.9656
-8.4755 5.7371 -0.8954 0.9597
-11.0260 5.6613 -1.0844 0.9515
-15.6604 5.7812 -1.4605 0.9352
-23.1409 5.4900 -2.0808 0.9089
-26.6823 3.0073 -2.3492 0.8978
-26.8503 -0.2275 -2.3492 0.8978
-28.3527 -3.6831 -2.5014 0.8915
-26.6500 -10.3546 -2.5014 0.8915
-25.2092 -13.4883 -2.5014 0.8915
-23.4017 -16.4257 -2.5014 0.8915
-21.2043 -19.0797 -2.4956 0.8918
-14.8206 -21.8183 -2.3076 0.8995
-9.7900 -18.9913 -1.8693 0.9178
-3.2483 -28.4058 -2.5014 0.8915
0.1958 -28.5902 -2.5014 0.8915
3.6370 -28.3586 -2.5014 0.8915
7.0253 -27.7143 -2.5014 0.8915
13.4473 -25.2311 -2.5014 0.8915
17.5665 -19.5865 -2.3018 0.8997
20.2045 -17.6853 -2.3492 0.8978
23.6244 -16.1036 -2.5014 0.8915
26.7893 -9.9887 -2.5014 0.8915
28.4005 -3.2944 -2.5014 0.8915
28.5905 0.1494 -2.5014 0.8915
22.0428 5.5495 -1.9887 0.9128
20.1384 7.7494 -1.8878 0.9170
20.3485 18.1904 -2.3879 0.8962
3.8724 5.6612 -0.6001 0.9728
2.9447 5.6669 -0.5587 0.9747
2.1254 5.6719 -0.5299 0.9760
0.6683 5.6809 -0.5004 0.9773
-0.0204 5.6851 -0.4974 0.9774
-0.7109 5.6893 -0.5016 0.9772
-2.1726 5.6735 -0.5315 0.9759
-4.9599 5.5665 -0.6523 0.9705
-8.3569 5.7363 -0.8868 0.9601
-10.8715 5.6716 -1.0728 0.9520
-22.7705 5.5588 -2.0507 0.9102
-28.3760 -3.4986 -2.5014 0.8915
-27.7483 -6.8901 -2.5014 0.8915
-26.7167 -10.1812 -2.5014 0.8915
-17.7836 -20.1180 -2.3492 0.8978
-9.9459 -18.9894 -1.8754 0.9175
0.0100 -28.5909 -2.5014 0.8915
6.8450 -27.7594 -2.5014 0.8915
13.2830 -25.3180 -2.5014 0.8915
15.3860 -22.3035 -2.3706 0.8969
17.4498 -19.7127 -2.3033 0.8997
20.0891 -17.8162 -2.3492 0.8978
23.5192 -16.2568 -2.5014 0.8915
25.3057 -13.3065 -2.5014 0.8915
26.7238 -10.1626 -2.5014 0.8915
26.6600 3.1992 -2.3492 0.8978
20.2953 13.9519 -2.1547 0.9058
5.6340 6.3319 -0.7415 0.9665
0.0165 5.6849 -0.4974 0.9774
-0.6733 5.6891 -0.5012 0.9773
-1.3843 5.6935 -0.5126 0.9767
-2.1312 5.6755 -0.5304 0.9760
-2.9345 5.6378 -0.5561 0.9748
-3.8519 5.6228 -0.5963 0.9730
-8.2405 5.7356 -0.8784 0.9605
-28.3982 -3.3142 -2.5014 0.8915
-26.7823 -10.0073 -2.5014 0.8915
-25.3825 -13.1594 -2.5014 0.8915
-21.4971 -18.8433 -2.5010 0.8916
-15.2617 -21.8511 -2.3319 0.8985
-9.5066 -24.6366 -2.3103 0.8994
-0.1759 -28.5903 -2.5014 0.8915
6.6644 -27.8033 -2.5014 0.8915
15.3099 -22.5049 -2.3813 0.8965
17.6665 -20.2209 -2.3492 0.8978
25.2186 -13.4708 -2.5014 0.8915
28.3552 -3.6634 -2.5014 0.8915
26.6802 3.0258 -2.3492 0.8978
23.2871 5.5418 -2.0943 0.9084
20.1989 10.3888 -1.9872 0.9128
20.2896 13.7546 -2.1446 0.9063
20.5746 17.9166 -2.3869 0.8962
5.6667 6.2860 -0.7404 0.9666
3.9810 5.6605 -0.6054 0.9726
1.4543 5.6760 -0.5126 0.9767
-0.6358 5.6889 -0.5008 0.9773
-2.0899 5.6774 -0.5293 0.9760
-4.8370 5.5728 -0.6456 0.9708
-8.1263 5.7349 -0.8702 0.9609
-10.5722 5.6915 -1.0505 0.9529
-14.7531 5.7756 -1.3861 0.9384
-26.6186 3.5270 -2.3492 0.8978
-26.8496 0.2961 -2.3492 0.8978
-26.8468 -9.8330 -2.5014 0.8915
-25.4675 -12.9941 -2.5014 0.8915
-23.7175 -15.9662 -2.5014 0.8915
-21.6224 -18.7059 -2.5014 0.8915
-15.4949 -21.8805 -2.3457 0.8979
-12.4663 -23.0669 -2.2940 0.9001
-0.3618 -28.5886 -2.5014 0.8915
3.0833 -28.4242 -2.5014 0.8915
9.7893 -26.8628 -2.5014 0.8915
12.9527 -25.4885 -2.5014 0.8915
17.5347 -20.3353 -2.3492 0.8978
19.8557 -18.0760 -2.3492 0.8978
23.3059 -16.5612 -2.5014 0.8915
20.1292 7.2984 -1.8733 0.9176
20.2840 13.5592 -2.1346 0.9067
20.6862 17.7786 -2.3864 0.8963
5.6994 6.2402 -0.7394 0.9666
4.0360 5.6602 -0.6082 0.9725
1.4936 5.6758 -0.5135 0.9767
0.0904 5.6844 -0.4974 0.9774
-1.3060 5.6930 -0.5110 0.9768
-2.0488 5.6794 -0.5282 0.9760
-2.8441 5.6420 -0.5528 0.9749
-6.2460 5.7233 -0.7412 0.9666
-8.0142 5.7342 -0.8621 0.9612
-10.4272 5.7012 -1.0397 0.9534
-21.7205 5.7535 -1.9658 0.9137
-26.5951 3.6999 -2.3492 0.8978
-26.8471 0.4707 -2.3492 0.8978
-28.4389 -2.9447 -2.5014 0.8915
-27.8774 -6.3476 -2.5014 0.8915
-26.9102 -9.6583 -2.5014 0.8915
-12.6169 -22.9870 -2.2941 0.9001
-6.9176 -25.9449 -2.3492 0.8978
-0.5476 -28.5856 -2.5014 0.8915
2.8984 -28.4436 -2.5014 0.8915
9.6144 -26.9259 -2.5014 0.8915
15.1752 -22.9427 -2.4066 0.8954
17.4021 -20.4489 -2.3492 0.8978
19.7378 -18.2046 -2.3492 0.8978
26.5206 -10.6817 -2.5014 0.8915
27.6138 -7.4107 -2.5014 0.8915
28.3052 -4.0317 -2.5014 0.8915
20.1262 7.1496 -1.8686 0.9178
20.2784 13.3655 -2.1248 0.9071
3.1337 5.6657 -0.5665 0.9743
1.5330 5.6755 -0.5143 0.9767
-2.7993 5.6441 -0.5512 0.9750
-3.6980 5.6305 -0.5894 0.9733
-6.1645 5.7229 -0.7359 0.9668
-10.2851 5.7106 -1.0292 0.9539
-13.3182 5.4146 -1.2578 0.9439
-21.2399 5.7742 -1.9257 0.9154
-28.4574 -2.7597 -2.5014 0.8915
-27.9180 -6.1663 -2.5014 0.8915
-25.6343 -12.6619 -2.5014 0.8915
-23.9231 -15.6564 -2.5014 0.8915
-21.8638 -18.4232 -2.5014 0.8915
-18.3006 -19.6488 -2.3492 0.8978
-15.8016 -21.7095 -2.3492 0.8978
-12.7675 -22.9071 -2.2944 0.9001
-7.0861 -25.8993 -2.3492 0.8978
-0.7334 -28.5815 -2.5014 0.8915
6.1209 -27.9280 -2.5014 0.8915
15.1125 -23.1740 -2.4205 0.8949
19.6190 -18.3326 -2.3492 0.8978
23.0882 -16.8625 -2.5013 0.8915
24.9511 -13.9600 -2.5014 0.8915
26.4505 -10.8540 -2.5014 0.8915
27.5650 -7.5900 -2.5014 0.8915
26.7341 2.5049 -2.3492 0.8978
20.1232 7.0016 -1.8641 0.9180
20.1867 9.8896 -1.9667 0.9137
4.1476 5.6595 -0.6139 0.9722
3.1819 5.6654 -0.5685 0.9742
10.5216 25.5226 -2.4152 0.8951
1.5726 5.6753 -0.5152 0.9766
-1.2282 5.6925 -0.5095 0.9769
-1.9670 5.6832 -0.5262 0.9761
-2.7548 5.6462 -0.5496 0.9751
-3.6475 5.6331 -0.5871 0.9734
-6.0841 5.7224 -0.7307 0.9670
-7.7961 5.7329 -0.8466 0.9619
-10.1425 5.7180 -1.0187 0.9543
-13.1788 5.4580 -1.2480 0.9443
18.8929 3.0185 -2.3492 0.9258
15.4225 11.5129 -2.3631 0.9254
6.0397 5.7630 -1.0250 0.9669
4.6507 5.6564 -0.8991 0.9709
3.6091 5.6628 -0.8245 0.9733
2.7152 5.6683 -0.7717 0.9750
1.1823 5.6777 -0.7121 0.9769
0.4819 5.6820 -0.7002 0.9773
-0.2054 5.6862 -0.6986 0.9773
-0.8997 5.6905 -0.7074 0.9770
-5.3328 18.7206 -2.3900 0.9246
-2.3827 5.6637 -0.7544 0.9755
-3.2125 5.6247 -0.7953 0.9742
-4.1594 5.5909 -0.8556 0.9723
-5.2624 5.5331 -0.9376 0.9697
-8.7672 2.9799 -1.1370 0.9634
-18.7243 3.9310 -2.3492 0.9258
-19.0615 1.6477 -2.3492 0.9258
-20.3600 -0.7022 -2.5014 0.9212
-20.1273 -3.1487 -2.5014 0.9212
-8.3540 -2.3651 -1.0661 0.9656
-7.8335 -3.2805 -1.0428 0.9664
-17.7066 -10.0747 -2.5014 0.9212
-16.3646 -12.1335 -2.5014 0.9212
-14.7845 -14.0157 -2.5014 0.9212
-12.9893 -15.6940 -2.5014 0.9212
-11.0050 -17.1439 -2.5014 0.9212
-8.8573 -18.3373 -2.5004 0.9212
-6.5873 -19.2777 -2.5014 0.9212
5.5175 -19.6107 -2.5014 0.9212
7.8387 -18.8036 -2.5014 0.9212
10.0459 -17.7229 -2.5014 0.9212
12.1069 -16.3843 -2.5014 0.9212
13.9917 -14.8073 -2.5014 0.9212
15.6729 -13.0148 -2.5014 0.9212
19.2670 -6.6186 -2.5014 0.9212
4.7123 5.6560 -0.9039 0.9708
3.6609 5.6625 -0.8279 0.9732
2.7605 5.6680 -0.7741 0.9749
-0.1684 5.6860 -0.6985 0.9773
-3.1654 5.6269 -0.7927 0.9743
-6.8513 5.7271 -1.0964 0.9647
-8.8457 5.7393 -1.2947 0.9584
-11.3187 5.5354 -1.5471 0.9505
-18.6984 4.0526 -2.3492 0.9258
-19.6374 -5.4219 -2.5014 0.9212
-14.8753 -13.9193 -2.5014 0.9212
-11.1163 -17.0720 -2.5014 0.9212
-8.9761 -18.2789 -2.5004 0.9212
-6.7124 -19.2345 -2.5014 0.9212
-4.3475 -19.9028 -2.5014 0.9212
0.5368 -20.3650 -2.5014 0.9212
2.9851 -20.1522 -2.5014 0.9212
5.3899 -19.6462 -2.5014 0.9212
9.9305 -17.7879 -2.5014 0.9212
13.8951 -14.8979 -2.5014 0.9212
18.2717 -9.0094 -2.5014 0.9212
19.2236 -6.7437 -2.5014 0.9212
20.2784 -1.9523 -2.5014 0.9212
18.9306 2.7727 -2.3492 0.9258
17.7187 7.2180 -2.3492 0.9258
16.7616 9.3219 -2.3549 0.9256
14.1316 13.1375 -2.3691 0.9252
4.7746 5.6556 -0.9088 0.9706
3.7131 5.6622 -0.8314 0.9731
2.0004 5.6727 -0.7386 0.9761
1.2595 5.6772 -0.7140 0.9768
0.5563 5.6815 -0.7009 0.9773
-1.5325 5.6578 -0.7197 0.9767
-2.2981 5.6677 -0.7509 0.9757
-5.1334 5.5399 -0.9273 0.9700
-8.7198 5.7386 -1.2817 0.9588
-11.1586 5.5473 -1.5301 0.9510
-20.1666 -2.8868 -2.5014 0.9212
-19.6722 -5.2941 -2.5014 0.9212
-7.8397 -3.1640 -1.0380 0.9665
-17.8361 -9.8436 -2.5014 0.9212
-16.5210 -11.9197 -2.5014 0.9212
-14.9655 -13.8224 -2.5014 0.9212
-4.4769 -19.8741 -2.5014 0.9212
5.2621 -19.6808 -2.5014 0.9212
7.5936 -18.9040 -2.5014 0.9212
11.8929 -16.5404 -2.5014 0.9212
15.5023 -13.2175 -2.5014 0.9212
16.9811 -11.2546 -2.5014 0.9212
19.8668 -4.5091 -2.5014 0.9212
20.2652 -2.0841 -2.5014 0.9212
18.4913 4.9119 -2.3492 0.9258
16.8189 9.2111 -2.3545 0.9256
6.1166 5.6127 -1.0193 0.9671
3.7658 5.6618 -0.8349 0.9730
2.8520 5.6675 -0.7790 0.9748
1.2982 5.6770 -0.7150 0.9768
0.5936 5.6813 -0.7014 0.9772
-1.5012 5.6887 -0.7224 0.9766
-5.0699 5.5432 -0.9224 0.9702
-6.6718 5.7260 -1.0795 0.9652
-11.0020 5.5589 -1.5135 0.9515
-15.9849 5.7832 -2.0872 0.9338
-18.6441 4.2954 -2.3492 0.9258
-20.3698 -0.3051 -2.5014 0.9212
-19.7062 -5.1661 -2.5014 0.9212
-15.0550 -13.7248 -2.5014 0.9212
-13.2929 -15.4377 -2.5014 0.9212
-11.3373 -16.9260 -2.5014 0.9212
-9.2128 -18.1604 -2.5003 0.9212
-4.6059 -19.8446 -2.5014 0.9212
-2.1829 -20.2548 -2.5014 0.9212
0.2720 -20.3703 -2.5014 0.9212
2.7228 -20.1894 -2.5014 0.9212
9.6984 -17.9155 -2.5014 0.9212
11.7851 -16.6173 -2.5014 0.9212
13.7003 -15.0773 -2.5014 0.9212
16.9075 -11.3648 -2.5014 0.9212
18.1530 -9.2462 -2.5014 0.9212
19.1343 -6.9931 -2.5014 0.9212
19.8371 -4.6382 -2.5014 0.9212
20.3707 0.2388 -2.5014 0.9212
18.9650 2.5263 -2.3492 0.9258
18.5228 4.7916 -2.3492 0.9258
17.8111 6.9871 -2.3492 0.9258
16.8755 9.1000 -2.3541 0.9256
7.9977 5.6525 -1.2025 0.9613
4.8790 5.6291 -0.9147 0.9704
3.8189 5.6615 -0.8385 0.9729
2.8982 5.6672 -0.7816 0.9747
-0.0574 5.6853 -0.6981 0.9773
-0.7485 5.6896 -0.7046 0.9771
-1.4631 5.6940 -0.7218 0.9766
-2.2143 5.6716 -0.7476 0.9758
-3.0260 5.6335 -0.7852 0.9746
-5.0071 5.5465 -0.9175 0.9703
-8.4755 5.7371 -1.2567 0.9596
-10.8487 5.5702 -1.4974 0.9520
-15.6604 5.7812 -2.0497 0.9349
-18.6158 4.4165 -2.3492 0.9258
-19.0122 2.1428 -2.3492 0.9258
-19.7394 -5.0379 -2.5014 0.9212
-7.8567 -3.0527 -1.0349 0.9666
-17.9626 -9.6109 -2.5014 0.9212
-15.1440 -13.6266 -2.5014 0.9212
-4.7348 -19.8142 -2.5014 0.9212
-2.3145 -20.2402 -2.5014 0.9212
0.1395 -20.3716 -2.5014 0.9212
9.5817 -17.9782 -2.5014 0.9212
11.6768 -16.6936 -2.5014 0.9212
13.6019 -15.1661 -2.5014 0.9212
16.8333 -11.4744 -2.5014 0.9212
18.0925 -9.3640 -2.5014 0.9212
19.8065 -4.7671 -2.5014 0.9212
18.5536 4.6710 -2.3492 0.9258
17.8561 6.8711 -2.3492 0.9258
16.9313 8.9885 -2.3537 0.9257
6.8310 6.1065 -1.1250 0.9637
5.6011 6.3780 -1.0422 0.9664
3.8724 5.6612 -0.8422 0.9727
2.1254 5.6719 -0.7437 0.9759
1.3760 5.6765 -0.7172 0.9767
-0.7109 5.6893 -0.7040 0.9772
-2.1726 5.6735 -0.7460 0.9758
-2.9801 5.6356 -0.7828 0.9746
-3.8933 5.6047 -0.8379 0.9729
-6.4976 5.7249 -1.0633 0.9657
-8.3569 5.7363 -1.2446 0.9600
-18.5867 4.5374 -2.3492 0.9258
-7.8649 -2.9972 -1.0334 0.9666
-15.2322 -13.5278 -2.5014 0.9212
-13.4925 -15.2636 -2.5014 0.9212
-9.4490 -18.0407 -2.5006 0.9212
-7.2103 -19.0535 -2.5014 0.9212
-4.8636 -19.7830 -2.5014 0.9212
-2.4460 -20.2247 -2.5014 0.9212
2.4601 -20.2230 -2.5014 0.9212
4.8773 -19.7796 -2.5014 0.9212
7.2235 -19.0485 -2.5014 0.9212
16.7583 -11.5836 -2.5014 0.9212
18.0313 -9.4814 -2.5014 0.9212
19.7751 -4.8957 -2.5014 0.9212
20.2207 -2.4789 -2.5014 0.9212
20.3721 -0.0261 -2.5014 0.9212
18.5836 4.5503 -2.3492 0.9258
16.9864 8.8767 -2.3533 0.9257
8.2225 5.6525 -1.2251 0.9606
5.6340 6.3319 -1.0407 0.9664
3.9265 5.6608 -0.8459 0.9726
2.9915 5.6666 -0.7868 0.9745
2.1655 5.6668 -0.7449 0.9758
1.4150 5.6763 -0.7183 0.9767
-0.6733 5.6891 -0.7034 0.9772
-1.3843 5.6935 -0.7194 0.9767
-8.2405 5.7356 -1.2328 0.9603
-13.3117 5.1118 -1.7508 0.9442
-18.5568 4.6582 -2.3492 0.9258
-18.9827 2.3898 -2.3492 0.9258
-20.2348 -2.3615 -2.5014 0.9212
-19.8032 -4.7809 -2.5014 0.9212
-16.8254 -11.4861 -2.5014 0.9212
-13.5914 -15.1755 -2.5014 0.9212
-9.5666 -17.9800 -2.5007 0.9212
-7.3340 -19.0062 -2.5014 0.9212
-0.1253 -20.3717 -2.5014 0.9212
7.0996 -19.0950 -2.5014 0.9212
9.3471 -18.1012 -2.5014 0.9212
15.1534 -13.6160 -2.5014 0.9212
16.6827 -11.6923 -2.5014 0.9212
20.2042 -2.6103 -2.5014 0.9212
18.6127 4.4294 -2.3492 0.9258
17.9440 6.6384 -2.3492 0.9258
17.0407 8.7645 -2.3529 0.9257
8.3381 5.6525 -1.2369 0.9602
2.1959 5.6361 -0.7427 0.9759
0.7433 5.6804 -0.7034 0.9772
0.0535 5.6846 -0.6980 0.9774
-0.6358 5.6889 -0.7029 0.9772
-2.0899 5.6774 -0.7428 0.9759
-2.8892 5.6399 -0.7781 0.9748
-3.7898 5.6100 -0.8313 0.9731
-8.1263 5.7349 -1.2212 0.9607
-10.4075 5.6028 -1.4513 0.9535
-13.1736 5.1573 -1.7370 0.9446
-18.5262 4.7786 -2.3492 0.9258
-18.9668 2.5131 -2.3492 0.9258
-20.3595 0.2245 -2.5000 0.9212
-20.2497 -2.2299 -2.5014 0.9212
-19.8339 -4.6520 -2.5014 0.9212
-18.1465 -9.2588 -2.5014 0.9212
-16.8996 -11.3765 -2.5014 0.9212
-13.6898 -15.0869 -2.5014 0.9212
-11.7735 -16.6255 -2.5014 0.9212
-9.6839 -17.9184 -2.5008 0.9212
-7.4573 -18.9581 -2.5014 0.9212
-5.1204 -19.7181 -2.5014 0.9212
-0.2578 -20.3705 -2.5014 0.9212
2.1970 -20.2533 -2.5014 0.9212
4.6198 -19.8414 -2.5014 0.9212
9.2293 -18.1616 -2.5014 0.9212
11.3490 -16.9181 -2.5014 0.9212
15.0646 -13.7143 -2.5014 0.9212
16.6063 -11.8005 -2.5014 0.9212
17.9065 -9.7150 -2.5014 0.9212
18.9460 -7.4882 -2.5014 0.9212
20.1868 -2.7416 -2.5014 0.9212
20.3700 -0.2909 -2.5014 0.9212
19.0243 2.0324 -2.3492 0.9258
18.6411 4.3083 -2.3492 0.9258
17.9867 6.5217 -2.3492 0.9258
6.8312 5.8711 -1.1060 0.9644
5.6994 6.2402 -1.0377 0.9665
4.0360 5.6602 -0.8536 0.9724
7.1767 18.0721 -2.3875 0.9246
1.4936 5.6758 -0.7206 0.9766
0.0904 5.6844 -0.6980 0.9773
-2.8441 5.6420 -0.7758 0.9749
-8.0142 5.7342 -1.2100 0.9611
-13.0375 5.2020 -1.7235 0.9450
-18.4947 4.8990 -2.3492 0.9258
-18.9500 2.6363 -2.3492 0.9258
-20.3403 0.3566 -2.4979 0.9213
-20.2638 -2.0982 -2.5014 0.9212
-19.8637 -4.5229 -2.5014 0.9212
-7.9011 -2.8358 -1.0307 0.9667
-15.4931 -13.2283 -2.5014 0.9212
-11.8813 -16.5486 -2.5014 0.9212
-9.8008 -17.8563 -2.5010 0.9212
-7.5805 -18.9092 -2.5014 0.9212
-2.8400 -20.1732 -2.5014 0.9212
4.4907 -19.8710 -2.5014 0.9212
6.8507 -19.1857 -2.5014 0.9212
13.2030 -15.5146 -2.5014 0.9212
14.9751 -13.8119 -2.5014 0.9212
16.5293 -11.9083 -2.5014 0.9212
17.8429 -9.8312 -2.5014 0.9212
18.8969 -7.6112 -2.5014 0.9212
19.6759 -5.2804 -2.5014 0.9212
18.6688 4.1870 -2.3492 0.9258
18.0287 6.4046 -2.3492 0.9258
17.1471 8.5392 -2.3520 0.9257
6.8431 5.8044 -1.1018 0.9645
4.0915 5.6598 -0.8575 0.9722
3.1337 5.6657 -0.7950 0.9742
7.2936 18.0237 -2.3874 0.9246
1.5330 5.6755 -0.7218 0.9766
0.8185 5.6799 -0.7046 0.9771
-0.5610 5.6884 -0.7018 0.9772
-1.2671 5.6928 -0.7161 0.9768
-2.0078 5.6813 -0.7399 0.9760
-2.7993 5.6441 -0.7736 0.9749
-3.6880 5.6153 -0.8249 0.9733
-6.1645 5.7229 -1.0328 0.9667
-7.9042 5.7336 -1.1990 0.9614
-10.1560 5.6390 -1.4263 0.9543
-18.4625 5.0192 -2.3492 0.9258
-20.3202 0.4884 -2.4957 0.9214
-20.2770 -1.9664 -2.5014 0.9212
-19.8927 -4.3938 -2.5014 0.9212
-18.2654 -9.0221 -2.5014 0.9212
-15.5788 -13.1272 -2.5014 0.9212
-11.9887 -16.4710 -2.5014 0.9212
-7.7033 -18.8596 -2.5014 0.9212
-5.3763 -19.6499 -2.5014 0.9212
-2.9711 -20.1543 -2.5014 0.9212
-0.5226 -20.3654 -2.5014 0.9212
1.9335 -20.2802 -2.5014 0.9212
4.3614 -19.8998 -2.5014 0.9212
13.1019 -15.6001 -2.5014 0.9212
16.4515 -12.0154 -2.5014 0.9212
17.7786 -9.9471 -2.5014 0.9212
19.6411 -5.4082 -2.5014 0.9212
20.3645 -0.5557 -2.5014 0.9212
19.0491 1.7848 -2.3492 0.9258
17.1992 8.4260 -2.3516 0.9257
6.8947 5.7715 -1.1040 0.9644
4.1476 5.6595 -0.8615 0.9721
0.8561 5.6797 -0.7053 0.9771
0.1644 5.6840 -0.6982 0.9773
-0.5237 5.6882 -0.7014 0.9772
-1.2282 5.6925 -0.7150 0.9768
-1.9670 5.6832 -0.7384 0.9761
-2.7548 5.6462 -0.7714 0.9750
-4.6436 5.5656 -0.8900 0.9712
-7.7961 5.7329 -1.1882 0.9618
-12.7716 5.2894 -1.6973 0.9458
14.6464 2.3401 -2.3492 0.9417
14.2580 4.0867 -2.3492 0.9417
11.9066 8.8883 -2.3533 0.9416
6.0397 5.7630 -1.3222 0.9668
2.7152 5.6683 -0.9955 0.9749
1.1823 5.6777 -0.9186 0.9768
-4.1064 14.4151 -2.3740 0.9411
-3.2118 5.6236 -1.0257 0.9741
-8.9741 5.7401 -1.6873 0.9578
-8.7657 2.9794 -1.4663 0.9632
-14.5157 3.0474 -2.3492 0.9417
-15.6033 -2.4410 -2.5014 0.9380
-7.0103 -2.9358 -1.2038 0.9697
-13.7267 -7.8102 -2.5014 0.9380
-11.4614 -10.8654 -2.5014 0.9380
-8.5314 -13.2904 -2.5014 0.9380
-5.1067 -14.9447 -2.5014 0.9380
-3.2700 -15.4508 -2.5014 0.9380
0.5187 -15.7846 -2.5014 0.9380
2.4156 -15.6073 -2.5014 0.9380
4.2774 -15.2028 -2.5014 0.9380
9.3856 -12.7016 -2.5014 0.9380
10.8468 -11.4791 -2.5014 0.9380
12.1501 -10.0895 -2.5014 0.9380
13.2766 -8.5530 -2.5014 0.9380
14.2099 -6.8921 -2.5014 0.9380
15.4455 -3.2951 -2.5014 0.9380
12.9152 7.2930 -2.3492 0.9417
4.7123 5.6560 -1.1660 0.9706
2.7605 5.6680 -0.9985 0.9748
-0.1684 5.6860 -0.9010 0.9772
-0.8618 5.6903 -0.9115 0.9770
-4.0127 14.4422 -2.3741 0.9411
-2.3403 5.6657 -0.9709 0.9755
-3.1652 5.6266 -1.0225 0.9742
-5.1480 5.4837 -1.1913 0.9700
-6.8513 5.7271 -1.4143 0.9645
-8.8457 5.7393 -1.6701 0.9582
-11.1526 5.4541 -1.9663 0.9510
-14.9761 1.3927 -2.3822 0.9409
-15.7869 -0.4418 -2.5014 0.9380
-15.6188 -2.3395 -2.5014 0.9380
-13.7772 -7.7208 -2.5014 0.9380
-12.7472 -9.3236 -2.5014 0.9380
-11.5318 -10.7907 -2.5014 0.9380
-8.6176 -13.2347 -2.5014 0.9380
-6.9613 -14.1761 -2.5014 0.9380
-1.4879 -15.7228 -2.5014 0.9380
2.3141 -15.6226 -2.5014 0.9380
7.6984 -13.7897 -2.5014 0.9380
9.3029 -12.7624 -2.5014 0.9380
10.7719 -11.5493 -2.5014 0.9380
13.2207 -8.6392 -2.5014 0.9380
14.1648 -6.9843 -2.5014 0.9380
14.6756 2.1494 -2.3492 0.9417
13.7361 5.5956 -2.3492 0.9417
12.9624 7.2089 -2.3492 0.9417
12.0182 8.7305 -2.3527 0.9416
7.3810 6.8617 -1.5962 0.9600
4.7746 5.6556 -1.1723 0.9705
3.7131 5.6622 -1.0724 0.9730
2.8061 5.6677 -1.0017 0.9747
2.0004 5.6727 -0.9527 0.9759
-0.1314 5.6858 -0.9008 0.9772
-0.8240 5.6900 -0.9106 0.9770
-3.1186 5.6291 -1.0193 0.9743
-4.0313 5.5685 -1.0888 0.9725
-5.0904 5.4934 -1.1862 0.9701
-6.7608 5.7265 -1.4033 0.9648
-8.7198 5.7386 -1.6533 0.9586
-13.9799 4.9553 -2.3492 0.9417
-14.4748 3.2359 -2.3492 0.9417
-14.7592 1.4694 -2.3492 0.9417
-15.6337 -2.2379 -2.5014 0.9380
-7.0313 -2.8377 -1.2009 0.9698
-10.2270 -12.0345 -2.5014 0.9380
-8.7035 -13.1784 -2.5014 0.9380
-7.0533 -14.1305 -2.5014 0.9380
0.3135 -15.7900 -2.5014 0.9380
2.2125 -15.6373 -2.5014 0.9380
4.0793 -15.2571 -2.5014 0.9380
5.8868 -14.6549 -2.5014 0.9380
7.6086 -13.8395 -2.5014 0.9380
12.0179 -10.2466 -2.5014 0.9380
13.1642 -8.7249 -2.5014 0.9380
14.1191 -7.0763 -2.5014 0.9380
15.4014 -3.4956 -2.5014 0.9380
15.7905 0.2878 -2.5014 0.9380
13.7722 5.5063 -2.3492 0.9417
12.0732 8.6511 -2.3524 0.9416
6.1166 5.6127 -1.3148 0.9669
2.8520 5.6675 -1.0049 0.9746
1.2982 5.6770 -0.9224 0.9767
-0.0944 5.6856 -0.9006 0.9772
-0.7862 5.6898 -0.9097 0.9770
-1.5012 5.6887 -0.9318 0.9765
-2.2561 5.6696 -0.9665 0.9756
-3.9790 5.5721 -1.0844 0.9727
-5.0285 5.4979 -1.1801 0.9703
-8.5965 5.7378 -1.6370 0.9590
-8.2555 -2.1642 -1.3517 0.9660
-7.0417 -2.7888 -1.1996 0.9698
-7.1450 -14.0844 -2.5014 0.9380
-3.5707 -15.3842 -2.5014 0.9380
-1.6922 -15.7022 -2.5014 0.9380
0.2108 -15.7917 -2.5014 0.9380
3.9801 -15.2833 -2.5014 0.9380
5.7914 -14.6929 -2.5014 0.9380
9.1362 -12.8822 -2.5014 0.9380
11.9510 -10.3245 -2.5014 0.9380
13.1072 -8.8103 -2.5014 0.9380
14.0727 -7.1679 -2.5014 0.9380
15.3783 -3.5956 -2.5014 0.9380
15.7920 0.1852 -2.5014 0.9380
14.3595 3.7146 -2.3492 0.9417
13.8077 5.4166 -2.3492 0.9417
13.0550 7.0398 -2.3492 0.9417
4.8790 5.6291 -1.1799 0.9703
2.0835 5.6722 -0.9571 0.9758
1.3370 5.6767 -0.9237 0.9767
0.6309 5.6811 -0.9053 0.9771
-0.7485 5.6896 -0.9089 0.9770
-1.4631 5.6940 -0.9311 0.9765
-6.5840 5.7254 -1.3819 0.9653
-8.4755 5.7371 -1.6210 0.9594
-13.9143 5.1366 -2.3492 0.9417
-14.4316 3.4238 -2.3492 0.9417
-14.7388 1.6611 -2.3492 0.9417
-15.7925 -0.1338 -2.5014 0.9380
-7.0508 -2.7396 -1.1981 0.9698
-10.3826 -11.9005 -2.5014 0.9380
-7.2364 -14.0376 -2.5014 0.9380
-5.4935 -14.8069 -2.5014 0.9380
0.1081 -15.7927 -2.5014 0.9380
10.5446 -11.7572 -2.5014 0.9380
14.7979 -5.5176 -2.5014 0.9380
15.3546 -3.6956 -2.5014 0.9380
15.6879 -1.8198 -2.5014 0.9380
15.7929 0.0825 -2.5014 0.9380
14.7147 1.8629 -2.3492 0.9417
14.3833 3.6211 -2.3492 0.9417
13.8426 5.3267 -2.3492 0.9417
13.1005 6.9548 -2.3492 0.9417
12.1815 8.4913 -2.3518 0.9416
6.8439 6.1180 -1.4539 0.9635
3.8724 5.6612 -1.0863 0.9726
2.9447 5.6669 -1.0115 0.9745
1.3760 5.6765 -0.9251 0.9766
-1.4236 5.6937 -0.9296 0.9765
-2.9801 5.6356 -1.0097 0.9745
-4.9066 5.5067 -1.1682 0.9706
-8.3569 5.7363 -1.6054 0.9598
-10.6377 5.5496 -1.9003 0.9526
-14.7277 1.7569 -2.3492 0.9417
-15.6744 -1.9326 -2.5014 0.9380
-8.6347 -2.1440 -1.4091 0.9646
-10.4598 -11.8328 -2.5014 0.9380
-8.9589 -13.0061 -2.5014 0.9380
-1.8962 -15.6788 -2.5014 0.9380
0.0055 -15.7931 -2.5014 0.9380
7.3373 -13.9852 -2.5014 0.9380
8.9679 -12.9999 -2.5014 0.9380
10.4680 -11.8255 -2.5014 0.9380
11.8158 -10.4790 -2.5014 0.9380
13.9784 -7.3503 -2.5014 0.9380
14.7617 -5.6137 -2.5014 0.9380
15.7931 -0.0202 -2.5014 0.9380
14.4065 3.5275 -2.3492 0.9417
13.8770 5.2366 -2.3492 0.9417
13.1454 6.8695 -2.3492 0.9417
12.2349 8.4108 -2.3515 0.9416
6.8434 6.0380 -1.4455 0.9637
3.9265 5.6608 -1.0912 0.9725
-0.6733 5.6891 -0.9074 0.9771
-1.3843 5.6935 -0.9280 0.9765
-2.1312 5.6755 -0.9602 0.9757
-3.8244 5.5826 -1.0718 0.9730
-4.8465 5.5111 -1.1624 0.9707
-8.2405 5.7356 -1.5902 0.9602
-10.5144 5.5725 -1.8847 0.9530
-13.8463 5.3171 -2.3492 0.9417
-14.3858 3.6112 -2.3492 0.9417
-14.7160 1.8526 -2.3492 0.9417
-15.6866 -1.8307 -2.5014 0.9380
-8.8038 -2.1254 -1.4344 0.9640
-7.0680 -2.6410 -1.1951 0.9699
-7.0148 -3.6368 -1.2515 0.9685
-10.5365 -11.7645 -2.5014 0.9380
-5.6855 -14.7342 -2.5014 0.9380
-1.9981 -15.6662 -2.5014 0.9380
-0.0972 -15.7928 -2.5014 0.9380
3.6813 -15.3581 -2.5014 0.9380
5.5038 -14.8030 -2.5014 0.9380
10.3909 -11.8933 -2.5014 0.9380
11.7474 -10.5556 -2.5014 0.9380
13.9303 -7.4410 -2.5014 0.9380
14.7249 -5.7095 -2.5014 0.9380
15.3053 -3.8949 -2.5014 0.9380
13.9107 5.1463 -2.3492 0.9417
13.1898 6.7839 -2.3492 0.9417
12.2878 8.3300 -2.3512 0.9417
6.8429 5.9589 -1.4372 0.9639
5.6667 6.2860 -1.3404 0.9663
3.0385 5.6663 -1.0183 0.9743
1.4543 5.6760 -0.9280 0.9765
0.7433 5.6804 -0.9074 0.9771
0.0535 5.6846 -0.9004 0.9772
-0.6358 5.6889 -0.9066 0.9771
-1.3451 5.6932 -0.9265 0.9766
-2.0899 5.6774 -0.9582 0.9758
-2.8892 5.6399 -1.0037 0.9747
-3.7736 5.5861 -1.0677 0.9731
-4.7871 5.5153 -1.1567 0.9709
-10.3930 5.5950 -1.8695 0.9533
-14.7036 1.9483 -2.3492 0.9417
-15.6982 -1.7287 -2.5014 0.9380
-9.0133 -2.1140 -1.4663 0.9632
-11.9438 -10.3328 -2.5014 0.9380
-10.6127 -11.6958 -2.5014 0.9380
-9.1272 -12.8886 -2.5014 0.9380
-3.9695 -15.2861 -2.5014 0.9380
-2.0999 -15.6529 -2.5014 0.9380
5.4074 -14.8385 -2.5014 0.9380
7.1548 -14.0794 -2.5014 0.9380
8.7981 -13.1154 -2.5014 0.9380
11.6785 -10.6317 -2.5014 0.9380
12.8737 -9.1481 -2.5014 0.9380
13.8816 -7.5314 -2.5014 0.9380
15.2796 -3.9943 -2.5014 0.9380
15.6494 -2.1254 -2.5014 0.9380
15.7915 -0.2255 -2.5014 0.9380
14.8339 1.5847 -2.3628 0.9414
13.2336 6.6980 -2.3492 0.9417
12.3401 8.2490 -2.3509 0.9417
6.8425 5.8807 -1.4290 0.9641
4.0360 5.6602 -1.1010 0.9722
3.0860 5.6660 -1.0219 0.9742
1.4936 5.6758 -0.9296 0.9765
-0.5984 5.6887 -0.9060 0.9771
-3.7233 5.5895 -1.0637 0.9732
-4.7282 5.5195 -1.1511 0.9710
-8.0142 5.7342 -1.5608 0.9609
-10.2736 5.6172 -1.8545 0.9537
-14.3376 3.7979 -2.3492 0.9417
-15.7907 0.2768 -2.5014 0.9380
-7.0046 -3.5167 -1.2414 0.9688
-13.1582 -8.7341 -2.5014 0.9380
-12.0107 -10.2550 -2.5014 0.9380
-7.5990 -13.8447 -2.5014 0.9380
-5.8766 -14.6590 -2.5014 0.9380
-2.2016 -15.6389 -2.5014 0.9380
8.7127 -13.1723 -2.5014 0.9380
10.2354 -12.0274 -2.5014 0.9380
12.8140 -9.2316 -2.5014 0.9380
13.8324 -7.6215 -2.5014 0.9380
14.6495 -5.9004 -2.5014 0.9380
15.2533 -4.0935 -2.5014 0.9380
15.6353 -2.2270 -2.5014 0.9380
15.7897 -0.3282 -2.5014 0.9380
13.9764 4.9650 -2.3492 0.9417
12.3919 8.1675 -2.3506 0.9417
6.8556 5.8150 -1.4238 0.9642
5.6176 13.8822 -2.3719 0.9412
0.1274 5.6842 -0.9005 0.9772
-14.3127 3.8911 -2.3492 0.9417
-14.6771 2.1392 -2.3492 0.9417
-15.7194 -1.5244 -2.5014 0.9380
-7.1070 -2.4987 -1.1932 0.9700
-7.0006 -3.4579 -1.2367 0.9689
-13.2147 -8.6483 -2.5014 0.9380
-12.0772 -10.1767 -2.5014 0.9380
-10.7639 -11.5568 -2.5014 0.9380
-9.2940 -12.7688 -2.5014 0.9380
-7.6888 -13.7950 -2.5014 0.9380
-5.9718 -14.6205 -2.5014 0.9380
-2.3033 -15.6242 -2.5014 0.9380
8.6269 -13.2287 -2.5014 0.9380
10.1570 -12.0937 -2.5014 0.9380
11.5393 -10.7827 -2.5014 0.9380
13.7825 -7.7113 -2.5014 0.9380
15.2264 -4.1926 -2.5014 0.9380
15.6205 -2.3287 -2.5014 0.9380
15.7872 -0.4308 -2.5014 0.9380
15.2860 1.4322 -2.4317 0.9397
14.0084 4.8740 -2.3492 0.9417
13.3196 6.5254 -2.3492 0.9417
12.4431 8.0857 -2.3503 0.9417
6.9088 5.7833 -1.4270 0.9642
5.7645 6.1489 -1.3349 0.9664
0.8561 5.6797 -0.9097 0.9770
-0.5237 5.6882 -0.9047 0.9771
-1.2282 5.6925 -0.9224 0.9767
-1.9670 5.6832 -0.9525 0.9759
-2.7548 5.6462 -0.9950 0.9749
-3.6236 5.5962 -1.0559 0.9734
-4.6120 5.5278 -1.1402 0.9713
-10.0404 5.6604 -1.8255 0.9544
-13.7034 5.6753 -2.3492 0.9417
11.9341 1.9067 -2.3492 0.9519
11.6177 3.3299 -2.3492 0.9519
11.1322 4.7046 -2.3492 0.9519
10.4847 6.0108 -2.3492 0.9519
6.0397 5.7630 -1.6227 0.9666
3.6091 5.6628 -1.3053 0.9730
2.7152 5.6683 -1.2217 0.9747
1.9180 5.6732 -1.1641 0.9759
1.1823 5.6777 -1.1273 0.9766
0.4819 5.6820 -1.1084 0.9770
-0.8997 5.6905 -1.1199 0.9768
-3.3316 11.6955 -2.3638 0.9517
-3.1821 5.5716 -1.2472 0.9742
-6.9432 5.7276 -1.7496 0.9640
-10.8910 5.2387 -2.3492 0.9519
-12.7138 -1.9890 -2.5014 0.9489
-6.7518 -3.8416 -1.5100 0.9688
-10.3371 -7.6644 -2.5014 0.9489
-9.3390 -8.8533 -2.5014 0.9489
-8.2050 -9.9134 -2.5014 0.9489
-5.5970 -11.5876 -2.5014 0.9489
-4.1610 -12.1772 -2.5014 0.9489
-2.6644 -12.5896 -2.5014 0.9489
1.9683 -12.7171 -2.5014 0.9489
3.4853 -12.3875 -2.5014 0.9489
4.9515 -11.8777 -2.5014 0.9489
7.6476 -10.3495 -2.5014 0.9489
11.5784 -5.6158 -2.5014 0.9489
11.9463 1.8291 -2.3492 0.9519
11.6391 3.2543 -2.3492 0.9519
11.1625 4.6321 -2.3492 0.9519
9.7314 7.1664 -2.3492 0.9519
3.6609 5.6625 -1.3107 0.9729
2.7605 5.6680 -1.2255 0.9746
1.2209 5.6775 -1.1288 0.9766
-0.8618 5.6903 -1.1187 0.9768
-3.2556 11.7173 -2.3639 0.9517
-4.0439 5.5100 -1.3285 0.9725
-6.8513 5.7271 -1.7358 0.9643
-8.8457 5.7393 -2.0496 0.9579
-8.6976 3.0195 -1.7896 0.9632
-12.8029 1.1906 -2.4994 0.9490
-10.3867 -7.5970 -2.5014 0.9489
-9.3963 -8.7924 -2.5014 0.9489
-7.0218 -10.7839 -2.5014 0.9489
-5.6722 -11.5509 -2.5014 0.9489
-4.2401 -12.1499 -2.5014 0.9489
-2.7462 -12.5720 -2.5014 0.9489
-1.2124 -12.8112 -2.5014 0.9489
1.8856 -12.7296 -2.5014 0.9489
4.8742 -11.9097 -2.5014 0.9489
6.2728 -11.2361 -2.5014 0.9489
7.5801 -10.3990 -2.5014 0.9489
9.8464 -8.2853 -2.5014 0.9489
12.1430 -4.2598 -2.5014 0.9489
12.8092 -1.2332 -2.5014 0.9489
12.8646 0.3181 -2.5014 0.9489
11.9579 1.7514 -2.3492 0.9519
10.5620 5.8740 -2.3492 0.9519
9.7778 7.1030 -2.3492 0.9519
3.7131 5.6622 -1.3162 0.9728
1.2595 5.6772 -1.1304 0.9766
0.5563 5.6815 -1.1097 0.9770
-0.8240 5.6900 -1.1176 0.9768
-1.5325 5.6578 -1.1394 0.9764
-2.2833 5.6312 -1.1812 0.9755
-3.0902 5.5779 -1.2395 0.9744
-6.7608 5.7265 -1.7222 0.9645
-8.7198 5.7386 -2.0291 0.9584
-10.8220 5.3799 -2.3492 0.9519
-12.7878 1.2731 -2.4980 0.9490
-12.8655 -0.2763 -2.5014 0.9489
-12.7386 -1.8235 -2.5014 0.9489
-7.0918 -10.7380 -2.5014 0.9489
-5.7472 -11.5138 -2.5014 0.9489
0.2554 -12.8659 -2.5014 0.9489
1.8028 -12.7416 -2.5014 0.9489
3.3239 -12.4318 -2.5014 0.9489
7.5124 -10.4480 -2.5014 0.9489
10.7264 -7.1092 -2.5014 0.9489
12.5493 -2.8483 -2.5014 0.9489
12.8663 0.2345 -2.5014 0.9489
11.6804 3.1027 -2.3492 0.9519
10.5999 5.8052 -2.3492 0.9519
9.8238 7.0393 -2.3492 0.9519
4.8376 5.6552 -1.4466 0.9701
2.8520 5.6675 -1.2333 0.9745
2.0418 5.6724 -1.1719 0.9757
1.2982 5.6770 -1.1320 0.9765
0.5936 5.6813 -1.1103 0.9770
-0.0944 5.6856 -1.1053 0.9771
-2.2418 5.6338 -1.1786 0.9756
-3.0447 5.5810 -1.2358 0.9744
-3.9401 5.5176 -1.3179 0.9728
-8.5965 5.7378 -2.0090 0.9588
-11.3646 4.1116 -2.3492 0.9519
-12.7722 1.3555 -2.4966 0.9490
-12.8670 -0.1927 -2.5014 0.9489
-6.5271 -3.5471 -1.4440 0.9702
-10.4846 -7.4613 -2.5014 0.9489
-9.5098 -8.6696 -2.5014 0.9489
-8.3967 -9.7516 -2.5014 0.9489
-7.1614 -10.6917 -2.5014 0.9489
-5.8219 -11.4762 -2.5014 0.9489
-2.9094 -12.5353 -2.5014 0.9489
-1.3788 -12.7944 -2.5014 0.9489
3.2430 -12.4531 -2.5014 0.9489
6.1262 -11.3167 -2.5014 0.9489
7.4443 -10.4967 -2.5014 0.9489
8.6541 -9.5239 -2.5014 0.9489
10.6800 -7.1788 -2.5014 0.9489
12.0866 -4.4173 -2.5014 0.9489
12.5305 -2.9298 -2.5014 0.9489
12.7921 -1.3996 -2.5014 0.9489
12.8676 0.1509 -2.5014 0.9489
12.0433 1.6043 -2.3617 0.9517
11.7003 3.0267 -2.3492 0.9519
11.2508 4.4135 -2.3492 0.9519
10.6374 5.7362 -2.3492 0.9519
9.8693 6.9753 -2.3492 0.9519
8.9625 8.1174 -2.3505 0.9519
2.8982 5.6672 -1.2373 0.9744
1.3370 5.6767 -1.1336 0.9765
-2.2005 5.6364 -1.1761 0.9756
-2.9995 5.5841 -1.2321 0.9745
-3.8889 5.5213 -1.3127 0.9729
-4.8872 5.4137 -1.4177 0.9707
-6.5840 5.7254 -1.6960 0.9651
-10.7511 5.5201 -2.3492 0.9519
-11.3376 4.1854 -2.3492 0.9519
-11.7591 2.7898 -2.3492 0.9519
-12.7560 1.4377 -2.4952 0.9490
-12.8680 -0.1090 -2.5014 0.9489
-6.5236 -3.4905 -1.4382 0.9703
-10.5329 -7.3930 -2.5014 0.9489
-9.5660 -8.6075 -2.5014 0.9489
-8.4600 -9.6968 -2.5014 0.9489
-2.9909 -12.5161 -2.5014 0.9489
-1.4620 -12.7852 -2.5014 0.9489
1.6370 -12.7639 -2.5014 0.9489
3.1620 -12.4740 -2.5014 0.9489
7.3759 -10.5449 -2.5014 0.9489
9.6830 -8.4757 -2.5014 0.9489
10.6331 -7.2481 -2.5014 0.9489
11.4285 -5.9150 -2.5014 0.9489
12.5112 -3.0112 -2.5014 0.9489
12.8683 0.0672 -2.5014 0.9489
12.2000 1.5445 -2.3904 0.9511
11.7198 2.9506 -2.3492 0.9519
11.2792 4.3403 -2.3492 0.9519
3.8724 5.6612 -1.3332 0.9724
-0.0204 5.6851 -1.1051 0.9771
-1.4236 5.6937 -1.1408 0.9764
-2.9545 5.5871 -1.2285 0.9746
-10.7150 5.5900 -2.3492 0.9519
-11.3101 4.2590 -2.3492 0.9519
-11.7407 2.8662 -2.3492 0.9519
-12.8685 -0.0254 -2.5014 0.9489
-8.2366 -2.0452 -1.6497 0.9660
-10.5807 -7.3244 -2.5014 0.9489
-8.5228 -9.6416 -2.5014 0.9489
-7.2999 -10.5976 -2.5014 0.9489
-5.9706 -11.3995 -2.5014 0.9489
-1.5451 -12.7754 -2.5014 0.9489
5.9785 -11.3954 -2.5014 0.9489
8.5295 -9.6356 -2.5014 0.9489
11.3898 -5.9891 -2.5014 0.9489
12.0281 -4.5741 -2.5014 0.9489
12.8685 -0.0165 -2.5014 0.9489
12.3601 1.4832 -2.4198 0.9505
9.9592 6.8464 -2.3492 0.9519
5.6340 6.3319 -1.6475 0.9661
2.9915 5.6666 -1.2455 0.9742
1.4151 5.6763 -1.1371 0.9764
0.7058 5.6806 -1.1127 0.9769
0.0165 5.6849 -1.1050 0.9771
-0.6733 5.6891 -1.1136 0.9769
-1.3843 5.6935 -1.1389 0.9764
-4.7886 5.4452 -1.4095 0.9709
-6.4125 5.7244 -1.6709 0.9656
-8.2405 5.7356 -1.9516 0.9599
-11.2822 4.3324 -2.3492 0.9519
-12.8684 0.0583 -2.5014 0.9489
-12.7817 -1.4917 -2.5014 0.9489
-6.6386 -2.4805 -1.3776 0.9715
-6.5162 -3.3783 -1.4267 0.9705
-10.6281 -7.2555 -2.5014 0.9489
-8.5853 -9.5859 -2.5014 0.9489
-6.0446 -11.3605 -2.5014 0.9489
-4.6327 -12.0057 -2.5014 0.9489
-0.0792 -12.8682 -2.5014 0.9489
5.9043 -11.4340 -2.5014 0.9489
8.4667 -9.6909 -2.5014 0.9489
11.9981 -4.6522 -2.5014 0.9489
12.7624 -1.6488 -2.5014 0.9489
11.7571 2.7980 -2.3492 0.9519
11.3347 4.1933 -2.3492 0.9519
10.0035 6.7815 -2.3492 0.9519
6.8429 5.9589 -1.7638 0.9637
5.6667 6.2860 -1.6451 0.9661
3.9810 5.6605 -1.3452 0.9722
2.1959 5.6361 -1.1758 0.9757
-0.6358 5.6889 -1.1127 0.9769
-2.8652 5.5931 -1.2215 0.9747
-4.7372 5.4579 -1.4048 0.9710
-6.3286 5.7239 -1.6587 0.9658
-8.1263 5.7349 -1.9333 0.9603
-10.6414 5.7288 -2.3492 0.9519
-11.7024 3.0185 -2.3492 0.9519
-11.9936 1.5892 -2.3517 0.9519
-12.7912 -1.4085 -2.5014 0.9489
-8.6216 -2.0222 -1.7213 0.9646
-6.5149 -3.3241 -1.4217 0.9706
-10.6750 -7.1862 -2.5014 0.9489
-8.6474 -9.5299 -2.5014 0.9489
-4.7106 -11.9753 -2.5014 0.9489
1.3878 -12.7934 -2.5014 0.9489
2.9182 -12.5332 -2.5014 0.9489
7.1688 -10.6867 -2.5014 0.9489
9.5158 -8.6629 -2.5014 0.9489
12.7514 -1.7318 -2.5014 0.9489
12.5100 1.3365 -2.4455 0.9500
11.7751 2.7215 -2.3492 0.9519
11.3617 4.1195 -2.3492 0.9519
10.7830 5.4576 -2.3492 0.9519
10.0474 6.7163 -2.3492 0.9519
4.4854 11.2950 -2.3623 0.9517
1.4936 5.6758 -1.1408 0.9764
0.0904 5.6844 -1.1051 0.9771
-0.5984 5.6887 -1.1119 0.9770
-2.8210 5.5961 -1.2182 0.9748
-3.6876 5.5359 -1.2929 0.9733
-6.2460 5.7233 -1.6467 0.9661
-11.6826 3.0946 -2.3492 0.9519
-11.9702 1.6653 -2.3492 0.9519
-12.8000 -1.3254 -2.5014 0.9489
-8.7876 -2.0009 -1.7519 0.9639
-6.5178 -3.2723 -1.4176 0.9707
-9.7866 -8.3559 -2.5014 0.9489
-8.7092 -9.4735 -2.5014 0.9489
-6.1918 -11.2809 -2.5014 0.9489
-3.3152 -12.4341 -2.5014 0.9489
-1.7939 -12.7428 -2.5014 0.9489
4.3274 -12.1191 -2.5014 0.9489
5.7552 -11.5098 -2.5014 0.9489
7.0993 -10.7331 -2.5014 0.9489
9.4594 -8.7246 -2.5014 0.9489
11.2709 -6.2101 -2.5014 0.9489
12.7399 -1.8146 -2.5014 0.9489
11.7925 2.6448 -2.3492 0.9519
11.3882 4.0456 -2.3492 0.9519
10.0908 6.6509 -2.3492 0.9519
6.8556 5.8150 -1.7474 0.9640
5.7320 6.1945 -1.6405 0.9662
4.0915 5.6598 -1.3575 0.9719
3.1337 5.6657 -1.2585 0.9740
4.5586 11.2650 -2.3622 0.9517
1.5330 5.6755 -1.1428 0.9763
0.8185 5.6799 -1.1155 0.9769
0.1274 5.6842 -1.1052 0.9771
-0.5610 5.6884 -1.1111 0.9770
-1.2671 5.6928 -1.1336 0.9765
-1.9965 5.6491 -1.1646 0.9759
-3.6382 5.5395 -1.2882 0.9734
-4.6216 5.4667 -1.3915 0.9713
-7.9042 5.7336 -1.8981 0.9610
-11.6622 3.1705 -2.3492 0.9519
-11.9591 1.7431 -2.3492 0.9519
-12.8648 0.3092 -2.5014 0.9489
-12.8084 -1.2421 -2.5014 0.9489
-6.6809 -2.3489 -1.3766 0.9716
-6.5205 -3.2208 -1.4136 0.9708
-10.7676 -7.0468 -2.5014 0.9489
-9.8407 -8.2921 -2.5014 0.9489
-8.7706 -9.4167 -2.5014 0.9489
-6.2650 -11.2405 -2.5014 0.9489
-1.8768 -12.7309 -2.5014 0.9489
4.2485 -12.1469 -2.5014 0.9489
7.0293 -10.7790 -2.5014 0.9489
8.2761 -9.8541 -2.5014 0.9489
11.2302 -6.2833 -2.5014 0.9489
12.4068 -3.4162 -2.5014 0.9489
12.8637 -0.3510 -2.5014 0.9489
12.6226 1.1827 -2.4643 0.9497
11.8095 2.5681 -2.3492 0.9519
10.8530 5.3170 -2.3492 0.9519
6.9088 5.7833 -1.7514 0.9640
3.1819 5.6654 -1.2630 0.9739
4.6314 11.2346 -2.3621 0.9517
1.5726 5.6753 -1.1447 0.9763
0.8561 5.6797 -1.1165 0.9769
-1.9561 5.6516 -1.1625 0.9759
-2.7332 5.6020 -1.2116 0.9749
-4.5647 5.4710 -1.3850 0.9714
-6.0841 5.7224 -1.6235 0.9665
-10.5277 5.9352 -2.3492 0.9519
10.8270 0.4087 -2.5014 0.9565
9.7816 2.8036 -2.3492 0.9591
8.1540 6.0870 -2.3492 0.9591
6.0397 5.7630 -1.9273 0.9663
3.6091 5.6628 -1.5503 0.9728
1.9180 5.6732 -1.3826 0.9757
1.1823 5.6777 -1.3389 0.9765
-0.8997 5.6905 -1.3301 0.9766
-2.3461 5.5767 -1.3968 0.9755
-4.0557 5.4515 -1.5687 0.9725
-6.9432 5.7276 -2.0780 0.9637
-8.5719 5.4829 -2.3492 0.9591
-9.1697 4.4108 -2.3492 0.9591
-8.6644 2.9449 -2.1127 0.9631
-9.9583 2.0906 -2.3492 0.9591
-10.7944 0.9331 -2.5014 0.9565
-10.7045 -1.6746 -2.5014 0.9565
-6.9082 -8.3467 -2.5014 0.9565
-5.8529 -9.1177 -2.5014 0.9565
-2.2433 -10.5999 -2.5014 0.9565
-0.9506 -10.7929 -2.5014 0.9565
1.6572 -10.7072 -2.5014 0.9565
2.9344 -10.4297 -2.5014 0.9565
5.3428 -9.4257 -2.5014 0.9565
6.4389 -8.7138 -2.5014 0.9565
7.4413 -7.8751 -2.5014 0.9565
8.3354 -6.9218 -2.5014 0.9565
9.1082 -5.8677 -2.5014 0.9565
9.7485 -4.7283 -2.5014 0.9565
10.2469 -3.5200 -2.5014 0.9565
10.7913 -0.9682 -2.5014 0.9565
9.7996 2.7400 -2.3492 0.9591
9.3984 3.9000 -2.3492 0.9591
8.1934 6.0338 -2.3492 0.9591
1.2209 5.6775 -1.3407 0.9764
0.5191 5.6818 -1.3172 0.9769
-2.3066 5.5840 -1.3948 0.9755
-3.1070 5.5231 -1.4630 0.9743
-4.0039 5.4555 -1.5623 0.9726
-6.8513 5.7271 -2.0616 0.9640
-8.5361 5.5385 -2.3492 0.9591
-9.1409 4.4703 -2.3492 0.9591
-8.6635 3.0076 -2.1172 0.9631
-9.9445 2.1553 -2.3492 0.9591
-10.7881 1.0033 -2.5014 0.9565
-10.8304 -0.3031 -2.5014 0.9565
-8.7451 -6.3963 -2.5014 0.9565
-7.9113 -7.4028 -2.5014 0.9565
-6.9623 -8.3016 -2.5014 0.9565
-4.7757 -9.7254 -2.5014 0.9565
-1.0208 -10.7865 -2.5014 0.9565
0.2855 -10.8309 -2.5014 0.9565
1.5876 -10.7177 -2.5014 0.9565
2.8666 -10.4486 -2.5014 0.9565
5.2814 -9.4603 -2.5014 0.9565
6.3821 -8.7555 -2.5014 0.9565
7.3900 -7.9233 -2.5014 0.9565
10.2238 -3.5866 -2.5014 0.9565
10.7848 -1.0383 -2.5014 0.9565
10.3334 1.5135 -2.4111 0.9580
9.8172 2.6762 -2.3492 0.9591
7.3810 6.8617 -2.3267 0.9595
4.7746 5.6556 -1.7088 0.9701
2.0004 5.6727 -1.3887 0.9756
1.2595 5.6772 -1.3426 0.9764
0.5563 5.6815 -1.3180 0.9768
-0.1314 5.6858 -1.3130 0.9769
-1.5325 5.6578 -1.3533 0.9762
-4.8806 5.2671 -1.6578 0.9710
-6.7608 5.7265 -2.0455 0.9643
-9.1116 4.5296 -2.3492 0.9591
-10.7814 1.0734 -2.5014 0.9565
-10.8322 -0.2327 -2.5014 0.9565
-10.7253 -1.5353 -2.5014 0.9565
-6.2268 -2.5130 -1.5502 0.9728
-8.7865 -6.3393 -2.5014 0.9565
-7.9592 -7.3512 -2.5014 0.9565
-7.0161 -8.2561 -2.5014 0.9565
-3.6364 -10.2062 -2.5014 0.9565
0.2151 -10.8325 -2.5014 0.9565
2.7986 -10.4670 -2.5014 0.9565
4.0386 -10.0539 -2.5014 0.9565
8.2447 -7.0295 -2.5014 0.9565
9.6862 -4.8546 -2.5014 0.9565
10.7778 -1.1084 -2.5014 0.9565
10.4330 1.4589 -2.4321 0.9577
9.8344 2.6123 -2.3492 0.9591
9.4483 3.7775 -2.3492 0.9591
6.1166 5.6127 -1.9166 0.9665
2.8520 5.6675 -1.4648 0.9743
2.0418 5.6724 -1.3918 0.9756
-1.5012 5.6887 -1.3583 0.9761
-2.2278 5.5986 -1.3911 0.9756
-3.0167 5.5296 -1.4542 0.9745
-3.9015 5.4635 -1.5499 0.9728
-4.8320 5.2831 -1.6529 0.9710
-6.6718 5.7260 -2.0298 0.9646
-9.0820 4.5888 -2.3492 0.9591
-10.7733 1.1433 -2.5012 0.9565
-10.8335 -0.1623 -2.5014 0.9565
-10.7351 -1.4656 -2.5014 0.9565
-7.6573 -2.0074 -1.8276 0.9680
-6.2422 -2.4722 -1.5500 0.9728
-8.8275 -6.2821 -2.5014 0.9565
-7.0697 -8.2104 -2.5014 0.9565
-4.9018 -9.6624 -2.5014 0.9565
-3.7026 -10.1824 -2.5014 0.9565
-2.4496 -10.5541 -2.5014 0.9565
-1.1609 -10.7723 -2.5014 0.9565
5.1580 -9.5281 -2.5014 0.9565
6.2678 -8.8377 -2.5014 0.9565
7.2863 -8.0187 -2.5014 0.9565
9.6544 -4.9175 -2.5014 0.9565
10.1763 -3.7192 -2.5014 0.9565
10.5501 -2.4667 -2.5014 0.9565
10.8339 0.1270 -2.5014 0.9565
10.4755 1.3954 -2.4398 0.9575
9.8511 2.5483 -2.3492 0.9591
8.3095 5.8729 -2.3492 0.9591
7.5419 6.8307 -2.3492 0.9591
3.8189 5.6615 -1.5766 0.9724
2.8982 5.6672 -1.4695 0.9742
2.0835 5.6722 -1.3951 0.9755
0.6309 5.6811 -1.3196 0.9768
-0.0574 5.6853 -1.3126 0.9769
-0.7485 5.6896 -1.3249 0.9767
-2.1886 5.6059 -1.3894 0.9756
-2.9719 5.5328 -1.4500 0.9745
-4.7837 5.2990 -1.6481 0.9711
-9.0520 4.6477 -2.3492 0.9591
-9.5457 3.5239 -2.3492 0.9591
-7.8391 -2.0007 -1.8678 0.9673
-6.2574 -2.4313 -1.5499 0.9728
-8.0541 -7.2471 -2.5014 0.9565
-7.1229 -8.1642 -2.5014 0.9565
-4.9645 -9.6304 -2.5014 0.9565
-2.5182 -10.5380 -2.5014 0.9565
-1.2309 -10.7645 -2.5014 0.9565
1.3783 -10.7466 -2.5014 0.9565
3.9075 -10.1055 -2.5014 0.9565
5.0959 -9.5615 -2.5014 0.9565
8.9526 -6.1025 -2.5014 0.9565
9.6223 -4.9801 -2.5014 0.9565
10.5339 -2.5353 -2.5014 0.9565
10.7625 -1.2484 -2.5014 0.9565
10.8345 0.0566 -2.5014 0.9565
10.5179 1.3316 -2.4476 0.9574
9.4966 3.6543 -2.3492 0.9591
8.3475 5.8187 -2.3492 0.9591
5.6011 6.3780 -1.9597 0.9658
2.1254 5.6719 -1.3984 0.9754
1.3760 5.6765 -1.3485 0.9763
-0.7109 5.6893 -1.3237 0.9767
-2.1495 5.6131 -1.3877 0.9756
-2.9274 5.5360 -1.4458 0.9746
-3.8006 5.4713 -1.5380 0.9730
-4.7356 5.3148 -1.6434 0.9712
-6.4976 5.7249 -1.9993 0.9651
-9.5226 3.5859 -2.3492 0.9591
-10.7474 1.2821 -2.4988 0.9565
-10.8346 -0.0214 -2.5014 0.9565
-10.7532 -1.3258 -2.5014 0.9565
-8.9085 -6.1668 -2.5014 0.9565
-5.0270 -9.5979 -2.5014 0.9565
-1.3009 -10.7563 -2.5014 0.9565
1.3084 -10.7554 -2.5014 0.9565
3.8417 -10.1307 -2.5014 0.9565
6.1523 -8.9185 -2.5014 0.9565
7.1814 -8.1128 -2.5014 0.9565
8.9127 -6.1606 -2.5014 0.9565
9.5897 -5.0426 -2.5014 0.9565
10.1271 -3.8512 -2.5014 0.9565
10.5172 -2.6037 -2.5014 0.9565
10.8347 -0.0139 -2.5014 0.9565
9.5201 3.5925 -2.3492 0.9591
9.0183 4.7127 -2.3492 0.9591
8.3852 5.7643 -2.3492 0.9591
3.9265 5.6608 -1.5905 0.9721
2.9915 5.6666 -1.4793 0.9740
1.4151 5.6763 -1.3506 0.9763
0.7058 5.6806 -1.3216 0.9768
-1.3843 5.6935 -1.3527 0.9762
-2.8832 5.5392 -1.4417 0.9747
-8.9908 4.7650 -2.3492 0.9591
-9.8692 2.4774 -2.3492 0.9591
-6.2874 -2.3493 -1.5496 0.9728
-6.0071 -3.1143 -1.5621 0.9726
-8.9484 -6.1087 -2.5014 0.9565
-5.0893 -9.5650 -2.5014 0.9565
-3.9005 -10.1082 -2.5014 0.9565
-2.6550 -10.5043 -2.5014 0.9565
-1.3708 -10.7476 -2.5014 0.9565
-0.0667 -10.8345 -2.5014 0.9565
1.2384 -10.7637 -2.5014 0.9565
4.9712 -9.6269 -2.5014 0.9565
7.1285 -8.1593 -2.5014 0.9565
8.0592 -7.2415 -2.5014 0.9565
9.5567 -5.1048 -2.5014 0.9565
10.1019 -3.9169 -2.5014 0.9565
10.5000 -2.6721 -2.5014 0.9565
10.8343 -0.0842 -2.5014 0.9565
9.5433 3.5306 -2.3492 0.9591
6.8429 5.9589 -2.0949 0.9634
5.6667 6.2860 -1.9539 0.9659
2.1959 5.6361 -1.3965 0.9755
0.7433 5.6804 -1.3226 0.9768
-0.6358 5.6889 -1.3216 0.9768
-2.0716 5.6276 -1.3845 0.9757
-8.3136 5.8671 -2.3492 0.9591
-8.9596 4.8234 -2.3492 0.9591
-9.4752 3.7094 -2.3492 0.9591
-10.7198 1.4204 -2.4965 0.9566
-10.8340 0.1195 -2.5014 0.9565
-10.7696 -1.1859 -2.5014 0.9565
-8.1939 -7.0887 -2.5014 0.9565
-7.2808 -8.0238 -2.5014 0.9565
-6.2616 -8.8421 -2.5014 0.9565
-3.9661 -10.0827 -2.5014 0.9565
-0.1371 -10.8338 -2.5014 0.9565
1.1684 -10.7715 -2.5014 0.9565
8.8319 -6.2760 -2.5014 0.9565
10.0762 -3.9825 -2.5014 0.9565
10.4824 -2.7402 -2.5014 0.9565
10.8336 -0.1547 -2.5014 0.9565
8.4594 5.6549 -2.3492 0.9591
6.8425 5.8807 -2.0830 0.9636
5.6994 6.2402 -1.9511 0.9659
4.0360 5.6602 -1.6049 0.9719
3.0860 5.6660 -1.4895 0.9739
3.7657 9.4826 -2.3555 0.9590
0.7808 5.6802 -1.3237 0.9767
-0.5984 5.6887 -1.3206 0.9768
-1.3060 5.6930 -1.3485 0.9763
-2.7954 5.5453 -1.4337 0.9748
-8.2753 5.9210 -2.3492 0.9591
-9.4509 3.7709 -2.3492 0.9591
-9.8362 2.6055 -2.3492 0.9591
-10.7054 1.4893 -2.4953 0.9566
-10.8330 0.1899 -2.5014 0.9565
-10.7770 -1.1159 -2.5014 0.9565
-8.7777 -1.9987 -2.0784 0.9637
-9.0270 -5.9919 -2.5014 0.9565
-7.3328 -7.9763 -2.5014 0.9565
-6.3190 -8.8012 -2.5014 0.9565
-4.0316 -10.0567 -2.5014 0.9565
-1.5104 -10.7289 -2.5014 0.9565
1.0984 -10.7789 -2.5014 0.9565
3.6434 -10.2037 -2.5014 0.9565
4.8456 -9.6907 -2.5014 0.9565
5.9772 -9.0367 -2.5014 0.9565
7.9643 -7.3457 -2.5014 0.9565
9.4895 -5.2286 -2.5014 0.9565
10.0501 -4.0479 -2.5014 0.9565
10.4644 -2.8083 -2.5014 0.9565
10.7264 -1.5278 -2.5014 0.9565
9.9288 2.2268 -2.3492 0.9591
9.5884 3.4062 -2.3492 0.9591
9.1085 4.5360 -2.3492 0.9591
8.4960 5.5997 -2.3492 0.9591
6.8556 5.8150 -2.0754 0.9638
4.0915 5.6598 -1.6123 0.9717
3.1337 5.6657 -1.4948 0.9738
3.8272 9.4576 -2.3555 0.9590
1.5330 5.6755 -1.3573 0.9762
0.1274 5.6842 -1.3126 0.9769
-0.5610 5.6884 -1.3196 0.9768
-1.2671 5.6928 -1.3464 0.9763
-1.9940 5.6420 -1.3815 0.9757
-3.6033 5.4863 -1.5154 0.9734
-4.5456 5.3768 -1.6255 0.9715
-6.1645 5.7229 -1.9419 0.9661
-7.8813 5.7170 -2.2478 0.9608
-9.4262 3.8323 -2.3492 0.9591
-9.8190 2.6694 -2.3492 0.9591
-10.7841 -1.0458 -2.5014 0.9565
-9.0489 -1.9987 -2.1395 0.9627
-6.3310 -2.2259 -1.5493 0.9728
-8.2854 -6.9815 -2.5014 0.9565
-7.3844 -7.9284 -2.5014 0.9565
-6.3760 -8.7599 -2.5014 0.9565
-0.2779 -10.8311 -2.5014 0.9565
2.3195 -10.5835 -2.5014 0.9565
4.7825 -9.7220 -2.5014 0.9565
8.7496 -6.3902 -2.5014 0.9565
9.4553 -5.2902 -2.5014 0.9565
10.4459 -2.8763 -2.5014 0.9565
10.8306 -0.2955 -2.5014 0.9565
9.6103 3.3438 -2.3492 0.9591
8.5322 5.5444 -2.3492 0.9591
6.9088 5.7833 -2.0801 0.9637
5.7645 6.1489 -1.9459 0.9660
