ply
format ascii 1.0
element vertex 537
property float32 x
property float32 y
property float32 z
property float32 I
end_header
48.7879 -29.1243 15.2248 0.7903
19.3841 1.2673 5.2050 0.9227
23.7614 18.7768 8.1148 0.8821
3.3950 5.6641 1.7694 0.9730
2.5269 5.6694 1.6632 0.9746
1.7464 5.6742 1.5908 0.9757
-1.0603 5.6915 1.5513 0.9763
-3.4487 5.6723 1.7788 0.9729
-32.8767 19.7857 10.2815 0.8531
-68.4672 -21.4121 19.2219 0.7430
-19.7512 -43.8924 12.8968 0.8193
48.7669 -29.5866 15.2838 0.7896
83.9072 15.1673 22.8472 0.7025
23.7597 18.5011 8.0688 0.8828
23.2882 23.1442 8.7975 0.8729
3.4500 5.6638 1.7770 0.9729
2.5755 5.6691 1.6684 0.9745
28.8306 -47.0402 12.7375 0.7973
48.7234 -48.1583 15.8161 0.7549
83.5337 15.7171 19.6237 0.7054
48.8671 15.4743 11.8340 0.8102
27.6196 16.8600 7.4706 0.8756
1.0210 5.6787 1.3321 0.9766
0.3254 5.6830 1.3142 0.9769
-1.7925 5.6960 1.3786 0.9758
-4.4977 5.7126 1.6786 0.9706
-5.7462 5.7203 1.8719 0.9673
-25.3055 19.7391 7.4094 0.8766
-32.8767 19.7857 8.8587 0.8543
-70.0333 -21.9018 16.9407 0.7399
-60.5089 -27.2972 15.3253 0.7615
-28.5235 -36.4327 10.6823 0.8270
-20.6331 -34.1466 9.2108 0.8489
20.1985 -44.9876 11.3850 0.8167
28.3391 -46.9887 12.6684 0.7983
48.3472 -29.3320 13.0554 0.7928
83.5271 15.0986 19.5963 0.7058
48.8647 15.0902 11.8070 0.8106
36.2702 16.2067 9.1716 0.8495
3.4500 5.6638 1.5311 0.9731
2.5755 5.6691 1.4376 0.9748
48.6735 -48.1090 13.3028 0.7566
48.7930 -29.1274 11.0458 0.7933
48.8671 15.4743 9.9637 0.8115
35.5944 16.2109 7.6026 0.8527
24.2966 24.4940 6.7062 0.8689
2.5269 5.6694 1.2065 0.9750
1.0210 5.6787 1.1215 0.9768
-1.0603 5.6915 1.1253 0.9767
-1.7925 5.6960 1.1607 0.9760
-3.4487 5.6723 1.2904 0.9733
-25.3055 19.7391 6.2384 0.8774
-69.0004 -21.5788 14.0529 0.7448
-61.2425 -27.6282 13.0596 0.7605
-27.0501 -34.5508 8.5294 0.8363
-16.4256 -36.5020 7.7805 0.8495
-13.5342 -43.4207 8.8406 0.8308
20.2378 -45.0752 9.6043 0.8176
27.3269 -45.3104 10.2853 0.8060
38.8878 -49.7573 12.2753 0.7731
36.2702 16.2068 7.7220 0.8505
23.7597 18.5011 5.8534 0.8845
24.2944 24.1442 6.6578 0.8697
3.4500 5.6638 1.2891 0.9733
35.6533 -44.9527 9.0873 0.7927
48.9089 -48.3417 10.8917 0.7569
53.1403 -9.4561 8.5488 0.8037
53.2089 -2.9512 8.4404 0.8059
53.2392 3.4807 8.4503 0.8057
53.1312 9.9968 8.5628 0.8034
35.5944 16.2109 6.1947 0.8535
27.4574 16.7610 5.0951 0.8778
23.7614 18.7768 4.7967 0.8846
4.3684 5.6210 1.1275 0.9716
1.7464 5.6742 0.9403 0.9762
1.0210 5.6787 0.9138 0.9769
-1.7925 5.6960 0.9458 0.9761
-3.4487 5.6723 1.0514 0.9735
-4.4977 5.7126 1.1516 0.9710
-9.5438 5.7436 1.7642 0.9559
-89.5971 5.2907 14.2155 0.6952
-76.2095 -34.3802 13.2418 0.7128
-68.7826 -68.8476 15.4139 0.6743
-28.5235 -36.4327 7.3285 0.8291
-15.5768 -34.6158 6.0121 0.8575
-13.5342 -43.4208 7.2035 0.8318
-16.0156 -87.2890 14.0560 0.6981
27.2000 -45.1000 8.3417 0.8079
35.6885 -45.6637 9.1792 0.7908
48.6257 -38.2098 9.7949 0.7784
54.7869 -24.7715 9.5231 0.7839
52.9676 -16.6138 8.7922 0.7987
53.1288 9.6037 8.5512 0.8036
48.8647 15.0902 8.1001 0.8129
36.2702 16.2068 6.2920 0.8514
27.8994 16.7583 5.1547 0.8765
3.4500 5.6638 1.0504 0.9735
2.5755 5.6691 0.9862 0.9751
27.6540 -45.1206 6.4979 0.8079
45.8256 -45.2941 7.9113 0.7713
48.5435 -37.5872 7.5383 0.7808
49.0422 -29.2761 7.0129 0.7944
49.7883 -22.0841 6.6876 0.8029
52.9701 -16.1997 6.8013 0.7999
53.0117 -9.4331 6.6113 0.8049
23.2904 23.4796 4.0607 0.8752
3.3950 5.6641 0.8108 0.9737
2.5269 5.6694 0.7621 0.9753
1.7464 5.6742 0.7290 0.9764
1.0210 5.6787 0.7084 0.9770
-1.7925 5.6960 0.7332 0.9762
-3.4487 5.6723 0.8151 0.9736
-4.4977 5.7126 0.8927 0.9711
-5.7462 5.7203 0.9955 0.9679
-25.3055 19.7391 3.9406 0.8787
-9.5438 5.7436 1.3677 0.9561
-12.8707 5.7641 1.7316 0.9448
-91.5777 -16.8921 11.4340 0.6871
-76.0746 -34.3193 10.2473 0.7144
-34.4729 -34.5055 5.9888 0.8215
-27.0501 -34.5508 5.3878 0.8379
-11.5878 -19.1771 2.7511 0.9137
-12.9470 -41.5371 5.3421 0.8392
13.2502 -42.6361 5.4820 0.8353
19.9862 -44.5148 5.9913 0.8215
27.2108 -45.1179 6.4693 0.8087
48.6257 -38.2098 7.5932 0.7794
49.5393 -22.3988 6.6755 0.8032
53.0093 -9.8241 6.6196 0.8047
53.0493 -3.3228 6.5264 0.8072
48.9649 15.1211 6.2923 0.8134
23.8602 18.5794 3.7131 0.8853
23.2883 23.1443 4.0314 0.8761
5.4275 6.8817 1.0761 0.9653
2.5755 5.6691 0.7645 0.9752
35.7181 -45.0344 5.0288 0.7939
45.6654 -45.1358 5.6174 0.7727
48.5938 -29.0084 4.9513 0.7967
52.9774 -16.2019 4.8468 0.8006
53.1116 -9.4509 4.7197 0.8052
35.5944 16.2109 3.4219 0.8547
27.4574 16.7610 2.8144 0.8788
23.7614 18.7768 2.6496 0.8855
23.2904 23.4796 2.8934 0.8756
4.3684 5.6210 0.6228 0.9718
2.5269 5.6694 0.5430 0.9754
1.7464 5.6742 0.5194 0.9764
-1.0603 5.6915 0.5065 0.9770
-1.7925 5.6960 0.5224 0.9763
-2.5841 5.7009 0.5476 0.9752
-3.4487 5.6723 0.5808 0.9737
-4.4977 5.7126 0.6361 0.9712
-25.3055 19.7391 2.8078 0.8791
-18.7256 5.8001 1.7151 0.9243
-11.5847 -19.1720 1.9598 0.9140
-16.4256 -36.5020 3.5020 0.8515
-13.5342 -43.4208 3.9791 0.8331
13.3273 -42.8842 3.9289 0.8350
20.3383 -45.2990 4.3443 0.8192
27.2109 -45.1182 4.6096 0.8093
48.5909 -29.4798 4.9724 0.7960
52.9749 -16.6161 4.8573 0.8002
53.2289 9.6218 4.7324 0.8048
18.0497 5.5740 1.6527 0.9270
27.8994 16.7583 2.8474 0.8775
23.7597 18.5011 2.6346 0.8861
23.2883 23.1443 2.8725 0.8765
3.4500 5.6638 0.5802 0.9737
2.5755 5.6691 0.5448 0.9753
48.2082 -21.3833 2.7639 0.8096
57.9975 -10.3203 3.0873 0.7898
57.9504 -3.2142 3.0417 0.7926
57.9045 3.7857 3.0411 0.7926
17.6110 5.5767 0.9681 0.9287
35.5944 16.2109 2.0498 0.8550
2.5269 5.6694 0.3253 0.9754
1.7464 5.6742 0.3111 0.9765
-1.7925 5.6960 0.3129 0.9764
-4.4931 5.7068 0.3807 0.9713
-5.7403 5.7145 0.4245 0.9681
-12.8707 5.7641 0.7391 0.9451
-32.3954 5.8841 1.7255 0.8764
-61.3944 -27.6967 3.5298 0.7635
-27.0501 -34.5508 2.2997 0.8388
10.8021 -59.1541 3.1514 0.7860
23.1587 -29.6317 1.9710 0.8602
48.6258 -38.2099 3.2411 0.7806
48.3004 -21.8386 2.7780 0.8087
58.0504 -18.2080 3.1884 0.7837
58.0004 -10.7490 3.0914 0.7896
57.9532 -3.6300 3.0431 0.7925
57.9072 3.3705 3.0399 0.7927
57.8611 10.4591 3.0815 0.7902
36.2702 16.2068 2.0820 0.8529
27.8994 16.7583 1.7056 0.8778
5.2637 6.6739 0.4455 0.9665
3.8666 6.3476 0.3895 0.9707
45.5628 -35.2793 1.0058 0.7941
37.3987 -22.3254 0.7603 0.8401
56.2393 10.5816 0.9989 0.7954
17.5809 5.5672 0.3219 0.9289
23.4407 10.6757 0.4496 0.9021
23.4570 14.3190 0.4797 0.8959
24.2966 24.4941 0.6022 0.8711
3.8390 6.4049 0.1303 0.9706
1.7464 5.6742 0.1036 0.9765
1.0210 5.6787 0.1007 0.9772
-1.0603 5.6915 0.1011 0.9771
-2.5841 5.7009 0.1093 0.9753
-3.4487 5.6723 0.1159 0.9738
-5.7037 5.6780 0.1405 0.9683
-18.7256 5.8001 0.3422 0.9246
-28.8774 -36.8848 0.8177 0.8291
-11.5824 -19.1681 0.3909 0.9143
-12.5441 -40.2446 0.7358 0.8448
20.4999 -45.6590 0.8736 0.8185
23.1587 -29.6317 0.6564 0.8603
37.3764 -22.6760 0.7631 0.8395
23.4534 14.0877 0.4776 0.8963
23.8602 18.5794 0.5279 0.8861
24.2945 24.1443 0.5979 0.8719
2.5755 5.6691 0.1087 0.9754
23.1091 -37.7050 -0.7719 0.8378
23.1613 -29.2025 -0.6506 0.8615
35.2657 -27.3062 -0.7785 0.8366
62.6964 -27.8097 -1.1973 0.7600
85.9950 5.6222 -1.5042 0.7084
57.4086 10.8016 -1.0196 0.7916
23.7614 18.7768 -0.5286 0.8859
4.3684 5.6210 -0.1243 0.9719
2.5269 5.6694 -0.1083 0.9755
1.7464 5.6742 -0.1036 0.9765
1.0210 5.6787 -0.1007 0.9772
0.3254 5.6830 -0.0994 0.9775
-4.4663 5.6728 -0.1260 0.9715
-5.6857 5.6601 -0.1400 0.9684
-25.3055 19.7391 -0.5602 0.8795
-9.5438 5.7436 -0.1944 0.9564
-12.7632 5.7159 -0.2441 0.9456
-32.3954 5.8841 -0.5747 0.8766
-98.4087 -6.0807 -1.7210 0.6741
-84.2486 -15.5401 -1.4954 0.7098
-84.1320 -26.3110 -1.5387 0.7028
-61.1800 -27.6000 -1.1715 0.7645
-68.9499 -54.0866 -1.5296 0.7043
-17.3734 -22.1909 -0.4919 0.8934
-11.5822 -19.1679 -0.3909 0.9143
-9.1468 -49.8521 -0.8847 0.8165
17.9104 -57.6316 -1.0534 0.7855
19.1796 -42.7182 -0.8174 0.8292
23.1587 -29.6317 -0.6564 0.8603
27.1850 -27.2566 -0.6719 0.8573
45.1079 -27.3667 -0.9209 0.8097
61.5075 -27.8101 -1.1783 0.7633
85.9912 5.0051 -1.5035 0.7085
38.5991 6.9773 -0.6847 0.8548
38.4778 17.1932 -0.7356 0.8448
24.2945 24.1443 -0.5979 0.8719
20.5030 -33.4528 -2.0563 0.8546
26.1201 -25.8172 -1.9247 0.8632
37.8833 -22.6147 -2.3122 0.8380
34.0101 -15.0855 -1.9499 0.8615
45.6500 -13.9610 -2.5018 0.8260
46.9989 -8.3633 -2.5018 0.8260
44.7375 2.9249 -2.3496 0.8356
17.2979 5.4776 -0.9509 0.9299
17.9660 10.9671 -1.1031 0.9191
18.1266 14.3241 -1.2108 0.9116
23.7935 23.9868 -1.7707 0.8734
4.3684 5.6210 -0.3731 0.9719
3.8390 6.4049 -0.3913 0.9705
0.3254 5.6830 -0.2983 0.9775
-0.3616 5.6872 -0.2987 0.9774
-4.4557 5.6593 -0.3775 0.9716
-5.6678 5.6423 -0.4191 0.9685
-9.5438 5.7436 -0.5838 0.9564
-12.7066 5.6906 -0.7297 0.9458
-18.7256 5.8001 -1.0274 0.9245
-44.0892 -8.1325 -2.3496 0.8356
-45.5611 -14.2485 -2.5018 0.8260
-32.6563 -25.6167 -2.1752 0.8468
-11.5673 -19.1432 -1.1722 0.9143
-9.4790 -30.4106 -1.6694 0.8802
-2.8991 -47.6490 -2.5018 0.8260
8.5754 -46.9606 -2.5018 0.8260
13.3052 -42.8132 -2.3496 0.8356
18.3631 -40.8998 -2.3496 0.8356
23.0016 -38.1387 -2.3341 0.8366
23.2627 -29.7648 -1.9798 0.8596
46.9379 -8.6989 -2.5018 0.8260
47.6438 -2.9842 -2.5018 0.8260
44.7572 2.6051 -2.3496 0.8356
17.7991 5.4967 -0.9763 0.9281
17.9044 8.0003 -1.0277 0.9245
17.9621 10.7892 -1.0981 0.9195
18.1222 14.1113 -1.2037 0.9121
3.8727 6.3577 -0.3901 0.9706
2.5755 5.6691 -0.3263 0.9754
14.0337 -22.8976 -2.3496 0.8978
15.6534 -19.7362 -2.2039 0.9038
24.5535 -14.6574 -2.5018 0.8915
26.1396 -11.5945 -2.5018 0.8915
27.3454 -8.3630 -2.5018 0.8915
28.1534 -5.0097 -2.5018 0.8915
28.5518 -1.5836 -2.5018 0.8915
26.3929 4.9659 -2.3496 0.8978
16.8087 5.3227 -1.5425 0.9317
12.3576 5.6281 -1.1880 0.9469
18.4086 11.2373 -1.8869 0.9170
3.8390 6.4049 -0.6533 0.9705
1.7464 5.6742 -0.5194 0.9764
0.3254 5.6830 -0.4980 0.9774
-0.3616 5.6872 -0.4986 0.9774
-2.5841 5.7009 -0.5476 0.9752
-4.4557 5.6593 -0.6302 0.9715
-5.6500 5.6245 -0.6975 0.9685
-7.1270 5.5593 -0.7908 0.9644
-9.5438 5.7436 -0.9745 0.9563
-26.8093 1.5831 -2.3496 0.8978
-28.5412 -1.7636 -2.5018 0.8915
-28.1213 -5.1871 -2.5018 0.8915
-27.2922 -8.5352 -2.5018 0.8915
-26.0660 -11.7591 -2.5018 0.8915
-11.4817 -19.0016 -1.9423 0.9147
-11.0206 -24.4906 -2.3496 0.8978
-7.9917 -25.6393 -2.3496 0.8978
-1.7366 -28.5429 -2.5018 0.8915
8.4864 -27.3074 -2.5018 0.8915
11.7125 -26.0869 -2.5018 0.8915
18.9651 -19.0150 -2.3496 0.8978
24.4481 -14.8325 -2.5018 0.8915
26.0561 -11.7810 -2.5018 0.8915
28.1169 -5.2108 -2.5018 0.8915
28.5397 -1.7876 -2.5018 0.8915
17.2789 5.3360 -1.5821 0.9300
18.4037 11.0545 -1.8783 0.9174
18.5014 14.4066 -2.0515 0.9101
19.3951 19.2752 -2.3923 0.8960
2.5755 5.6691 -0.5448 0.9753
10.6473 -17.3723 -2.5018 0.9212
12.6615 -15.9640 -2.5018 0.9212
14.4914 -14.3234 -2.5018 0.9212
16.1106 -12.4744 -2.5018 0.9212
17.4953 -10.4439 -2.5018 0.9212
20.0604 -3.5696 -2.5018 0.9212
20.3077 1.3277 -2.4988 0.9213
18.8059 3.5384 -2.3496 0.9258
9.2512 5.6472 -1.3308 0.9573
15.1127 11.9424 -2.3650 0.9253
4.3684 5.6210 -0.8741 0.9717
1.7464 5.6742 -0.7290 0.9764
1.0210 5.6787 -0.7084 0.9770
0.3254 5.6830 -0.6989 0.9773
-0.3616 5.6872 -0.6997 0.9773
-1.0603 5.6915 -0.7109 0.9769
-1.7925 5.6960 -0.7332 0.9762
-4.4557 5.6593 -0.8844 0.9714
-5.6322 5.6068 -0.9758 0.9685
-7.0611 5.5079 -1.0996 0.9646
-18.2792 5.6618 -2.3496 0.9258
-19.1679 1.1319 -2.3576 0.9255
-18.5730 -8.3788 -2.5018 0.9212
-17.4291 -10.5541 -2.5018 0.9212
-16.0316 -12.5758 -2.5018 0.9212
-14.4008 -14.4145 -2.5018 0.9212
-12.5606 -16.0435 -2.5018 0.9212
-6.0633 -19.4524 -2.5018 0.9212
-3.6771 -20.0409 -2.5018 0.9212
1.2203 -20.3389 -2.5018 0.9212
6.0469 -19.4575 -2.5018 0.9212
10.5229 -17.4479 -2.5018 0.9212
12.5471 -16.0540 -2.5018 0.9212
20.3356 -1.2737 -2.5018 0.9212
18.8307 3.4039 -2.3496 0.9258
18.2839 5.6464 -2.3496 0.9258
17.4717 7.8069 -2.3497 0.9258
9.4176 5.6569 -1.3489 0.9567
15.1951 11.8321 -2.3646 0.9253
13.6983 13.6136 -2.3713 0.9251
5.5123 6.9891 -1.0929 0.9648
3.8727 6.3577 -0.9140 0.9704
2.5755 5.6691 -0.7645 0.9752
8.2541 -13.4675 -2.5018 0.9380
9.8156 -12.3758 -2.5018 0.9380
11.2342 -11.1039 -2.5018 0.9380
12.4894 -9.6705 -2.5018 0.9380
14.4390 -6.4046 -2.5018 0.9380
15.1051 -4.6196 -2.5018 0.9380
15.5514 -2.7673 -2.5018 0.9380
15.7715 -0.8748 -2.5018 0.9380
14.8426 0.9704 -2.3559 0.9415
14.5789 2.7431 -2.3496 0.9417
14.1426 4.4784 -2.3496 0.9417
11.6657 9.2185 -2.3549 0.9416
5.6251 5.6708 -1.2651 0.9682
1.7464 5.6742 -0.9403 0.9762
1.0210 5.6787 -0.9138 0.9769
-1.0603 5.6915 -0.9170 0.9768
-1.7925 5.6960 -0.9458 0.9761
-4.4354 5.6335 -1.1356 0.9714
-5.5765 5.5513 -1.2463 0.9686
-9.5438 5.7436 -1.7642 0.9559
-14.1706 4.3892 -2.3496 0.9417
-14.5960 2.6511 -2.3496 0.9417
-15.7682 0.9311 -2.5018 0.9380
-15.5337 -2.8653 -2.5018 0.9380
-7.6673 -2.3978 -1.2724 0.9680
-13.5116 -8.1818 -2.5018 0.9380
-11.1640 -11.1745 -2.5018 0.9380
-8.1690 -13.5193 -2.5018 0.9380
-6.4819 -14.4045 -2.5018 0.9380
-4.7004 -15.0801 -2.5018 0.9380
-2.8506 -15.5363 -2.5018 0.9380
-0.9593 -15.7666 -2.5018 0.9380
4.6877 -15.0841 -2.5018 0.9380
6.4698 -14.4099 -2.5018 0.9380
12.4200 -9.7595 -2.5018 0.9380
13.5047 -8.1932 -2.5018 0.9380
15.5312 -2.8784 -2.5018 0.9380
15.7648 -0.9875 -2.5018 0.9380
14.5982 2.6388 -2.3496 0.9417
14.1743 4.3772 -2.3496 0.9417
11.7297 9.1337 -2.3546 0.9416
6.7256 -10.9736 -2.5018 0.9489
7.9979 -10.0840 -2.5018 0.9489
10.1766 -7.8797 -2.5018 0.9489
11.0513 -6.5971 -2.5018 0.9489
11.7652 -5.2186 -2.5018 0.9489
12.3079 -3.7641 -2.5018 0.9489
11.8792 2.2351 -2.3496 0.9519
4.3684 5.6210 -1.3838 0.9714
3.8390 6.4049 -1.4515 0.9700
1.7464 5.6742 -1.1540 0.9761
1.0210 5.6787 -1.1215 0.9768
0.3254 5.6830 -1.1065 0.9771
-0.3616 5.6872 -1.1077 0.9770
-3.4487 5.6723 -1.2904 0.9733
-5.5149 5.4900 -1.5126 0.9688
-6.7310 5.2504 -1.6593 0.9658
-11.0318 4.9405 -2.3496 0.9519
-11.5464 3.5764 -2.3496 0.9519
-11.8930 2.1602 -2.3496 0.9519
-12.8482 0.7587 -2.5018 0.9489
-12.6571 -2.3347 -2.5018 0.9489
-7.0512 -3.1810 -1.5036 0.9690
-11.0095 -6.6667 -2.5018 0.9489
-9.0966 -9.1052 -2.5018 0.9489
-7.9341 -10.1342 -2.5018 0.9489
-6.6563 -11.0157 -2.5018 0.9489
-5.2816 -11.7370 -2.5018 0.9489
0.7708 -12.8475 -2.5018 0.9489
2.3121 -12.6613 -2.5018 0.9489
5.2717 -11.7415 -2.5018 0.9489
6.6470 -11.0213 -2.5018 0.9489
7.9256 -10.1409 -2.5018 0.9489
9.0889 -9.1129 -2.5018 0.9489
10.1200 -7.9523 -2.5018 0.9489
11.0038 -6.6760 -2.5018 0.9489
12.2807 -3.8519 -2.5018 0.9489
12.6551 -2.3453 -2.5018 0.9489
12.8454 -0.8046 -2.5018 0.9489
11.8948 2.1501 -2.3496 0.9519
11.5494 3.5666 -2.3496 0.9519
10.3620 6.2241 -2.3496 0.9519
5.4213 6.8738 -1.7017 0.9650
2.5755 5.6691 -1.2104 0.9749
7.7071 -7.6177 -2.5018 0.9565
9.3047 -5.5545 -2.5018 0.9565
10.7957 0.7058 -2.4977 0.9566
9.2619 4.2182 -2.3496 0.9591
8.6866 5.3026 -2.3496 0.9591
7.9850 6.3099 -2.3496 0.9591
4.3684 5.6210 -1.6435 0.9712
2.5269 5.6694 -1.4330 0.9748
1.7464 5.6742 -1.3706 0.9759
-0.3616 5.6872 -1.3156 0.9769
-3.4487 5.6723 -1.5326 0.9731
-5.4539 5.4293 -1.7767 0.9689
-6.5744 5.1283 -1.9250 0.9664
-8.7199 5.2478 -2.3496 0.9591
-10.8176 0.6388 -2.5018 0.9565
-10.8158 -0.6683 -2.5018 0.9565
-10.6567 -1.9657 -2.5018 0.9565
-6.4252 -2.8986 -1.6273 0.9715
-7.6589 -7.6662 -2.5018 0.9565
-6.6802 -8.5325 -2.5018 0.9565
-5.6043 -9.2747 -2.5018 0.9565
-3.2247 -10.3455 -2.5018 0.9565
-1.9556 -10.6585 -2.5018 0.9565
0.6490 -10.8170 -2.5018 0.9565
1.9467 -10.6602 -2.5018 0.9565
5.5965 -9.2795 -2.5018 0.9565
7.6525 -7.6726 -2.5018 0.9565
9.8741 -4.4645 -2.5018 0.9565
10.3398 -3.2432 -2.5018 0.9565
10.8153 -0.6774 -2.5018 0.9565
10.8160 0.6296 -2.5013 0.9565
9.7241 3.0030 -2.3496 0.9591
7.2187 7.1740 -2.3496 0.9591
4.8790 -7.9606 -2.5018 0.9621
5.8020 -7.3153 -2.5018 0.9621
7.3825 -5.7162 -2.5018 0.9621
8.5349 -3.7857 -2.5018 0.9621
8.9286 -2.7306 -2.5018 0.9621
9.1924 -1.6357 -2.5018 0.9621
9.3225 -0.5171 -2.5018 0.9621
9.3169 0.6091 -2.5018 0.9621
8.6432 1.6263 -2.3566 0.9642
8.3597 2.6472 -2.3496 0.9643
1.7464 5.6742 -1.5908 0.9757
-0.3616 5.6872 -1.5270 0.9767
-1.0603 5.6915 -1.5513 0.9763
-1.7925 5.6960 -1.6000 0.9756
-3.4487 5.6723 -1.7788 0.9729
-5.3932 5.3689 -2.0391 0.9690
-6.9141 5.3932 -2.3496 0.9643
-7.5132 4.5215 -2.3496 0.9643
-9.3206 0.5504 -2.5018 0.9621
-9.3191 -0.5758 -2.5018 0.9621
-6.4246 -2.0092 -1.8037 0.9725
-6.0611 -2.7343 -1.7817 0.9728
-6.1186 -3.7051 -1.9166 0.9708
-7.3463 -5.7627 -2.5018 0.9621
-5.7557 -7.3517 -2.5018 0.9621
-4.8287 -7.9912 -2.5018 0.9621
-3.8314 -8.5145 -2.5018 0.9621
-2.7784 -8.9138 -2.5018 0.9621
-1.6850 -9.1835 -2.5018 0.9621
2.7709 -8.9162 -2.5018 0.9621
6.5935 -6.6108 -2.5018 0.9621
7.3414 -5.7688 -2.5018 0.9621
7.9826 -4.8430 -2.5018 0.9621
9.1805 -1.7014 -2.5018 0.9621
9.3211 0.5425 -2.5018 0.9621
8.3784 2.5874 -2.3496 0.9643
7.5170 4.5152 -2.3496 0.9643
6.2197 6.1812 -2.3496 0.9643
