ply
format ascii 1.0
element vertex 562
property float32 x
property float32 y
property float32 z
property float32 I
end_header
-67.6260 -24.2094 19.2465 0.7427
-19.5347 -27.2257 8.9787 0.8704
-16.0632 -29.3023 8.9539 0.8708
23.5912 -46.9096 14.0694 0.8046
34.1328 17.2199 10.2438 0.8536
25.3407 16.8999 8.1615 0.8815
25.3707 21.7670 8.9572 0.8707
3.0874 5.6660 1.7290 0.9736
2.2427 5.6481 1.6283 0.9751
1.4920 5.6758 1.5725 0.9760
0.7781 5.6802 1.5362 0.9765
0.0864 5.6844 1.5233 0.9767
-1.3129 5.6930 1.5655 0.9761
-2.0642 5.6977 1.6238 0.9752
-23.2061 21.1681 8.4164 0.8780
-27.0453 19.2498 8.8950 0.8716
-47.0663 -10.9171 12.9462 0.8187
-19.5593 -27.5541 9.0541 0.8694
-15.8448 -29.2551 8.9148 0.8713
-17.3063 -43.9082 12.6460 0.8225
43.5789 -85.5695 25.7304 0.6719
50.0914 -35.4620 16.4450 0.7756
-57.6832 -28.9177 14.8970 0.7673
-19.3927 -27.0277 7.6799 0.8724
-17.9047 -44.7592 11.1296 0.8204
22.7230 -45.1833 11.6762 0.8125
51.1983 -46.9406 16.0361 0.7519
50.0745 -35.8329 14.2157 0.7766
20.9826 2.1998 4.8708 0.9170
46.1296 16.6460 11.3220 0.8176
25.3407 16.8999 7.0320 0.8825
25.3707 21.7670 7.7176 0.8718
5.1699 5.6532 1.7686 0.9690
4.0395 5.6601 1.6054 0.9719
3.0874 5.6660 1.4897 0.9739
1.4920 5.6758 1.3549 0.9762
0.7781 5.6802 1.3236 0.9767
0.0864 5.6844 1.3125 0.9769
-0.6037 5.6887 1.3207 0.9768
-1.3129 5.6930 1.3488 0.9763
-2.0642 5.6977 1.3991 0.9754
-3.8175 5.7084 1.5854 0.9722
-4.9160 5.7152 1.7404 0.9695
-46.6103 -10.8114 11.0465 0.8217
-20.3446 -28.6603 8.1143 0.8656
-11.3334 -43.5621 10.3919 0.8313
16.3574 -44.7950 11.0097 0.8222
23.0119 -45.1851 11.7067 0.8121
51.8194 -47.0283 16.1557 0.7503
50.0914 -35.4620 14.1692 0.7773
-67.3648 -15.2655 13.4264 0.7547
-14.6606 -36.6494 7.6728 0.8514
-11.5354 -43.4330 8.7352 0.8327
-13.1455 -94.1891 18.4860 0.6787
30.3122 -45.5773 10.6398 0.8001
50.3579 -27.5228 11.1552 0.7915
34.1328 17.2199 7.4313 0.8557
5.1699 5.6532 1.4891 0.9693
3.0874 5.6660 1.2543 0.9740
0.0864 5.6844 1.1051 0.9771
-1.3129 5.6930 1.1357 0.9765
-2.0642 5.6977 1.1780 0.9756
-2.8861 5.7027 1.2424 0.9743
-3.8175 5.7084 1.3349 0.9724
-6.2746 5.7235 1.6508 0.9660
-77.2279 -17.9131 15.4101 0.7239
-61.2032 -31.0719 13.3420 0.7560
-24.5369 -34.5662 8.2397 0.8414
-11.3334 -43.5621 8.7495 0.8324
21.8460 -93.6438 18.6913 0.6758
15.7637 -43.1691 8.9332 0.8292
40.2689 -46.5758 11.9680 0.7781
50.3294 -45.6761 13.2112 0.7581
50.9779 -27.5266 11.2614 0.7897
-67.6329 -15.3263 10.9836 0.7551
-90.0931 -32.2523 15.1561 0.6787
-18.6961 -34.1052 6.1601 0.8543
-13.8514 -34.6264 5.9068 0.8598
13.2285 -58.0337 9.4274 0.7858
15.8365 -44.0610 7.4157 0.8273
30.0184 -45.1354 8.5854 0.8029
39.9233 -46.6525 9.7253 0.7798
50.5929 -36.2038 9.8534 0.7773
54.5720 -14.4197 8.9400 0.7957
50.4339 11.5634 8.1952 0.8109
46.1296 16.6460 7.7673 0.8199
25.3407 16.8999 4.8242 0.8839
25.3707 21.7670 5.2946 0.8734
5.1699 5.6532 1.2133 0.9695
3.0874 5.6660 1.0220 0.9742
2.2427 5.6481 0.9625 0.9757
0.7781 5.6802 0.9081 0.9770
0.0864 5.6844 0.9004 0.9772
-0.6037 5.6887 0.9061 0.9771
-2.8861 5.7027 1.0123 0.9744
-3.8175 5.7084 1.0877 0.9726
-6.2746 5.7235 1.3451 0.9662
-67.8000 -15.7262 11.0236 0.7544
-66.4153 -44.5366 12.6653 0.7234
-25.9759 -36.5934 7.1076 0.8338
-18.7318 -34.5854 6.2296 0.8527
-13.6484 -34.6277 5.8951 0.8601
-11.3334 -43.5622 7.1293 0.8334
16.0347 -43.9112 7.4040 0.8275
30.3512 -45.1374 8.6150 0.8023
40.3082 -46.6213 9.7613 0.7791
50.5953 -35.8187 9.8184 0.7780
70.4029 -27.6460 11.9796 0.7362
-68.1007 -45.1675 10.0337 0.7194
-31.7321 -34.5223 5.7574 0.8278
-19.4496 -35.4797 4.9680 0.8495
-14.6606 -36.6494 4.8467 0.8529
12.2597 -53.7839 6.7732 0.8007
22.5622 -44.8636 6.1659 0.8168
38.8016 -45.3418 7.3275 0.7862
49.2626 -45.1659 8.2062 0.7639
50.3440 -36.0257 7.6011 0.7792
50.3580 -27.5228 7.0464 0.7935
50.7864 5.3243 6.2700 0.8140
50.4339 11.5635 6.3532 0.8118
25.3407 16.8999 3.7399 0.8845
5.1699 5.6532 0.9406 0.9696
4.0395 5.6601 0.8538 0.9724
3.0874 5.6660 0.7923 0.9743
2.2427 5.6481 0.7462 0.9758
1.4920 5.6758 0.7206 0.9766
-0.6037 5.6887 0.7024 0.9772
-1.3129 5.6930 0.7174 0.9767
-3.8175 5.7084 0.8432 0.9727
-8.0568 5.7345 1.2142 0.9609
-14.5967 5.7747 1.9274 0.9387
-31.4122 -34.5242 5.7311 0.8285
-24.5369 -34.5662 5.2048 0.8430
12.5318 -53.7182 6.7729 0.8007
15.4028 -42.1808 5.5136 0.8345
22.7293 -44.6301 6.1496 0.8172
39.1524 -45.2845 7.3503 0.7856
50.3464 -35.6425 7.5741 0.7799
50.9779 -27.5266 7.1135 0.7918
54.3410 -21.3389 7.1683 0.7904
-33.6021 -36.5567 4.3441 0.8192
-11.5354 -43.4331 3.9316 0.8349
-12.1645 -87.1603 7.6994 0.7023
12.7613 -55.9842 5.0236 0.7941
30.0183 -45.1353 4.7424 0.8044
47.9493 -43.9618 5.6913 0.7701
50.3440 -36.0257 5.4161 0.7799
54.6268 -21.7716 5.1448 0.7897
54.6624 -0.9005 4.7830 0.8029
48.0915 5.0418 4.2305 0.8235
50.4340 11.5634 4.5269 0.8124
25.3707 21.7670 2.9246 0.8744
5.1699 5.6532 0.6702 0.9697
4.0395 5.6601 0.6084 0.9725
3.0874 5.6660 0.5645 0.9744
1.4920 5.6758 0.5134 0.9767
0.7781 5.6802 0.5016 0.9772
0.0864 5.6844 0.4974 0.9774
-1.3129 5.6930 0.5111 0.9768
-3.8175 5.7084 0.6008 0.9728
-4.9160 5.7152 0.6595 0.9702
-14.5967 5.7747 1.3734 0.9389
-54.0663 -27.4487 5.3049 0.7839
-33.2634 -36.5588 4.3243 0.8200
-11.3334 -43.5621 3.9381 0.8347
-11.7144 -87.1631 7.6943 0.7025
12.7156 -54.5060 4.8967 0.7987
22.8495 -44.8662 4.4050 0.8170
30.3510 -45.1371 4.7587 0.8038
37.9694 -43.9162 5.0791 0.7921
48.3703 -43.8981 5.7148 0.7693
-31.7322 -34.5223 2.4574 0.8288
-24.8005 -34.5646 2.2295 0.8433
-9.1706 -65.7087 3.4770 0.7666
13.0873 -57.4143 3.0861 0.7899
24.7539 -28.9263 1.9953 0.8586
29.7460 -27.2723 2.1150 0.8507
50.5929 -36.2038 3.2604 0.7794
59.6796 -23.7854 3.3669 0.7731
59.6255 -15.7550 3.2321 0.7811
59.5753 -8.2376 3.1519 0.7859
59.5274 -0.9806 3.1201 0.7878
43.2016 4.5291 2.2765 0.8403
24.1477 5.5366 1.2984 0.9055
2.2427 5.6481 0.3185 0.9760
0.7781 5.6802 0.3005 0.9773
0.0864 5.6844 0.2979 0.9775
-0.6037 5.6887 0.2998 0.9773
-1.3129 5.6930 0.3062 0.9769
-4.9074 5.7053 0.3944 0.9703
-8.0568 5.7345 0.5183 0.9612
-10.5844 5.7500 0.6313 0.9529
-14.5967 5.7747 0.8227 0.9391
-22.2612 5.8218 1.2059 0.9120
-73.1398 -37.1320 4.2988 0.7200
-31.4123 -34.5243 2.4462 0.8295
-13.6306 -34.5824 1.9481 0.8617
-11.3334 -43.5621 2.3590 0.8350
-11.7144 -87.1631 4.6091 0.7031
16.1201 -44.1452 2.4630 0.8284
22.7079 -44.5881 2.6224 0.8184
24.7557 -28.6330 1.9837 0.8593
30.0528 -27.2742 2.1269 0.8500
47.3292 -33.5065 3.0389 0.7927
-17.1094 -31.2106 0.6213 0.8673
-11.8852 -85.1586 1.5008 0.7089
16.7369 -46.5663 0.8637 0.8204
24.7034 -37.1439 0.7786 0.8366
24.7539 -28.9263 0.6645 0.8587
38.1841 -27.3242 0.8196 0.8287
69.3501 -27.6396 1.3031 0.7418
81.0384 -21.4130 1.4630 0.7151
25.0072 9.0240 0.4641 0.8991
34.1329 17.2199 0.6673 0.8582
25.3407 16.8999 0.5317 0.8853
25.3707 21.7670 0.5835 0.8748
5.6132 6.1380 0.1452 0.9673
3.0874 5.6660 0.1126 0.9745
2.2427 5.6481 0.1061 0.9760
-0.6037 5.6887 0.0999 0.9774
-1.3129 5.6930 0.1020 0.9769
-2.0604 5.6873 0.1056 0.9761
-2.8740 5.6788 0.1111 0.9749
-3.7995 5.6816 0.1193 0.9730
-6.2746 5.7235 0.1482 0.9666
-14.5967 5.7747 0.2740 0.9391
-83.4808 -8.9661 1.4655 0.7147
-27.0067 -38.0455 0.8144 0.8297
-16.9715 -31.3353 0.6220 0.8671
-14.3890 -36.5066 0.6849 0.8547
21.9039 -93.8921 1.6829 0.6800
20.5074 -56.1599 1.0436 0.7873
21.4397 -42.0980 0.8246 0.8278
24.7557 -28.6330 0.6607 0.8595
38.6000 -27.3267 0.8255 0.8276
70.4031 -27.6461 1.3202 0.7389
-66.9696 -33.5731 -1.3076 0.7410
-70.7019 -46.8928 -1.4809 0.7122
-21.0380 -22.8879 -0.5426 0.8831
-15.9207 -22.1889 -0.4767 0.8965
-12.9030 -23.5374 -0.4685 0.8982
-7.9858 -30.0681 -0.5430 0.8830
-7.5572 -54.1479 -0.9543 0.8035
24.7034 -37.1439 -0.7786 0.8366
29.7460 -27.2723 -0.7044 0.8509
38.1840 -27.3242 -0.8196 0.8287
42.1008 -23.0099 -0.8375 0.8254
87.7341 -23.1823 -1.5840 0.6956
25.3407 16.8999 -0.5317 0.8853
25.3707 21.7670 -0.5835 0.8748
1.4920 5.6758 -0.1024 0.9768
-0.6037 5.6887 -0.0999 0.9774
-1.3129 5.6930 -0.1020 0.9769
-3.7892 5.6662 -0.1190 0.9731
-6.2746 5.7235 -0.1482 0.9666
-14.5967 5.7747 -0.2740 0.9391
-22.1373 5.7894 -0.3994 0.9125
-96.6970 13.1206 -1.7033 0.6768
-64.1935 0.8947 -1.1206 0.7735
-82.5068 -30.0097 -1.5325 0.7038
-9.8434 -24.9740 -0.4686 0.8982
20.5585 -56.2998 -1.0462 0.7868
24.7059 -36.7419 -0.7728 0.8377
24.7557 -28.6330 -0.6607 0.8595
30.0527 -27.2742 -0.7084 0.8501
38.6000 -27.3267 -0.8255 0.8276
42.1046 -22.7352 -0.8352 0.8258
70.4031 -27.6461 -1.3202 0.7389
-43.7188 -9.9071 -2.3493 0.8356
-44.9386 -16.0876 -2.5015 0.8260
-34.0957 -29.1028 -2.3493 0.8356
-20.8159 -22.6462 -1.6120 0.8841
-6.1963 -44.3970 -2.3493 0.8356
-0.8468 -47.7239 -2.5015 0.8260
10.6080 -46.5377 -2.5015 0.8260
20.1404 -40.0480 -2.3493 0.8356
24.8580 -29.0480 -2.0037 0.8580
29.6308 -27.1667 -2.1068 0.8513
36.4549 -26.0868 -2.3493 0.8356
38.7813 -21.1956 -2.3162 0.8378
46.1476 -12.1937 -2.5015 0.8260
47.7249 -0.7862 -2.5015 0.8260
24.1477 5.5366 -1.2984 0.9055
19.5242 7.0454 -1.0878 0.9202
25.0691 21.5083 -1.7311 0.8761
4.0395 5.6601 -0.3644 0.9725
3.0874 5.6660 -0.3382 0.9745
1.4920 5.6758 -0.3076 0.9768
-1.3129 5.6930 -0.3062 0.9769
-2.8593 5.6498 -0.3319 0.9750
-4.8165 5.5996 -0.3871 0.9708
-10.5094 5.7093 -0.6268 0.9532
-14.5967 5.7747 -0.8227 0.9391
-31.9972 4.3416 -1.6923 0.8787
-45.0551 0.6279 -2.3615 0.8349
-43.6680 -10.1288 -2.3493 0.8356
-33.9475 -29.2754 -2.3493 0.8356
-15.6096 -21.9900 -1.4133 0.8976
-9.8411 -24.9681 -1.4065 0.8981
-0.6046 -47.7276 -2.5015 0.8260
15.3761 -42.1077 -2.3493 0.8356
20.3434 -39.9454 -2.3493 0.8356
39.1474 -21.1384 -2.3316 0.8368
38.5494 -15.1377 -2.1705 0.8471
-28.4439 -2.9090 -2.5015 0.8915
-25.5602 -12.8138 -2.5015 0.8915
-23.8277 -15.8037 -2.5015 0.8915
-21.7473 -18.5626 -2.5015 0.8915
-15.6543 -21.8175 -2.3493 0.8978
-9.8218 -24.5531 -2.3136 0.8993
-6.8928 -25.9528 -2.3493 0.8978
2.9451 -28.4401 -2.5015 0.8915
6.3544 -27.8772 -2.5015 0.8915
17.4591 -20.4020 -2.3493 0.8978
23.2521 -16.6390 -2.5015 0.8915
26.5605 -10.5857 -2.5015 0.8915
27.6435 -7.3043 -2.5015 0.8915
28.3228 -3.9162 -2.5015 0.8915
28.5883 -0.4710 -2.5015 0.8915
20.7018 17.7613 -2.3864 0.8963
5.6132 6.1380 -0.7277 0.9672
4.0395 5.6601 -0.6084 0.9725
3.0874 5.6660 -0.5645 0.9744
2.2427 5.6481 -0.5317 0.9759
0.7781 5.6802 -0.5016 0.9772
-0.6037 5.6887 -0.5005 0.9773
-1.3129 5.6930 -0.5111 0.9768
-2.0604 5.6873 -0.5292 0.9760
-2.8593 5.6498 -0.5540 0.9749
-4.8023 5.5831 -0.6443 0.9709
-8.0568 5.7345 -0.8652 0.9611
-10.5014 5.7049 -1.0456 0.9531
-26.6087 3.6105 -2.3493 0.8978
-27.8528 -6.4605 -2.5015 0.8915
-26.8700 -9.7733 -2.5015 0.8915
-25.4948 -12.9433 -2.5015 0.8915
-21.6528 -18.6728 -2.5015 0.8915
-18.0714 -19.8617 -2.3493 0.8978
-12.5225 -23.1208 -2.3004 0.8998
-9.7025 -24.6164 -2.3149 0.8992
-0.3622 -28.5899 -2.5015 0.8915
3.0894 -28.4248 -2.5015 0.8915
6.4959 -27.8446 -2.5015 0.8915
12.9757 -25.4784 -2.5015 0.8915
19.8846 -18.0461 -2.3493 0.8978
-20.2673 -2.0728 -2.5015 0.9212
-9.2107 -3.2973 -1.2012 0.9613
-16.9781 -11.2607 -2.5015 0.9212
-15.4958 -13.2266 -2.5015 0.9212
-13.7870 -14.9993 -2.5015 0.9212
-11.8769 -16.5529 -2.5015 0.9212
-7.5667 -18.9158 -2.5015 0.9212
-2.8161 -20.1775 -2.5015 0.9212
2.0985 -20.2647 -2.5015 0.9212
4.5278 -19.8635 -2.5015 0.9212
6.8909 -19.1723 -2.5015 0.9212
9.1534 -18.2010 -2.5015 0.9212
11.2822 -16.9639 -2.5015 0.9212
17.8772 -9.7707 -2.5015 0.9212
18.9253 -7.5427 -2.5015 0.9212
18.6496 4.2760 -2.3493 0.9258
17.9976 6.4945 -2.3493 0.9258
8.4756 5.6524 -1.2509 0.9598
6.7294 5.7735 -1.0887 0.9649
5.6132 6.1380 -1.0213 0.9670
1.4920 5.6758 -0.7206 0.9766
0.7781 5.6802 -0.7040 0.9772
-1.3129 5.6930 -0.7174 0.9767
-3.7584 5.6201 -0.8301 0.9731
-6.2746 5.7235 -1.0428 0.9664
-10.3650 5.6308 -1.4483 0.9536
-18.5110 4.8410 -2.3493 0.9258
-18.9597 2.5726 -2.3493 0.9258
-20.3561 0.2837 -2.4997 0.9212
-20.2566 -2.1756 -2.5015 0.9212
-9.5649 -2.2186 -1.2056 0.9612
-11.7928 -16.6130 -2.5015 0.9212
-9.7025 -17.9143 -2.5015 0.9212
-7.4706 -18.9539 -2.5015 0.9212
-2.7137 -20.1915 -2.5015 0.9212
-0.2581 -20.3714 -2.5015 0.9212
2.2013 -20.2538 -2.5015 0.9212
4.6285 -19.8403 -2.5015 0.9212
11.3682 -16.9064 -2.5015 0.9212
13.3246 -15.4116 -2.5015 0.9212
15.0865 -13.6916 -2.5015 0.9212
16.6279 -11.7717 -2.5015 0.9212
-15.7119 -1.6069 -2.5015 0.9380
-8.9071 -2.0184 -1.4465 0.9637
-8.5747 -3.0697 -1.4425 0.9638
-14.1190 -7.0781 -2.5015 0.9380
-13.1620 -8.7296 -2.5015 0.9380
-10.6881 -11.6279 -2.5015 0.9380
-9.2074 -12.8323 -2.5015 0.9380
-7.5921 -13.8494 -2.5015 0.9380
-5.8660 -14.6641 -2.5015 0.9380
1.6268 -15.7098 -2.5015 0.9380
5.3420 -14.8629 -2.5015 0.9380
8.7463 -13.1509 -2.5015 0.9380
10.2689 -11.9998 -2.5015 0.9380
13.8590 -7.5745 -2.5015 0.9380
15.2697 -4.0348 -2.5015 0.9380
15.6450 -2.1633 -2.5015 0.9380
15.7917 -0.2602 -2.5015 0.9380
14.9045 1.5625 -2.3736 0.9411
12.3493 8.2358 -2.3510 0.9417
6.7420 5.7843 -1.4070 0.9647
5.6132 6.1380 -1.3174 0.9669
4.0395 5.6601 -1.1014 0.9722
3.0874 5.6660 -1.0220 0.9742
-0.6037 5.6887 -0.9061 0.9771
-1.3129 5.6930 -0.9254 0.9766
-2.0604 5.6873 -0.9581 0.9758
-3.7427 5.5967 -1.0664 0.9731
-8.0568 5.7345 -1.5663 0.9607
-10.3650 5.6308 -1.8683 0.9534
-14.6982 1.9944 -2.3493 0.9417
-15.7035 -1.6866 -2.5015 0.9380
-9.1027 -2.1114 -1.4800 0.9629
-14.0829 -7.1497 -2.5015 0.9380
-13.1175 -8.7963 -2.5015 0.9380
-9.1421 -12.8789 -2.5015 0.9380
-5.7915 -14.6936 -2.5015 0.9380
-3.9766 -15.2850 -2.5015 0.9380
-2.1037 -15.6531 -2.5015 0.9380
3.5882 -15.3808 -2.5015 0.9380
5.4174 -14.8356 -2.5015 0.9380
7.1675 -14.0738 -2.5015 0.9380
8.8129 -13.1064 -2.5015 0.9380
10.3297 -11.9475 -2.5015 0.9380
11.6955 -10.6142 -2.5015 0.9380
14.7010 -5.7728 -2.5015 0.9380
-8.9121 -2.0196 -1.7763 0.9634
-7.8578 -2.8130 -1.6223 0.9666
-9.7882 -8.3549 -2.5015 0.9489
-8.7089 -9.4746 -2.5015 0.9489
-6.1862 -11.2847 -2.5015 0.9489
-1.7788 -12.7455 -2.5015 0.9489
-0.2283 -12.8671 -2.5015 0.9489
1.3256 -12.8006 -2.5015 0.9489
2.8601 -12.5472 -2.5015 0.9489
4.3528 -12.1106 -2.5015 0.9489
5.7820 -11.4971 -2.5015 0.9489
9.4857 -8.6968 -2.5015 0.9489
10.4655 -7.4890 -2.5015 0.9489
11.2925 -6.1719 -2.5015 0.9489
12.7478 -1.7627 -2.5015 0.9489
12.5276 1.3134 -2.4485 0.9500
10.0551 6.7058 -2.3493 0.9519
6.7420 5.7843 -1.7267 0.9644
5.6132 6.1380 -1.6168 0.9667
4.0395 5.6601 -1.3517 0.9721
3.0874 5.6660 -1.2542 0.9740
0.7781 5.6802 -1.1144 0.9769
0.0864 5.6844 -1.1051 0.9771
-1.3129 5.6930 -1.1357 0.9765
-2.8359 5.6035 -1.2208 0.9747
-4.7041 5.4689 -1.4022 0.9710
-6.2746 5.7235 -1.6508 0.9660
-12.7955 -1.3743 -2.5015 0.9489
-7.8480 -2.8545 -1.6233 0.9665
-11.4750 -5.8257 -2.5015 0.9489
-10.6884 -7.1674 -2.5015 0.9489
-9.7457 -8.4044 -2.5015 0.9489
-8.6607 -9.5187 -2.5015 0.9489
-7.4492 -10.4940 -2.5015 0.9489
-6.1288 -11.3160 -2.5015 0.9489
-4.7190 -11.9726 -2.5015 0.9489
-3.2402 -12.4545 -2.5015 0.9489
-1.7141 -12.7544 -2.5015 0.9489
-0.1630 -12.8680 -2.5015 0.9489
1.3905 -12.7937 -2.5015 0.9489
2.9237 -12.5325 -2.5015 0.9489
5.8402 -11.4676 -2.5015 0.9489
7.1809 -10.6793 -2.5015 0.9489
8.4168 -9.7350 -2.5015 0.9489
9.5297 -8.6486 -2.5015 0.9489
10.5034 -7.4358 -2.5015 0.9489
11.3237 -6.1145 -2.5015 0.9489
11.9786 -4.7038 -2.5015 0.9489
-7.4213 -2.6567 -1.8198 0.9682
-7.6129 -3.8165 -1.9661 0.9656
-6.3166 -8.8035 -2.5015 0.9565
-5.2085 -9.5012 -2.5015 0.9565
-1.4977 -10.7312 -2.5015 0.9565
-0.1922 -10.8335 -2.5015 0.9565
3.6648 -10.1966 -2.5015 0.9565
4.8681 -9.6800 -2.5015 0.9565
7.0449 -8.2323 -2.5015 0.9565
8.8115 -6.3054 -2.5015 0.9565
9.5078 -5.1964 -2.5015 0.9565
10.0652 -4.0115 -2.5015 0.9565
10.7330 -1.4841 -2.5015 0.9565
10.8337 -0.1785 -2.5015 0.9565
9.9185 2.2741 -2.3493 0.9591
9.0852 4.5835 -2.3493 0.9591
6.7420 5.7843 -2.0509 0.9642
5.6132 6.1380 -1.9203 0.9664
4.0395 5.6601 -1.6054 0.9719
3.0874 5.6660 -1.4897 0.9739
2.2427 5.6481 -1.4030 0.9754
0.0864 5.6844 -1.3125 0.9769
-0.6037 5.6887 -1.3207 0.9768
-3.6711 5.4896 -1.5246 0.9733
-4.6341 5.3875 -1.6406 0.9712
-8.9417 4.8576 -2.3493 0.9591
-9.4623 3.7434 -2.3493 0.9591
-10.7137 1.4537 -2.4961 0.9566
-10.8341 0.1510 -2.5015 0.9565
-7.4126 -2.6962 -1.8210 0.9681
-6.2719 -8.8354 -2.5015 0.9565
-5.1602 -9.5275 -2.5015 0.9565
-2.7281 -10.4861 -2.5015 0.9565
-1.4432 -10.7386 -2.5015 0.9565
-0.1372 -10.8343 -2.5015 0.9565
1.1707 -10.7717 -2.5015 0.9565
6.0460 -8.9915 -2.5015 0.9565
-9.2873 -0.9498 -2.5015 0.9621
-9.1049 -2.0632 -2.5015 0.9621
-8.3457 -4.1838 -2.5015 0.9621
-7.7800 -5.1601 -2.5015 0.9621
-7.1008 -6.0609 -2.5015 0.9621
-6.3177 -6.8732 -2.5015 0.9621
-2.3964 -9.0229 -2.5015 0.9621
-0.1656 -9.3342 -2.5015 0.9621
0.9616 -9.2861 -2.5015 0.9621
3.1577 -8.7855 -2.5015 0.9621
4.1944 -8.3404 -2.5015 0.9621
5.1699 -7.7735 -2.5015 0.9621
6.0699 -7.0931 -2.5015 0.9621
7.5921 -5.4328 -2.5015 0.9621
8.6723 -3.4564 -2.5015 0.9621
9.0259 -2.3850 -2.5015 0.9621
9.3344 -0.1538 -2.5015 0.9621
9.2254 0.9672 -2.4855 0.9623
8.5459 1.9594 -2.3493 0.9643
8.2472 2.9760 -2.3493 0.9643
5.6132 6.1380 -2.2287 0.9661
4.0395 5.6601 -1.8633 0.9716
2.2427 5.6481 -1.6283 0.9751
1.4920 5.6758 -1.5725 0.9760
0.7781 5.6802 -1.5362 0.9765
0.0864 5.6844 -1.5233 0.9767
-0.6037 5.6887 -1.5328 0.9766
-1.3129 5.6930 -1.5655 0.9761
-2.7956 5.5239 -1.6589 0.9747
-3.6355 5.4364 -1.7524 0.9733
-4.5375 5.2751 -1.8644 0.9716
-7.1431 5.0842 -2.3493 0.9643
-7.7042 4.1854 -2.3493 0.9643
-8.4824 2.2183 -2.3493 0.9643
-9.2823 -0.9969 -2.5015 0.9621
-7.3464 -2.6721 -2.0946 0.9681
-7.0699 -6.0969 -2.5015 0.9621
-5.4039 -7.6127 -2.5015 0.9621
-0.1183 -9.3350 -2.5015 0.9621
3.2022 -8.7693 -2.5015 0.9621
4.2367 -8.3190 -2.5015 0.9621
5.2093 -7.7472 -2.5015 0.9621
6.9132 -6.2740 -2.5015 0.9621
8.2146 -4.4357 -2.5015 0.9621
8.6897 -3.4123 -2.5015 0.9621
