ply
format ascii 1.0
element vertex 1558
property float32 x
property float32 y
property float32 z
property float32 I
end_header
-8.6989 5.7384 0.9117 0.9590
-7.8189 2.7831 0.7261 0.9672
-29.4657 -34.5010 3.9695 0.8335
-24.3098 -36.6036 3.8443 0.8383
-18.4053 -36.6265 3.5862 0.8482
-14.6143 -40.6579 3.7799 0.8407
-12.6404 -55.3623 4.9682 0.7961
48.9889 -42.1029 5.6513 0.7715
48.9466 -32.7268 5.1513 0.7895
53.3767 -27.0306 5.2345 0.7864
49.6441 -18.0187 4.6205 0.8089
53.4668 -12.3824 4.8015 0.8022
53.5076 -5.7465 4.7082 0.8057
53.4547 0.7271 4.6771 0.8068
43.6374 5.8913 3.8524 0.8379
21.3246 5.5539 1.9279 0.9153
31.6683 17.1351 3.1502 0.8654
24.1242 17.0976 2.5869 0.8881
23.9924 21.7824 2.8351 0.8780
5.7692 6.6708 0.7716 0.9652
3.8109 5.6615 0.5971 0.9730
-0.7502 5.6896 0.5021 0.9772
-1.4641 5.6940 0.5144 0.9767
-2.2252 5.6987 0.5352 0.9757
-4.0200 5.7097 0.6109 0.9724
-5.1578 5.7167 0.6736 0.9696
58.3425 -6.0522 3.0740 0.7906
58.2960 1.0043 3.0556 0.7917
41.1553 5.7081 2.1775 0.8467
21.0193 5.5558 1.1394 0.9166
23.8197 21.7834 1.6916 0.8787
2.8663 5.6674 0.3328 0.9749
0.6072 5.6812 0.2994 0.9774
-0.0803 5.6855 0.2980 0.9775
-1.4862 5.6941 0.3084 0.9767
-2.2491 5.6988 0.3211 0.9758
-5.1878 5.7083 0.4042 0.9696
-6.6171 5.7168 0.4583 0.9656
-8.5331 5.7374 0.5389 0.9596
-11.2905 5.7544 0.6641 0.9505
-7.7066 2.8198 0.4301 0.9677
-24.9149 5.8381 1.3411 0.9026
-91.5329 -35.7964 5.1508 0.6746
-23.4023 -34.5732 2.1880 0.8460
-17.7480 -34.5572 2.0360 0.8559
-12.8194 -34.7020 1.9388 0.8623
11.7212 -90.7119 4.7935 0.6932
23.3782 -43.8006 2.6020 0.8197
23.5077 -33.5722 2.1479 0.8486
48.9427 -33.3510 3.1039 0.7888
41.4895 5.2301 2.1916 0.8458
24.1516 21.5423 1.6961 0.8784
4.3022 6.2716 0.3986 0.9700
2.9550 5.6668 0.3349 0.9747
1.3860 5.6765 0.3062 0.9769
0.6786 5.6808 0.2998 0.9773
-0.0097 5.6850 0.2979 0.9775
-0.6992 5.6893 0.3004 0.9773
-3.9402 5.7022 0.3632 0.9726
-5.0586 5.7069 0.3997 0.9699
-6.4591 5.7219 0.4522 0.9660
-8.3063 5.7360 0.5290 0.9604
-7.7098 2.9300 0.4322 0.9675
-23.5581 5.8298 1.2719 0.9074
-32.3648 0.0455 1.6962 0.8784
-78.9347 -19.2980 4.2587 0.7222
-24.0311 -34.5693 2.2064 0.8448
13.0014 -53.9045 2.9060 0.8008
22.6933 -43.8189 2.5861 0.8207
23.5021 -34.4678 2.1863 0.8461
23.8415 -27.2360 1.8970 0.8650
30.4077 -27.2764 2.1408 0.8491
41.6025 -22.1894 2.4710 0.8279
23.2938 5.5418 1.2548 0.9085
33.5121 17.2237 1.9747 0.8599
24.1483 21.0066 1.6774 0.8797
2.2160 5.6714 0.3191 0.9759
0.7502 5.6804 0.3003 0.9773
0.0610 5.6846 0.2979 0.9775
-2.0867 5.6978 0.3180 0.9760
-2.8967 5.6793 0.3341 0.9748
-4.9365 5.7105 0.3956 0.9702
-6.2983 5.7207 0.4459 0.9665
-8.0876 5.7347 0.5196 0.9611
-31.5535 -34.5234 2.4511 0.8292
-24.6709 -34.5654 2.2256 0.8436
-14.9207 -27.3576 1.6331 0.8827
-13.7605 -34.5816 1.9506 0.8615
-12.5761 -47.6357 2.5819 0.8209
-12.0630 -87.1609 4.6114 0.7030
12.3762 -54.2607 2.9167 0.8002
29.6531 -27.2717 2.1114 0.8510
49.3797 -35.4765 3.1865 0.7838
42.0541 4.2431 2.2152 0.8443
33.9623 16.9252 1.9887 0.8590
25.4393 16.7734 1.5969 0.8851
3.1358 5.6657 0.3394 0.9744
2.2974 5.6709 0.3207 0.9758
1.5361 5.6755 0.3081 0.9767
0.8171 5.6459 0.2990 0.9774
-0.5561 5.6884 0.2995 0.9774
-2.0066 5.6973 0.3166 0.9761
-3.7333 5.7005 0.3571 0.9731
-4.8130 5.7094 0.3914 0.9705
-6.1413 5.7189 0.4398 0.9669
-14.1207 5.7718 0.7995 0.9407
-21.2244 5.8154 1.1533 0.9156
-74.5921 -36.5966 4.3543 0.7169
-20.6962 -28.2480 1.8352 0.8691
-19.4082 -34.5575 2.0772 0.8532
-12.5975 -45.4232 2.4704 0.8279
-13.1673 -87.1541 4.6194 0.7025
12.6594 -58.8655 3.1555 0.7857
21.6370 -44.4498 2.5908 0.8204
23.5402 -28.2795 1.9283 0.8630
28.9189 -27.2672 2.0830 0.8528
42.2783 -23.9173 2.5457 0.8232
58.4650 -24.3223 3.3186 0.7760
58.3621 -9.0028 3.0948 0.7894
58.3151 -1.8935 3.0578 0.7916
58.2689 5.1487 3.0656 0.7911
16.3405 5.5846 0.9050 0.9332
26.1335 16.7691 1.6273 0.8830
24.1419 19.9695 1.6420 0.8821
6.2709 6.6095 0.4775 0.9642
3.2281 5.6651 0.3417 0.9742
2.3796 5.6703 0.3223 0.9757
1.6119 5.6751 0.3092 0.9766
0.2022 5.6837 0.2981 0.9775
-1.1872 5.6923 0.3047 0.9770
-4.6920 5.7084 0.3873 0.9708
-10.0124 5.7465 0.6050 0.9548
-20.2132 5.8092 1.1022 0.9192
-33.1550 -34.5136 2.5082 0.8256
-14.7631 -34.5754 1.9703 0.8602
-12.5845 -43.2812 2.3622 0.8348
-10.7557 -65.6597 3.4869 0.7661
11.6367 -57.5808 3.0787 0.7903
21.2438 -45.0554 2.6106 0.8191
28.3655 -45.1249 2.7933 0.8078
23.5358 -28.9993 1.9573 0.8611
28.2041 -27.2628 2.0558 0.8546
49.0197 -37.0980 3.2218 0.7817
48.9700 -28.5117 2.9697 0.7969
58.4168 -17.1822 3.1912 0.7836
58.3671 -9.7472 3.1012 0.7890
58.3198 -2.6192 3.0595 0.7915
58.2737 4.4204 3.0628 0.7913
53.2889 10.5972 2.8475 0.8044
17.0162 5.5804 0.9385 0.9308
34.6722 16.2166 2.0060 0.8579
26.8547 16.7647 1.6591 0.8809
23.6688 24.3342 1.7791 0.8729
3.3216 5.6646 0.3441 0.9740
1.6883 5.6746 0.3103 0.9766
0.9663 5.6779 0.3018 0.9772
0.2729 5.6833 0.2982 0.9775
-1.1135 5.6918 0.3040 0.9770
-2.6450 5.7012 0.3294 0.9751
-4.5736 5.7074 0.3833 0.9711
-5.8398 5.7155 0.4282 0.9678
-7.4756 5.7309 0.4937 0.9630
-9.7274 5.7448 0.5921 0.9558
-13.1628 5.7659 0.7531 0.9441
-33.9922 5.8939 1.8080 0.8709
-60.9430 -28.0438 3.5158 0.7644
-33.9846 -34.5085 2.5383 0.8237
-15.2723 -34.5723 1.9808 0.8595
14.6478 -46.1120 2.5356 0.8238
49.0138 -38.0602 3.2522 0.7799
58.4221 -17.9753 3.2034 0.7828
58.3720 -10.4950 3.1082 0.7886
35.8095 16.2096 2.0600 0.8543
24.1358 18.9746 1.6090 0.8843
2.5466 5.6693 0.3257 0.9754
1.0372 5.6675 0.3020 0.9772
-1.0402 5.6914 0.3032 0.9771
-1.7705 5.6959 0.3126 0.9764
-5.6949 5.7139 0.4228 0.9682
-9.4544 5.7431 0.5797 0.9567
-12.7242 5.7632 0.7321 0.9456
-34.8339 -34.5033 2.5695 0.8217
-27.3479 -34.5490 2.3092 0.8382
-21.1328 -34.5470 2.1224 0.8503
-15.7870 -34.5692 1.9917 0.8588
-12.5614 -39.5132 2.1729 0.8470
13.7652 -45.2751 2.4800 0.8273
26.7657 -45.0248 2.7451 0.8107
49.3561 -39.3183 3.3071 0.7767
58.4275 -18.7745 3.2163 0.7821
58.2832 2.9673 3.0584 0.7916
18.5301 5.5711 1.0141 0.9254
28.3859 16.7553 1.7275 0.8763
24.1328 18.4920 1.5934 0.8853
23.6615 23.1474 1.7347 0.8758
4.6377 5.7848 0.3886 0.9707
2.6315 5.6688 0.3275 0.9753
1.8426 5.6737 0.3126 0.9764
1.1122 5.6781 0.3032 0.9771
0.4146 5.6824 0.2986 0.9774
-0.2718 5.6866 0.2984 0.9775
-1.6930 5.6954 0.3114 0.9765
-4.3438 5.7055 0.3758 0.9717
-9.1924 5.7415 0.5680 0.9575
-12.3094 5.7606 0.7123 0.9470
-17.6527 5.7935 0.9737 0.9283
-69.5246 -20.4325 3.7977 0.7481
-28.0494 -34.5447 2.3321 0.8367
-15.7825 -78.0057 4.1709 0.7270
14.7606 -90.2357 4.7919 0.6933
26.0116 -45.0202 2.7249 0.8120
26.1660 -27.2503 1.9799 0.8596
49.3499 -40.3254 3.3400 0.7747
49.4030 -31.2847 3.0646 0.7912
58.3821 -12.0011 3.1236 0.7876
41.8040 6.7051 2.2189 0.8440
19.3830 5.5658 1.0569 0.9224
23.6580 22.5758 1.7138 0.8772
4.6923 5.7061 0.3872 0.9708
4.1451 6.5009 0.4041 0.9696
1.9206 5.6732 0.3139 0.9763
1.1855 5.6777 0.3040 0.9770
0.4856 5.6820 0.2989 0.9774
-0.8946 5.6905 0.3019 0.9772
-1.6162 5.6949 0.3102 0.9766
-24.4297 20.2167 1.6618 0.8807
-8.9409 5.7399 0.5568 0.9583
-16.9265 5.7890 0.9375 0.9309
-68.2506 -19.1404 3.7149 0.7528
-36.5984 -34.4925 2.6356 0.8176
-28.7360 -34.5055 2.3533 0.8354
-16.8339 -34.5628 2.0148 0.8573
-12.5060 -36.1988 2.0071 0.8578
-16.7924 -77.9995 4.1814 0.7265
12.4672 -44.9926 2.4468 0.8294
25.2804 -45.0369 2.7067 0.8131
25.5194 -27.2463 1.9564 0.8611
48.4772 -23.7975 2.8302 0.8055
58.3391 -5.5334 3.0711 0.7908
58.2926 1.5175 3.0560 0.7917
20.3108 5.5601 1.1036 0.9191
39.6248 16.1861 2.2432 0.8424
23.8022 13.2638 1.4280 0.8966
23.6545 22.0177 1.6936 0.8786
4.7400 5.6204 0.3853 0.9710
0.5567 5.6815 0.2992 0.9774
-0.1303 5.6858 0.2981 0.9775
-1.5399 5.6944 0.3092 0.9766
-4.1227 5.7037 0.3688 0.9722
-8.6989 5.7384 0.5462 0.9591
-11.5435 5.7559 0.6760 0.9496
-7.8184 2.7830 0.4349 0.9673
-25.9690 5.8446 1.3950 0.8989
-22.9400 -34.5410 2.1731 0.8470
-17.3666 -34.5595 2.0270 0.8565
-12.5136 -34.8135 1.9388 0.8623
-12.6535 -55.4199 2.9792 0.7964
14.3889 -54.5516 2.9567 0.7977
17.8293 -44.8361 2.5287 0.8243
24.5578 -45.0517 2.6891 0.8142
23.5114 -32.9565 2.1217 0.8503
31.7470 -27.2846 2.1938 0.8456
48.9466 -32.7268 3.0858 0.7899
42.1373 -21.3388 2.4753 0.8276
58.4440 -21.2127 3.2584 0.7795
23.7666 9.3655 1.3388 0.9027
24.1242 17.0976 1.5496 0.8883
4.2615 6.3309 0.4000 0.9699
2.8921 5.6672 0.3334 0.9748
0.6280 5.6811 0.2995 0.9774
-0.7502 5.6896 0.3008 0.9773
-1.4641 5.6940 0.3081 0.9767
-4.0152 5.7028 0.3655 0.9725
21.0193 5.5558 0.3795 0.9167
24.6579 22.5500 0.5832 0.8749
23.6889 27.5921 0.6348 0.8646
4.2452 6.3563 0.1334 0.9699
2.0555 5.6723 0.1053 0.9762
1.3116 5.6769 0.1017 0.9770
0.6072 5.6812 0.0997 0.9774
-0.0803 5.6855 0.0992 0.9775
-1.4862 5.6941 0.1027 0.9767
-2.2491 5.6988 0.1069 0.9758
-3.0731 5.6725 0.1126 0.9745
-4.0347 5.6867 0.1217 0.9725
-8.5331 5.7374 0.1795 0.9597
-17.5414 -34.1549 0.6702 0.8576
-14.4594 -39.1414 0.7283 0.8463
-10.5716 -93.4211 1.6411 0.6865
22.9938 -90.3930 1.6281 0.6886
19.3795 -50.0114 0.9362 0.8069
24.4490 -27.2397 0.6389 0.8638
31.1838 -27.2811 0.7232 0.8473
40.1157 -27.3360 0.8473 0.8235
74.1911 -27.6694 1.3822 0.7285
23.8098 12.6135 0.4703 0.8978
24.1254 16.7815 0.5130 0.8891
23.6846 26.9037 0.6256 0.8664
1.3860 5.6765 0.1020 0.9769
-0.0097 5.6850 0.0992 0.9775
-0.6992 5.6893 0.1001 0.9773
-3.9290 5.6859 0.1206 0.9727
-6.4134 5.6815 0.1496 0.9663
-8.3063 5.7360 0.1762 0.9604
-7.7097 2.9300 0.1440 0.9675
-66.3146 -16.2126 1.1916 0.7610
-26.6194 -38.2925 0.8140 0.8298
-18.0793 -34.1516 0.6745 0.8568
19.3679 -51.8854 0.9667 0.8013
21.8058 -42.1053 0.8277 0.8272
30.4077 -27.2764 0.7130 0.8492
39.0547 -27.3295 0.8320 0.8264
39.7508 4.5100 0.6983 0.8521
23.8063 12.2354 0.4672 0.8985
24.1739 26.7814 0.6297 0.8656
-3.8250 5.6852 0.1196 0.9730
-4.9211 5.6928 0.1313 0.9703
-6.2537 5.6802 0.1475 0.9668
-8.0876 5.7347 0.1731 0.9611
-10.6217 5.7503 0.2108 0.9528
-48.9577 -11.3267 0.8771 0.8179
-31.1945 -34.1306 0.8071 0.8311
-14.5262 -36.5058 0.6858 0.8545
-13.3557 -50.5886 0.9133 0.8111
-12.0630 -87.1609 1.5359 0.7033
21.1436 -42.0991 0.8223 0.8282
23.5445 -27.5805 0.6330 0.8650
29.6531 -27.2717 0.7032 0.8511
38.0300 -27.3223 0.8174 0.8292
39.4774 -21.6900 0.7862 0.8351
68.8303 -27.6364 1.2947 0.7432
49.2132 11.0642 0.8805 0.8173
46.7878 16.6420 0.8668 0.8198
24.2155 20.5422 0.5543 0.8807
-0.5561 5.6884 0.0998 0.9774
-2.8197 5.7023 0.1110 0.9749
-6.0985 5.6790 0.1455 0.9672
-10.3102 5.7483 0.2060 0.9539
-21.2244 5.8154 0.3841 0.9157
-19.1764 -34.1449 0.6836 0.8550
-13.1673 -87.1542 1.5385 0.7028
20.6725 -96.1256 1.7162 0.6748
19.3425 -56.0275 1.0346 0.7889
20.4898 -42.0930 0.8172 0.8292
23.4905 -36.3593 0.7556 0.8410
23.5402 -28.2795 0.6423 0.8631
79.7189 -22.3759 1.4453 0.7180
50.1240 10.6167 0.8943 0.8147
23.8075 11.4976 0.4615 0.8996
26.2879 16.8682 0.5452 0.8825
24.2123 20.0277 0.5485 0.8819
4.4769 6.0315 0.1311 0.9704
2.3796 5.6703 0.1073 0.9757
9.7566 61.9705 1.0950 0.7780
-1.1872 5.6923 0.1015 0.9770
-1.9272 5.6968 0.1050 0.9762
-2.7318 5.7018 0.1104 0.9750
-5.9473 5.6778 0.1435 0.9676
-10.0124 5.7465 0.2015 0.9549
-13.5593 5.7399 0.2570 0.9428
-73.4459 -34.9091 1.4194 0.7223
-32.8623 -34.2089 0.8280 0.8271
-28.4726 -37.8662 0.8270 0.8273
-18.1461 -31.3905 0.6329 0.8650
-12.1811 -41.8936 0.7615 0.8398
-11.6533 -71.1393 1.2583 0.7495
21.2560 -45.0814 0.8700 0.8192
23.4844 -37.3598 0.7703 0.8382
23.5358 -28.9993 0.6519 0.8612
36.0761 -27.3023 0.7897 0.8344
38.4245 -22.3718 0.7761 0.8370
23.8080 11.1353 0.4588 0.9002
26.9658 16.8341 0.5549 0.8806
24.6752 25.3689 0.6177 0.8680
4.5336 5.9520 0.1306 0.9705
0.9663 5.6779 0.1005 0.9772
0.2729 5.6833 0.0993 0.9775
-0.4137 5.6875 0.0995 0.9774
-2.6450 5.7012 0.1097 0.9752
-3.5234 5.6833 0.1167 0.9736
-4.5599 5.6903 0.1273 0.9712
-7.4756 5.7309 0.1644 0.9630
-9.7274 5.7448 0.1972 0.9558
-33.9922 5.8939 0.6022 0.8711
-90.9691 4.6521 1.5899 0.6946
-60.9025 -28.0252 1.1702 0.7648
-33.6951 -34.2146 0.8382 0.8252
-28.5046 -36.9442 0.8145 0.8297
-11.3591 -19.0983 0.3879 0.9149
-12.1694 -39.9938 0.7297 0.8460
-11.7327 -66.4400 1.1777 0.7634
23.5312 -29.7411 0.6620 0.8592
37.7675 -22.6219 0.7684 0.8385
56.8746 10.5777 1.0098 0.7934
23.8084 10.7772 0.4562 0.9007
24.6714 24.7425 0.6099 0.8695
4.5899 5.8731 0.1301 0.9706
2.5466 5.6693 0.1085 0.9754
1.7651 5.6741 0.1037 0.9765
1.0372 5.6675 0.1006 0.9772
-0.3427 5.6871 0.0994 0.9775
-1.7705 5.6959 0.1041 0.9764
-3.4291 5.6877 0.1159 0.9738
-5.6567 5.6755 0.1399 0.9685
-7.2849 5.7297 0.1618 0.9636
-9.4544 5.7431 0.1931 0.9567
-18.4372 5.7983 0.3374 0.9256
-31.5715 5.8790 0.5606 0.8794
-34.5378 -34.2100 0.8485 0.8233
-21.4039 -34.9902 0.7160 0.8487
-12.1587 -38.2464 0.7005 0.8517
-12.5846 -66.4347 1.1802 0.7630
20.1634 -45.6722 0.8714 0.8190
23.5265 -30.5064 0.6724 0.8572
34.2697 -27.3001 0.7648 0.8392
44.4209 -27.3625 0.9107 0.8116
85.8360 4.3701 1.5002 0.7090
23.8087 10.4229 0.4537 0.9012
24.2333 18.5690 0.5329 0.8850
24.6676 24.1317 0.6023 0.8711
2.6315 5.6688 0.1091 0.9753
1.1122 5.6781 0.1010 0.9771
0.4146 5.6824 0.0995 0.9775
-0.9673 5.6909 0.1008 0.9772
-1.6930 5.6954 0.1037 0.9765
-4.3310 5.6887 0.1248 0.9718
-9.1924 5.7415 0.1892 0.9576
-29.4637 5.8661 0.5244 0.8868
-75.0475 -32.3001 1.4261 0.7212
-35.4199 -34.2224 0.8597 0.8212
-28.2042 -34.7354 0.7810 0.8361
-16.1176 -34.1636 0.6594 0.8597
-14.3982 -43.4155 0.7984 0.8328
-13.4404 -66.4295 1.1830 0.7625
25.1658 -86.6242 1.5745 0.6971
19.4074 -45.4805 0.8631 0.8205
24.3411 -42.1289 0.8493 0.8231
23.5216 -31.2963 0.6834 0.8550
26.1660 -27.2503 0.6594 0.8597
33.4031 -27.2948 0.7529 0.8415
43.1974 -27.3550 0.8925 0.8150
57.9706 -27.5696 1.1205 0.7735
23.8090 10.0725 0.4512 0.9017
5.7462 6.9877 0.1579 0.9645
2.7173 5.6683 0.1097 0.9752
1.9206 5.6732 0.1045 0.9763
0.4856 5.6820 0.0995 0.9774
-0.2010 5.6862 0.0993 0.9775
-4.2199 5.6879 0.1236 0.9721
-5.3803 5.6734 0.1365 0.9692
-24.4297 20.2167 0.5535 0.8809
-8.9409 5.7399 0.1855 0.9584
-16.9265 5.7890 0.3123 0.9309
-27.6105 5.8547 0.4927 0.8932
-36.3625 -34.2702 0.8722 0.8188
-22.3259 -34.5397 0.7179 0.8483
-16.6379 -34.1604 0.6632 0.8590
-14.4763 -41.9018 0.7738 0.8375
-14.3004 -66.4242 1.1860 0.7620
22.9316 -82.7570 1.4989 0.7092
23.6444 -42.1224 0.8432 0.8243
25.5194 -27.2463 0.6516 0.8613
42.0220 -27.3477 0.8751 0.8183
43.5003 -21.3543 0.8459 0.8238
43.6073 6.4397 0.7694 0.8383
20.3108 5.5601 0.3676 0.9192
42.0366 17.1713 0.7926 0.8339
24.2275 17.6270 0.5230 0.8870
24.6603 22.9539 0.5881 0.8739
4.2033 6.4151 0.1339 0.9698
2.8042 5.6677 0.1104 0.9750
1.9993 5.6727 0.1050 0.9762
1.2592 5.6772 0.1015 0.9770
-0.1303 5.6858 0.0993 0.9775
-1.5399 5.6944 0.1030 0.9767
-2.3074 5.6992 0.1073 0.9757
-3.1535 5.7006 0.1137 0.9743
-6.6971 5.6838 0.1533 0.9655
-8.6989 5.7384 0.1819 0.9592
-11.5105 5.7395 0.2245 0.9498
-25.9051 5.8302 0.4635 0.8992
-14.4662 -40.2458 0.7465 0.8427
-12.9652 -56.7851 1.0167 0.7921
15.0477 -57.0496 1.0299 0.7897
19.3874 -48.7543 0.9158 0.8107
24.8876 -27.2424 0.6441 0.8628
31.7470 -27.2846 0.7307 0.8458
39.2590 5.3002 0.6915 0.8534
21.3246 5.5539 0.3846 0.9156
23.7666 9.3655 0.4459 0.9029
23.8138 12.8852 0.4726 0.8973
24.1242 17.0976 0.5161 0.8884
23.6876 27.3894 0.6321 0.8651
4.2624 6.3322 0.1332 0.9699
2.8921 5.6672 0.1111 0.9749
2.0787 5.6722 0.1054 0.9761
1.3333 5.6768 0.1018 0.9769
0.6280 5.6811 0.0998 0.9774
-1.4641 5.6940 0.1026 0.9768
-3.0557 5.6896 0.1127 0.9745
41.4155 5.7442 -0.7298 0.8460
21.0193 5.5558 -0.3795 0.9167
23.7976 9.4775 -0.4471 0.9026
24.1250 17.2298 -0.5175 0.8882
24.6579 22.5500 -0.5832 0.8749
4.2452 6.3563 -0.1334 0.9699
2.8663 5.6674 -0.1109 0.9749
2.0555 5.6723 -0.1053 0.9762
1.3116 5.6769 -0.1017 0.9770
0.6072 5.6812 -0.0997 0.9774
-3.0731 5.6725 -0.1126 0.9745
-4.0232 5.6704 -0.1214 0.9726
-6.5303 5.6418 -0.1506 0.9661
-7.7064 2.8197 -0.1432 0.9677
-24.6448 5.7748 -0.4418 0.9037
-83.8536 -11.0999 -1.4764 0.7129
-63.8548 -24.9722 -1.1968 0.7601
-8.6944 -76.8328 -1.3497 0.7339
22.9709 -90.3029 -1.6264 0.6888
14.9421 -38.5602 -0.7220 0.8475
22.3619 -41.8964 -0.8289 0.8270
24.4490 -27.2397 -0.6389 0.8638
40.1157 -27.3360 -0.8473 0.8235
41.2362 -21.3404 -0.8105 0.8305
65.9888 0.3170 -1.1518 0.7680
43.9582 16.8770 -0.8219 0.8283
32.5239 17.2298 -0.6424 0.8631
24.1254 16.7815 -0.5130 0.8891
24.1516 21.5423 -0.5649 0.8786
23.6846 26.9037 -0.6257 0.8664
2.9550 5.6668 -0.1116 0.9748
1.3860 5.6765 -0.1020 0.9769
0.6786 5.6808 -0.0999 0.9774
-0.0097 5.6850 -0.0992 0.9775
-0.6992 5.6893 -0.1001 0.9773
-1.4107 5.6937 -0.1024 0.9768
-2.1675 5.6983 -0.1064 0.9759
-19.5651 37.2110 -0.7338 0.8452
-3.9178 5.6698 -0.1203 0.9728
-8.3063 5.7360 -0.1762 0.9604
-10.9336 5.7447 -0.2156 0.9518
-23.4139 5.7941 -0.4210 0.9080
-91.1593 11.1767 -1.6031 0.6925
-32.4253 0.0456 -0.5660 0.8783
-66.8393 -16.3409 -1.2010 0.7594
-83.7232 -31.5490 -1.5617 0.6991
-69.0396 -36.0270 -1.3593 0.7323
-72.2535 -49.5962 -1.5297 0.7043
-15.7268 -22.6234 -0.4809 0.8956
-8.7608 -34.9368 -0.6287 0.8658
-9.1965 -73.1278 -1.2865 0.7446
14.7759 -39.5838 -0.7375 0.8445
21.6944 -41.8902 -0.8234 0.8280
23.5021 -34.4678 -0.7282 0.8463
23.8415 -27.2360 -0.6318 0.8652
30.4077 -27.2764 -0.7130 0.8492
41.2452 -21.9988 -0.8159 0.8294
71.8050 -27.8002 -1.3440 0.7349
86.5237 -21.9826 -1.5582 0.6997
45.0384 16.6528 -0.8382 0.8252
33.5121 17.2237 -0.6577 0.8601
24.1740 26.7814 -0.6298 0.8656
0.0610 5.6846 -0.0992 0.9775
-1.3358 5.6932 -0.1021 0.9769
-14.3892 5.6740 -0.2700 0.9400
-37.8999 5.1254 -0.6676 0.8581
-65.4111 0.9045 -1.1419 0.7697
-48.9357 -11.3216 -0.8767 0.8180
-68.3400 -34.5889 -1.3370 0.7361
-72.0543 -48.1536 -1.5127 0.7070
-13.1054 -24.0293 -0.4778 0.8963
-10.3147 -25.9218 -0.4870 0.8944
23.5445 -27.5805 -0.6330 0.8650
29.6531 -27.2717 -0.7032 0.8511
38.7985 -21.3170 -0.7727 0.8377
86.5167 -23.1286 -1.5632 0.6989
49.3133 11.0867 -0.8822 0.8169
46.7878 16.6420 -0.8668 0.8198
33.9623 16.9252 -0.6623 0.8592
24.5971 26.5788 -0.6321 0.8651
3.1358 5.6657 -0.1130 0.9744
1.5361 5.6755 -0.1026 0.9768
0.1316 5.6842 -0.0992 0.9775
-0.5561 5.6884 -0.0998 0.9774
-1.2613 5.6927 -0.1018 0.9769
-2.0066 5.6973 -0.1054 0.9761
-3.7161 5.6742 -0.1184 0.9732
-6.0562 5.6397 -0.1444 0.9674
-21.2244 5.8154 -0.3841 0.9157
-34.7329 5.1372 -0.6129 0.8690
-65.6118 1.7226 -1.1456 0.7691
-77.7104 -7.3531 -1.3625 0.7318
-58.2064 -12.7068 -1.0399 0.7879
-83.7831 -29.2161 -1.5488 0.7012
-68.1323 -33.4273 -1.3247 0.7381
-68.4912 -57.3740 -1.5596 0.6995
-21.2475 -22.6753 -0.5424 0.8831
-16.3756 -22.3509 -0.4836 0.8951
-20.4819 -36.4693 -0.7301 0.8459
-8.7895 -58.1775 -1.0270 0.7903
20.3852 -41.8780 -0.8130 0.8300
23.4905 -36.3593 -0.7556 0.8410
41.2370 -23.3282 -0.8270 0.8273
66.8049 -27.7918 -1.2630 0.7487
50.1240 10.6167 -0.8943 0.8147
16.0448 5.4835 -0.2960 0.9344
24.1420 19.9695 -0.5469 0.8822
24.6792 26.0119 -0.6259 0.8664
4.4769 6.0315 -0.1311 0.9704
3.2281 5.6651 -0.1138 0.9743
0.2022 5.6837 -0.0993 0.9775
-0.4848 5.6879 -0.0996 0.9774
-4.6636 5.6739 -0.1282 0.9710
-5.9067 5.6391 -0.1425 0.9679
-10.0124 5.7465 -0.2015 0.9549
-65.4012 2.5304 -1.1424 0.7696
-83.6672 -28.0151 -1.5401 0.7026
-67.6676 -32.1626 -1.3078 0.7410
-68.8907 -56.2674 -1.5526 0.7006
-13.7520 -23.7892 -0.4796 0.8959
-8.9619 -30.8221 -0.5603 0.8795
15.4363 -46.5807 -0.8565 0.8218
23.4844 -37.3598 -0.7703 0.8382
28.2040 -27.2628 -0.6847 0.8548
36.0879 -27.3113 -0.7900 0.8344
40.7922 -23.7503 -0.8239 0.8279
64.1046 -27.6074 -1.2183 0.7564
86.3739 6.5520 -1.5120 0.7071
53.2889 10.5972 -0.9484 0.8046
16.7038 5.4780 -0.3068 0.9321
36.5717 17.1050 -0.7047 0.8508
24.1389 19.4671 -0.5413 0.8833
24.6752 25.3689 -0.6177 0.8680
4.5336 5.9520 -0.1306 0.9705
3.3216 5.6646 -0.1146 0.9741
2.4627 5.6698 -0.1079 0.9756
1.6883 5.6746 -0.1033 0.9766
0.9663 5.6779 -0.1005 0.9772
0.2729 5.6833 -0.0993 0.9775
-1.8485 5.6963 -0.1045 0.9763
-2.6450 5.7012 -0.1097 0.9752
-3.5234 5.6833 -0.1167 0.9736
-5.7610 5.6384 -0.1407 0.9683
-9.7274 5.7448 -0.1972 0.9558
-19.2877 5.8035 -0.3516 0.9226
-33.9922 5.8939 -0.6022 0.8711
-65.3962 3.3443 -1.1430 0.7695
-83.8758 -16.1389 -1.4909 0.7106
-60.8621 -28.0066 -1.1694 0.7649
-71.4549 -43.9932 -1.4647 0.7148
-22.4130 -22.7586 -0.5575 0.8800
-11.0598 -25.0364 -0.4777 0.8963
-9.1465 -30.0591 -0.5484 0.8819
18.3053 -57.6260 -1.0554 0.7851
19.5524 -42.8399 -0.8220 0.8283
23.5312 -29.7411 -0.6620 0.8592
27.5076 -27.2585 -0.6760 0.8565
39.6780 -23.7662 -0.8073 0.8311
61.9767 -27.6087 -1.1843 0.7623
58.1758 10.8197 -1.0329 0.7892
17.5373 5.5110 -0.3209 0.9291
24.1358 18.9746 -0.5359 0.8844
24.6714 24.7426 -0.6099 0.8695
4.5899 5.8731 -0.1301 0.9706
3.4165 5.6640 -0.1155 0.9739
1.0372 5.6675 -0.1006 0.9772
-1.7705 5.6959 -0.1041 0.9764
-3.4291 5.6877 -0.1159 0.9738
-7.2849 5.7297 -0.1618 0.9636
-9.4544 5.7431 -0.1931 0.9567
-18.4372 5.7983 -0.3374 0.9256
-31.5715 5.8790 -0.5606 0.8794
-65.3912 4.1587 -1.1437 0.7694
-98.0325 -5.6014 -1.7139 0.6751
-83.7492 -15.0383 -1.4852 0.7115
-69.0537 -21.2293 -1.2610 0.7490
-66.5404 -29.6236 -1.2714 0.7472
-9.4876 -29.8440 -0.5466 0.8822
16.0640 -91.0874 -1.6145 0.6907
24.9201 -41.9203 -0.8512 0.8228
26.8285 -27.2544 -0.6675 0.8581
34.2697 -27.3001 -0.7648 0.8392
60.3871 -27.8045 -1.1604 0.7665
40.1166 6.9466 -0.7107 0.8497
18.3555 5.5186 -0.3346 0.9262
24.6676 24.1317 -0.6023 0.8711
4.6457 5.7947 -0.1296 0.9707
0.4146 5.6824 -0.0995 0.9775
-0.2718 5.6866 -0.0994 0.9775
-3.3361 5.6920 -0.1152 0.9740
-5.4924 5.6494 -0.1375 0.9690
-9.1924 5.7415 -0.1892 0.9576
-12.2078 5.7131 -0.2353 0.9475
-17.6527 5.7935 -0.3243 0.9284
-64.1454 4.8804 -1.1229 0.7731
-83.6836 -13.9559 -1.4809 0.7122
-65.8258 -28.3312 -1.2509 0.7507
-70.9837 -41.3074 -1.4335 0.7200
-11.6427 -24.6783 -0.4763 0.8966
-9.5609 -28.8295 -0.5302 0.8856
18.7376 -43.9109 -0.8333 0.8261
24.2168 -41.9137 -0.8449 0.8239
23.5216 -31.2963 -0.6834 0.8550
41.4211 6.6437 -0.7322 0.8455
19.3219 5.5483 -0.3509 0.9227
40.6098 17.1801 -0.7697 0.8383
24.1299 18.0185 -0.5257 0.8865
24.6639 23.5358 -0.5951 0.8725
4.1436 6.4987 -0.1345 0.9696
-0.2010 5.6862 -0.0993 0.9775
-0.8946 5.6905 -0.1005 0.9772
-1.6162 5.6949 -0.1033 0.9766
-2.3904 5.6997 -0.1079 0.9756
-3.2442 5.6963 -0.1144 0.9741
-6.8190 5.6431 -0.1545 0.9652
-8.9409 5.7399 -0.1855 0.9584
-11.8215 5.7123 -0.2292 0.9488
-27.4463 5.8198 -0.4897 0.8938
-70.4134 -39.8130 -1.4119 0.7235
-25.1379 -23.6914 -0.6029 0.8709
-18.5431 -22.2662 -0.5058 0.8905
-14.8761 -23.0144 -0.4783 0.8962
-9.7600 -28.2504 -0.5217 0.8873
-8.7098 -40.4563 -0.7223 0.8474
13.9614 -50.3849 -0.9126 0.8113
14.9739 -36.3345 -0.6860 0.8545
25.5194 -27.2463 -0.6516 0.8613
32.5625 -27.2896 -0.7416 0.8437
42.0220 -27.3477 -0.8751 0.8183
57.0666 -28.0141 -1.1096 0.7754
41.4178 6.1164 -0.7308 0.8458
20.3108 5.5601 -0.3676 0.9192
42.0366 17.1713 -0.7926 0.8339
23.8022 13.2638 -0.4756 0.8967
24.6603 22.9539 -0.5881 0.8739
4.7400 5.6204 -0.1283 0.9710
4.2033 6.4151 -0.1339 0.9698
1.9993 5.6727 -0.1050 0.9762
1.2592 5.6772 -0.1015 0.9770
-0.1303 5.6858 -0.0993 0.9775
-1.5399 5.6944 -0.1030 0.9767
-2.3074 5.6992 -0.1073 0.9757
-5.2372 5.6617 -0.1346 0.9696
-6.6482 5.6423 -0.1522 0.9657
-8.6989 5.7384 -0.1819 0.9592
-7.8175 2.7826 -0.1448 0.9673
-30.3655 -0.6017 -0.5301 0.8856
-67.1474 -17.9345 -1.2131 0.7573
-83.8546 -33.6473 -1.5771 0.6967
-72.8373 -52.3045 -1.5652 0.6986
-26.5955 -24.4486 -0.6306 0.8654
-15.2744 -22.9989 -0.4819 0.8954
-12.4356 -24.7469 -0.4834 0.8951
-8.9636 -85.9737 -1.5088 0.7076
15.0564 -57.0826 -1.0305 0.7896
14.4241 -36.2729 -0.6814 0.8554
22.8404 -41.9009 -0.8330 0.8262
54.5977 -27.6489 -1.0682 0.7828
77.3894 -28.0890 -1.4371 0.7194
41.4146 5.5912 -0.7294 0.8460
23.7666 9.3655 -0.4459 0.9029
31.6683 17.1351 -0.6285 0.8658
24.1242 17.0976 -0.5161 0.8884
23.6876 27.3894 -0.6321 0.8651
4.2624 6.3322 -0.1332 0.9699
1.3333 5.6768 -0.1018 0.9769
0.6280 5.6811 -0.0998 0.9774
-0.0597 5.6853 -0.0992 0.9775
-1.4641 5.6940 -0.1026 0.9768
-2.2252 5.6987 -0.1068 0.9758
-3.9923 5.6702 -0.1210 0.9726
-5.1136 5.6677 -0.1332 0.9699
47.4723 -4.9246 -2.5013 0.8260
47.7199 0.8221 -2.5013 0.8260
39.5389 5.4839 -2.0920 0.8522
21.0193 5.5558 -1.1394 0.9166
18.2753 7.2782 -1.0309 0.9242
18.3285 10.0032 -1.0943 0.9198
24.1550 22.0901 -1.7155 0.8771
0.6072 5.6812 -0.2994 0.9774
-0.7711 5.6897 -0.3009 0.9773
-1.4862 5.6941 -0.3084 0.9767
-3.0731 5.6725 -0.3381 0.9745
-4.0159 5.6601 -0.3637 0.9726
-5.1338 5.6489 -0.4000 0.9699
-8.5331 5.7374 -0.5389 0.9596
-11.2597 5.7387 -0.6623 0.9506
-7.7064 2.8197 -0.4301 0.9677
-44.9637 4.9471 -2.3707 0.8343
-32.2723 -0.3555 -1.6914 0.8787
-44.4352 -5.8820 -2.3491 0.8357
-42.0349 -22.6038 -2.5013 0.8260
-19.3930 -22.3067 -1.5491 0.8883
-8.4630 -35.6187 -1.9187 0.8636
6.1161 -47.3335 -2.5013 0.8260
14.9421 -38.5602 -2.1671 0.8473
23.2503 -33.2047 -2.1243 0.8501
26.7506 -18.2287 -1.6965 0.8784
46.3998 -11.1769 -2.5013 0.8260
47.7265 0.2293 -2.5013 0.8260
18.3223 9.7064 -1.0866 0.9203
18.7036 13.0101 -1.1940 0.9128
2.9550 5.6668 -0.3349 0.9747
2.1354 5.6719 -0.3176 0.9760
1.3860 5.6765 -0.3062 0.9769
0.6786 5.6808 -0.2998 0.9773
-0.0097 5.6850 -0.2979 0.9775
-1.4107 5.6937 -0.3074 0.9768
-2.1675 5.6983 -0.3195 0.9759
-14.4468 27.4765 -1.6269 0.8831
-3.9144 5.6649 -0.3609 0.9728
-44.5049 -5.3296 -2.3491 0.8357
-45.6086 -11.1504 -2.4606 0.8286
-42.3124 -22.0800 -2.5013 0.8260
-39.3489 -27.0099 -2.5013 0.8260
-33.6346 -29.6277 -2.3491 0.8357
-19.9917 -22.4266 -1.5745 0.8866
-15.6048 -22.4479 -1.4328 0.8963
-12.6451 -23.8864 -1.4164 0.8974
-10.1080 -26.3506 -1.4791 0.8931
-5.6161 -44.6574 -2.3588 0.8350
-0.2153 -47.7265 -2.5013 0.8260
15.6751 -41.9926 -2.3491 0.8357
36.7242 -25.6987 -2.3491 0.8357
30.4094 -16.2194 -1.8062 0.8711
46.2574 -11.7524 -2.5013 0.8260
47.7256 -0.3635 -2.5013 0.8260
38.9365 4.4176 -2.0537 0.8547
18.4916 9.5038 -1.0896 0.9201
19.2037 13.0071 -1.2155 0.9113
24.1740 26.7814 -1.8908 0.8654
4.3620 6.1925 -0.3970 0.9701
3.0448 5.6662 -0.3371 0.9746
2.2160 5.6714 -0.3191 0.9759
0.7502 5.6804 -0.3003 0.9773
0.0610 5.6846 -0.2979 0.9775
-0.6276 5.6888 -0.2999 0.9773
-1.3358 5.6932 -0.3065 0.9768
-8.0876 5.7347 -0.5196 0.9611
-14.2341 5.6128 -0.8019 0.9406
-22.3342 5.8222 -1.2096 0.9117
-33.0291 4.4667 -1.7467 0.8750
-44.5676 -4.7763 -2.3491 0.8357
-44.6709 -10.3349 -2.4029 0.8322
-44.8670 -16.2734 -2.5013 0.8260
-42.5834 -21.5527 -2.5013 0.8260
-39.6814 -26.5189 -2.5013 0.8260
-34.0001 -29.2076 -2.3491 0.8357
-13.0118 -23.8576 -1.4242 0.8969
-10.2626 -25.7909 -1.4547 0.8948
-0.8081 -47.7202 -2.5013 0.8260
4.9385 -47.4708 -2.5013 0.8260
23.3925 -35.2396 -2.2167 0.8442
23.5440 -27.5799 -1.9004 0.8648
29.5383 -27.1662 -2.1032 0.8515
38.6590 -21.2404 -2.3117 0.8380
37.6409 -15.1134 -2.1257 0.8500
46.1079 -12.3261 -2.5013 0.8260
18.2742 6.5000 -1.0165 0.9253
19.0635 9.5003 -1.1163 0.9182
19.7223 13.0039 -1.2381 0.9097
3.1358 5.6657 -0.3394 0.9744
2.2974 5.6709 -0.3207 0.9758
1.5361 5.6755 -0.3081 0.9767
0.8171 5.6459 -0.2990 0.9774
-0.5561 5.6884 -0.2995 0.9774
-2.8197 5.7023 -0.3334 0.9748
-3.7161 5.6742 -0.3555 0.9732
-7.8766 5.7334 -0.5106 0.9617
-10.3102 5.7483 -0.6186 0.9538
-33.0266 4.8848 -1.7497 0.8748
-45.0210 1.1820 -2.3603 0.8349
-43.7915 -9.5600 -2.3491 0.8357
-42.8478 -21.0221 -2.5013 0.8260
-40.0077 -26.0240 -2.5013 0.8260
-21.0998 -22.5176 -1.6172 0.8837
-8.6789 -31.2937 -1.7019 0.8780
13.6470 -39.5299 -2.1917 0.8458
19.6179 -40.3017 -2.3491 0.8357
23.3867 -36.1985 -2.2586 0.8415
28.8070 -27.1617 -2.0750 0.8533
36.0745 -26.6030 -2.3491 0.8357
37.0711 -15.4221 -2.1042 0.8514
47.1691 -7.2762 -2.5013 0.8260
44.6489 3.9452 -2.3491 0.8357
43.9559 9.3103 -2.3547 0.8353
18.3047 8.8401 -1.0653 0.9218
18.5282 15.3260 -1.2602 0.9082
7.4047 47.0320 -2.4952 0.8264
0.2022 5.6837 -0.2981 0.9775
-0.4848 5.6879 -0.2992 0.9774
-1.1872 5.6923 -0.3047 0.9770
-3.6191 5.6788 -0.3529 0.9734
-4.6495 5.6567 -0.3837 0.9711
-10.0124 5.7465 -0.6050 0.9548
-20.2132 5.8092 -1.1022 0.9192
-45.0331 1.7424 -2.3618 0.8348
-44.6725 -3.6678 -2.3491 0.8357
-43.1057 -20.4882 -2.5013 0.8260
-40.3279 -25.5251 -2.5013 0.8260
-21.7680 -22.6600 -1.6467 0.8817
-16.5055 -21.9510 -1.4393 0.8958
-13.5609 -23.4587 -1.4201 0.8971
-10.6624 -24.9713 -1.4230 0.8969
-8.8860 -30.5612 -1.6680 0.8803
-7.2459 -44.2333 -2.3491 0.8357
-1.9932 -47.6854 -2.5013 0.8260
3.7578 -47.5788 -2.5013 0.8260
9.4541 -46.7813 -2.5013 0.8260
21.0171 -33.4348 -2.0696 0.8537
28.0949 -27.1573 -2.0478 0.8551
38.1195 -22.1942 -2.3117 0.8380
47.0751 -7.8615 -2.5013 0.8260
47.6790 -2.1413 -2.5013 0.8260
44.6944 3.3903 -2.3491 0.8357
16.5399 5.4242 -0.9122 0.9327
18.5199 14.9356 -1.2469 0.9091
4.5336 5.9520 -0.3921 0.9705
3.3216 5.6646 -0.3441 0.9740
0.2729 5.6833 -0.2982 0.9775
-1.8485 5.6963 -0.3139 0.9763
-3.5234 5.6833 -0.3504 0.9736
-5.7409 5.6187 -0.4210 0.9683
-7.4756 5.7309 -0.4937 0.9630
-12.9605 5.6773 -0.7415 0.9449
-30.5355 5.2945 -1.6242 0.8833
-45.0380 2.3032 -2.3634 0.8347
-44.7147 -3.1126 -2.3491 0.8357
-44.0155 -8.4692 -2.3491 0.8357
-45.4421 -14.5905 -2.5013 0.8260
-43.3568 -19.9513 -2.5013 0.8260
-16.9722 -21.9974 -1.4561 0.8947
-11.3587 -19.0976 -1.1645 0.9148
-10.9688 -24.8303 -1.4226 0.8970
-9.1761 -30.1564 -1.6520 0.8814
-7.7947 -44.1399 -2.3491 0.8357
18.6107 -40.7766 -2.3491 0.8357
23.3742 -38.2305 -2.3484 0.8357
23.6352 -29.8726 -1.9963 0.8585
35.0280 -27.1999 -2.3242 0.8372
37.8409 -22.6659 -2.3117 0.8380
47.6487 -2.7334 -2.5013 0.8260
44.7331 2.8349 -2.3491 0.8357
18.2938 8.2809 -1.0524 0.9227
18.5118 14.5533 -1.2341 0.9100
24.1682 24.2380 -1.7938 0.8719
4.5899 5.8731 -0.3906 0.9706
3.4165 5.6640 -0.3467 0.9739
2.5466 5.6693 -0.3257 0.9754
1.7651 5.6741 -0.3114 0.9765
1.0372 5.6675 -0.3020 0.9772
-0.3427 5.6871 -0.2986 0.9774
-1.0402 5.6914 -0.3032 0.9771
-1.7705 5.6959 -0.3126 0.9764
-3.4291 5.6877 -0.3481 0.9737
-4.4180 5.6558 -0.3761 0.9717
-5.6067 5.6254 -0.4162 0.9687
-12.5465 5.6827 -0.7218 0.9463
-18.4372 5.7983 -1.0129 0.9255
-29.7267 5.5355 -1.5847 0.8859
-45.0357 2.8641 -2.3650 0.8346
-43.6013 -19.4112 -2.5013 0.8260
-40.9495 -24.5155 -2.5013 0.8260
-11.2403 -24.6132 -1.4181 0.8973
-9.3495 -29.4098 -1.6173 0.8837
-3.1771 -47.6211 -2.5013 0.8260
13.3330 -43.8535 -2.4021 0.8323
22.9042 -38.5290 -2.3491 0.8357
24.7847 -25.1782 -1.8516 0.8680
37.5612 -23.1370 -2.3120 0.8380
46.8653 -9.0285 -2.5013 0.8260
44.7649 2.2791 -2.3491 0.8357
39.5473 6.8481 -2.1034 0.8515
18.2939 5.5001 -1.0011 0.9263
18.2886 8.0063 -1.0463 0.9231
18.3464 10.8293 -1.1165 0.9182
18.5040 14.1789 -1.2217 0.9109
24.1646 23.6396 -1.7716 0.8734
3.4987 5.6406 -0.3479 0.9738
2.6315 5.6688 -0.3275 0.9753
1.8426 5.6737 -0.3126 0.9764
-3.3361 5.6920 -0.3458 0.9739
-4.3056 5.6553 -0.3725 0.9719
-7.1001 5.7286 -0.4781 0.9641
-12.1711 5.6959 -0.7043 0.9476
-17.6527 5.7935 -0.9737 0.9283
-45.0261 3.4257 -2.3665 0.8345
-44.8144 -2.0026 -2.3510 0.8355
-44.2123 -7.3733 -2.3491 0.8357
-24.1641 -23.3472 -1.7609 0.8741
-17.8682 -22.0060 -1.4856 0.8927
-11.5940 -24.5753 -1.4241 0.8969
-9.4835 -28.5961 -1.5789 0.8863
-8.5203 -42.1118 -2.2517 0.8419
1.9825 -47.6858 -2.5013 0.8260
7.7047 -47.1010 -2.5013 0.8260
17.5921 -41.2263 -2.3491 0.8357
21.6071 -28.7489 -1.8848 0.8658
24.7821 -25.8090 -1.8752 0.8665
33.2738 -27.1891 -2.2519 0.8419
37.5200 -23.7597 -2.3274 0.8370
44.7897 1.7229 -2.3491 0.8357
39.5442 6.3427 -2.0989 0.8518
19.2982 5.5415 -1.0522 0.9227
18.2836 7.7349 -1.0404 0.9236
18.3396 10.5204 -1.1080 0.9188
18.4965 13.8118 -1.2098 0.9117
24.1609 23.0558 -1.7502 0.8748
5.7770 7.0251 -0.4767 0.9642
4.1436 6.4987 -0.4039 0.9696
2.7173 5.6683 -0.3294 0.9751
1.1855 5.6777 -0.3040 0.9770
0.4856 5.6820 -0.2989 0.9774
-0.2010 5.6862 -0.2982 0.9775
-0.8946 5.6905 -0.3019 0.9772
-2.3904 5.6997 -0.3239 0.9755
-3.2442 5.6963 -0.3436 0.9741
-6.7688 5.6015 -0.4605 0.9654
-8.9409 5.7399 -0.5568 0.9583
-11.8215 5.7123 -0.6881 0.9488
-16.9265 5.7890 -0.9375 0.9309
-45.0093 3.9873 -2.3681 0.8344
-44.3004 -6.8235 -2.3491 0.8357
-45.9541 -12.8875 -2.5013 0.8260
-44.0700 -18.3222 -2.5013 0.8260
-38.4183 -28.3179 -2.5013 0.8260
-18.3364 -22.0181 -1.5017 0.8916
-14.7825 -22.8697 -1.4271 0.8967
-9.6536 -27.9425 -1.5493 0.8883
-6.1674 -28.6471 -1.5357 0.8893
7.1191 -47.1931 -2.5013 0.8260
14.9739 -36.3345 -2.0596 0.8544
21.1581 -37.6931 -2.2653 0.8410
21.0484 -28.7421 -1.8670 0.8670
30.0674 -25.1985 -2.0560 0.8546
37.5678 -24.4490 -2.3491 0.8357
30.7991 -15.1193 -1.7981 0.8716
46.6266 -10.1898 -2.5013 0.8260
39.5411 5.8392 -2.0947 0.8521
18.2787 7.4666 -1.0348 0.9240
18.3331 10.2161 -1.0999 0.9194
24.1574 22.4858 -1.7296 0.8762
2.8042 5.6677 -0.3314 0.9750
1.9993 5.6727 -0.3152 0.9762
1.2592 5.6772 -0.3048 0.9770
-1.5399 5.6944 -0.3092 0.9766
-3.1535 5.7006 -0.3414 0.9742
-8.6989 5.7384 -0.5462 0.9591
-7.8170 2.7825 -0.4349 0.9673
-44.9852 4.5490 -2.3696 0.8343
-30.3404 -0.6012 -1.5904 0.8855
-44.3818 -6.2728 -2.3491 0.8357
-46.1106 -12.3157 -2.5013 0.8260
-44.2942 -17.7734 -2.5013 0.8260
-41.8344 -22.9729 -2.5013 0.8260
-38.7670 -27.8386 -2.5013 0.8260
-12.2081 -24.2942 -1.4249 0.8968
0.7974 -47.7204 -2.5013 0.8260
12.1724 -46.1487 -2.5013 0.8260
26.9612 -18.0269 -1.6997 0.8782
30.4814 -15.4361 -1.7906 0.8721
44.8633 -16.2835 -2.5013 0.8260
46.4964 -10.7682 -2.5013 0.8260
47.4541 -5.0964 -2.5013 0.8260
47.7226 0.6491 -2.5013 0.8260
18.2739 7.2011 -1.0294 0.9243
2.8921 5.6672 -0.3334 0.9748
1.3333 5.6768 -0.3056 0.9769
0.6280 5.6811 -0.2995 0.9774
-0.7502 5.6896 -0.3008 0.9773
-2.2252 5.6987 -0.3206 0.9758
-3.9861 5.6615 -0.3629 0.9726
28.4370 -2.9499 -2.5013 0.8915
19.6527 2.7258 -1.7358 0.9234
18.7687 10.2435 -1.8707 0.9177
18.8583 13.4684 -2.0275 0.9111
4.2452 6.3563 -0.6687 0.9698
1.3116 5.6769 -0.5098 0.9769
-0.0803 5.6855 -0.4975 0.9774
-0.7711 5.6897 -0.5023 0.9772
-2.2491 5.6988 -0.5360 0.9757
-3.0731 5.6725 -0.5644 0.9744
-4.0159 5.6601 -0.6072 0.9725
-5.1184 5.6318 -0.6658 0.9699
-6.4401 5.5639 -0.7446 0.9664
-7.7063 2.8197 -0.7179 0.9676
-26.8483 -0.2958 -2.3491 0.8978
-11.5709 -2.9817 -1.0454 0.9532
-23.3681 -16.4710 -2.5013 0.8915
-15.6225 -17.9696 -2.0832 0.9088
-15.0507 -22.2350 -2.3491 0.8978
-12.2665 -23.8841 -2.3491 0.8978
-6.2068 -26.1227 -2.3491 0.8978
-3.2147 -28.4083 -2.5013 0.8915
7.0480 -27.7072 -2.5013 0.8915
10.3300 -26.6581 -2.5013 0.8915
13.4262 -25.1548 -2.4946 0.8918
15.4005 -21.9941 -2.3491 0.8978
20.2081 -17.6791 -2.3491 0.8978
23.6258 -16.0993 -2.5013 0.8915
28.3981 -3.3029 -2.5013 0.8915
28.5893 0.1374 -2.5013 0.8915
22.1017 5.5491 -1.9937 0.9126
18.6971 7.1785 -1.7522 0.9227
18.8478 13.1104 -2.0087 0.9119
20.3665 18.1661 -2.3877 0.8962
18.1005 20.5607 -2.3966 0.8958
-1.4107 5.6937 -0.5132 0.9767
-12.8262 24.3941 -2.4112 0.8952
-3.9144 5.6649 -0.6024 0.9727
-4.9975 5.6380 -0.6591 0.9702
-6.2895 5.5717 -0.7351 0.9668
-7.7093 2.9299 -0.7215 0.9674
-26.6504 3.2675 -2.3491 0.8978
-28.3868 -3.3994 -2.5013 0.8915
-11.5884 -2.8331 -1.0437 0.9532
-26.7532 -10.0812 -2.5013 0.8915
-21.2971 -18.7600 -2.4831 0.8923
-17.8666 -20.0426 -2.3491 0.8978
-15.3257 -22.0464 -2.3491 0.8978
-9.6163 -25.0688 -2.3491 0.8978
-6.5307 -26.0436 -2.3491 0.8978
-3.5673 -28.3662 -2.5013 0.8915
-0.1290 -28.5893 -2.5013 0.8915
3.3112 -28.3972 -2.5013 0.8915
6.7034 -27.7926 -2.5013 0.8915
23.4240 -16.3915 -2.5013 0.8915
26.6611 -10.3222 -2.5013 0.8915
28.3549 -3.6554 -2.5013 0.8915
28.5887 -0.2178 -2.5013 0.8915
23.2938 5.5418 -2.0948 0.9083
18.7644 9.6441 -1.8458 0.9188
19.2037 13.0071 -2.0292 0.9111
20.5822 17.9044 -2.3867 0.8962
3.0448 5.6662 -0.5628 0.9745
2.2160 5.6714 -0.5327 0.9758
1.4608 5.6760 -0.5128 0.9767
-1.3358 5.6932 -0.5116 0.9768
-2.8967 5.6793 -0.5578 0.9747
-8.0876 5.7347 -0.8674 0.9610
-14.0332 5.5336 -1.3198 0.9412
-26.8763 -9.7481 -2.5013 0.8915
-25.5085 -12.9106 -2.5013 0.8915
-21.6571 -18.6044 -2.4979 0.8917
-15.5984 -21.8543 -2.3491 0.8978
-12.8560 -23.5721 -2.3491 0.8978
-9.9270 -24.9474 -2.3491 0.8978
-0.4841 -28.5855 -2.5013 0.8915
2.9582 -28.4361 -2.5013 0.8915
9.6646 -26.9065 -2.5013 0.8915
12.8313 -25.5484 -2.5013 0.8915
14.8495 -22.3699 -2.3491 0.8978
17.4327 -20.4210 -2.3491 0.8978
19.7627 -18.1756 -2.3491 0.8978
23.2186 -16.6812 -2.5013 0.8915
26.5309 -10.6526 -2.5013 0.8915
28.3073 -4.0073 -2.5013 0.8915
26.7143 2.6953 -2.3491 0.8978
19.2222 9.5795 -1.8790 0.9174
20.7945 17.6400 -2.3857 0.8963
18.5921 20.0900 -2.3948 0.8959
4.4197 6.1117 -0.6599 0.9702
3.1358 5.6657 -0.5665 0.9743
2.2974 5.6709 -0.5353 0.9757
0.1316 5.6842 -0.4974 0.9774
-1.2613 5.6927 -0.5101 0.9769
-2.0066 5.6973 -0.5285 0.9760
-5.9993 5.5866 -0.7172 0.9676
-7.8766 5.7334 -0.8523 0.9616
-10.3102 5.7483 -1.0327 0.9537
-13.6085 5.5624 -1.2862 0.9427
-28.4624 -2.6932 -2.5013 0.8915
-11.6694 -2.5475 -1.0450 0.9532
-26.9953 -9.4136 -2.5013 0.8915
-25.6668 -12.5928 -2.5013 0.8915
-21.9162 -18.3588 -2.5013 0.8915
-18.3589 -19.5926 -2.3491 0.8978
-15.8686 -21.6588 -2.3491 0.8978
-13.1478 -23.4105 -2.3491 0.8978
-7.1756 -25.8733 -2.3491 0.8978
6.0109 -27.9505 -2.5013 0.8915
9.3297 -27.0245 -2.5013 0.8915
12.5130 -25.7058 -2.5013 0.8915
14.5705 -22.5526 -2.3491 0.8978
16.2584 -19.5317 -2.2233 0.9030
22.9933 -16.9563 -2.4995 0.8916
24.8838 -14.0770 -2.5013 0.8915
26.3965 -10.9813 -2.5013 0.8915
27.5258 -7.7261 -2.5013 0.8915
28.2554 -4.3586 -2.5013 0.8915
28.5745 -0.9278 -2.5013 0.8915
26.7457 2.3633 -2.3491 0.8978
26.2672 5.5636 -2.3491 0.8978
18.6811 6.3845 -1.7272 0.9238
18.8331 19.8501 -2.3939 0.8960
4.4769 6.0315 -0.6572 0.9703
3.2281 5.6651 -0.5705 0.9742
2.3796 5.6703 -0.5380 0.9756
1.6119 5.6751 -0.5161 0.9766
4.3053 27.3460 -2.4219 0.8948
0.2022 5.6837 -0.4976 0.9774
-0.4848 5.6879 -0.4994 0.9773
-1.1872 5.6923 -0.5087 0.9769
-1.9272 5.6968 -0.5262 0.9761
-2.7318 5.7018 -0.5531 0.9749
-3.6191 5.6788 -0.5891 0.9733
-4.6355 5.6396 -0.6387 0.9711
-5.8593 5.5938 -0.7087 0.9680
-26.5101 4.2581 -2.3491 0.8978
-26.8299 1.0381 -2.3491 0.8978
-28.4937 -2.3395 -2.5013 0.8915
-11.8147 -2.4259 -1.0552 0.9527
-27.1102 -9.0776 -2.5013 0.8915
-25.8213 -12.2729 -2.5013 0.8915
-18.6009 -19.3630 -2.3491 0.8978
12.1927 -25.8593 -2.5013 0.8915
14.2892 -22.7318 -2.3491 0.8978
16.0217 -19.7410 -2.2243 0.9030
26.2581 -11.3083 -2.5013 0.8915
26.7730 2.0309 -2.3491 0.8978
18.7323 8.7613 -1.8093 0.9203
18.8087 11.7418 -1.9399 0.9148
18.9130 15.2527 -2.1257 0.9070
4.5336 5.9520 -0.6546 0.9704
0.9663 5.6779 -0.5039 0.9771
-1.8485 5.6963 -0.5239 0.9762
-3.5234 5.6833 -0.5850 0.9735
-4.5190 5.6393 -0.6322 0.9714
-5.7227 5.6009 -0.7006 0.9684
-7.4756 5.7309 -0.8241 0.9629
-12.8198 5.6156 -1.2245 0.9454
-19.2877 5.8035 -1.7622 0.9223
-26.4552 4.5870 -2.3491 0.8978
-28.5206 -1.9853 -2.5013 0.8915
-27.2209 -8.7401 -2.5013 0.8915
-22.3654 -17.8088 -2.5013 0.8915
-18.8400 -19.1304 -2.3491 0.8978
-11.2851 -18.9738 -1.9314 0.9152
-7.8161 -25.6871 -2.3491 0.8978
-1.5487 -28.5476 -2.5013 0.8915
1.8921 -28.4554 -2.4950 0.8918
8.6555 -27.2479 -2.5013 0.8915
11.8705 -26.0087 -2.5013 0.8915
14.0057 -22.9076 -2.3491 0.8978
19.0719 -18.8992 -2.3491 0.8978
22.2865 -17.3059 -2.4686 0.8929
24.5264 -14.6908 -2.5013 0.8915
28.1384 -5.0592 -2.5013 0.8915
28.5427 -1.6374 -2.5013 0.8915
16.8793 5.3042 -1.5479 0.9314
18.7997 11.4141 -1.9242 0.9155
18.9007 14.8590 -2.1034 0.9080
1.7651 5.6741 -0.5199 0.9764
1.0372 5.6675 -0.5041 0.9771
0.3437 5.6829 -0.4981 0.9774
-0.3427 5.6871 -0.4985 0.9774
-1.0402 5.6914 -0.5062 0.9770
-1.7705 5.6959 -0.5218 0.9763
-7.2849 5.7297 -0.8109 0.9635
-26.3962 4.9153 -2.3491 0.8978
-26.7958 1.7041 -2.3491 0.8978
-28.1395 -5.0528 -2.5013 0.8915
-26.1182 -11.6278 -2.5013 0.8915
-24.5297 -14.6854 -2.5013 0.8915
-16.6646 -21.0526 -2.3491 0.8978
-14.0109 -22.9045 -2.3491 0.8978
-5.3096 -28.0297 -2.4959 0.8918
1.5423 -28.5479 -2.5013 0.8915
8.3164 -27.3533 -2.5013 0.8915
13.7556 -23.1395 -2.3551 0.8975
16.3970 -21.2617 -2.3491 0.8978
21.7328 -17.3129 -2.4309 0.8944
24.3421 -14.9943 -2.5013 0.8915
28.0734 -5.4083 -2.5013 0.8915
17.7218 5.3281 -1.6190 0.9284
12.8472 5.6242 -1.2270 0.9452
18.8887 14.4736 -2.0819 0.9089
19.5372 19.1128 -2.3912 0.8961
4.6457 5.7947 -0.6498 0.9706
2.6315 5.6688 -0.5468 0.9752
1.1122 5.6781 -0.5062 0.9770
-1.6930 5.6954 -0.5198 0.9764
-2.4744 5.7002 -0.5437 0.9754
-3.3361 5.6920 -0.5772 0.9739
-4.2992 5.6468 -0.6209 0.9719
-7.1001 5.7286 -0.7982 0.9640
-9.1924 5.7415 -0.9482 0.9574
-12.1027 5.6639 -1.1691 0.9478
-17.6526 5.7935 -1.6255 0.9281
-28.4836 -1.2728 -2.4945 0.8918
-28.2001 -4.7029 -2.5013 0.8915
-11.6245 -3.4163 -1.0600 0.9525
-24.7102 -14.3795 -2.5013 0.8915
-22.8009 -17.2477 -2.5013 0.8915
-19.3094 -18.6566 -2.3491 0.8978
-16.9247 -20.8440 -2.3491 0.8978
-11.4562 -24.2832 -2.3491 0.8978
-8.4518 -25.4850 -2.3491 0.8978
-5.4489 -26.9316 -2.4039 0.8955
-2.2573 -28.5003 -2.5013 0.8915
1.1875 -28.5649 -2.5013 0.8915
4.6153 -28.2146 -2.5013 0.8915
11.2208 -26.2956 -2.5013 0.8915
13.6447 -23.6159 -2.3862 0.8963
16.1316 -21.4637 -2.3491 0.8978
25.8185 -12.2788 -2.5013 0.8915
27.1082 -9.0836 -2.5013 0.8915
28.0040 -5.7566 -2.5013 0.8915
28.4932 -2.3458 -2.5013 0.8915
28.5684 1.0989 -2.5013 0.8915
18.8627 5.4165 -1.7170 0.9242
18.7826 10.7744 -1.8944 0.9167
18.8772 14.0961 -2.0612 0.9097
19.7654 18.8613 -2.3902 0.8961
5.7770 7.0251 -0.7957 0.9641
4.1436 6.4987 -0.6743 0.9695
1.1855 5.6777 -0.5074 0.9770
0.4856 5.6820 -0.4989 0.9774
-0.2010 5.6862 -0.4978 0.9774
-1.6162 5.6949 -0.5179 0.9765
-6.7192 5.5605 -0.7630 0.9656
-8.9409 5.7399 -0.9295 0.9582
-11.7678 5.6864 -1.1434 0.9489
-27.5435 -0.8882 -2.4110 0.8952
-28.2564 -4.3523 -2.5013 0.8915
-11.5607 -3.2421 -1.0505 0.9529
-24.8869 -14.0715 -2.5013 0.8915
-23.0134 -16.9631 -2.5013 0.8915
-17.1823 -20.6322 -2.3491 0.8978
-5.6510 -26.2485 -2.3491 0.8978
-2.6111 -28.4701 -2.5013 0.8915
0.8326 -28.5775 -2.5013 0.8915
7.6344 -27.5514 -2.5013 0.8915
10.8933 -26.4329 -2.5013 0.8915
13.5544 -24.1471 -2.4227 0.8948
18.3546 -19.5966 -2.3491 0.8978
20.6769 -17.3286 -2.3603 0.8973
26.9932 -9.4196 -2.5013 0.8915
28.4618 -2.6996 -2.5013 0.8915
28.5799 0.7440 -2.5013 0.8915
19.6525 2.9022 -1.7380 0.9233
13.7562 5.6192 -1.3000 0.9421
18.7744 10.4620 -1.8804 0.9173
4.7400 5.6204 -0.6432 0.9709
0.5567 5.6815 -0.4995 0.9773
-1.5399 5.6944 -0.5161 0.9766
-2.3074 5.6992 -0.5379 0.9756
-4.0888 5.6567 -0.6106 0.9724
-5.2055 5.6274 -0.6707 0.9697
-6.5524 5.5610 -0.7519 0.9661
-8.6989 5.7384 -0.9117 0.9590
-7.8166 2.7823 -0.7259 0.9672
-26.1936 5.8951 -2.3490 0.8978
-26.7137 2.7013 -2.3491 0.8978
-25.0597 -13.7613 -2.5013 0.8915
-23.2223 -16.6760 -2.5013 0.8915
-15.4392 -18.0775 -2.0799 0.9090
-14.8545 -22.3665 -2.3491 0.8978
-12.0559 -23.9911 -2.3491 0.8978
-5.9766 -26.1763 -2.3491 0.8978
0.4776 -28.5856 -2.5013 0.8915
3.9130 -28.3205 -2.5013 0.8915
10.5642 -26.5662 -2.5013 0.8915
13.5032 -24.7719 -2.4683 0.8929
15.5935 -21.8577 -2.3491 0.8978
18.1097 -19.8232 -2.3491 0.8978
20.3629 -17.5006 -2.3491 0.8978
26.8742 -9.7542 -2.5013 0.8915
27.8524 -6.4504 -2.5013 0.8915
18.7664 10.1542 -1.8668 0.9179
20.2117 18.3499 -2.3883 0.8962
17.9234 20.7244 -2.3972 0.8958
4.2624 6.3322 -0.6678 0.9698
2.0787 5.6722 -0.5285 0.9760
1.3333 5.6768 -0.5102 0.9769
-0.7502 5.6896 -0.5021 0.9772
-2.2252 5.6987 -0.5352 0.9757
-3.9861 5.6615 -0.6058 0.9726
-5.0829 5.6337 -0.6638 0.9700
20.3682 0.3509 -2.5013 0.9212
17.7739 7.0785 -2.3491 0.9258
16.8306 9.1857 -2.3543 0.9256
12.5983 14.6742 -2.3747 0.9250
4.2452 6.3563 -0.9385 0.9697
0.6072 5.6812 -0.7015 0.9772
-1.4862 5.6941 -0.7226 0.9766
-2.2491 5.6988 -0.7522 0.9756
-3.0731 5.6725 -0.7921 0.9743
-4.0159 5.6601 -0.8521 0.9724
-7.7062 2.8197 -1.0076 0.9675
-19.0169 2.0922 -2.3491 0.9258
-20.3699 -0.2244 -2.5013 0.9212
-20.1950 -2.6733 -2.5013 0.9212
-18.9720 -7.4195 -2.5013 0.9212
-17.9416 -9.6479 -2.5013 0.9212
-16.6507 -11.7363 -2.5013 0.9212
-11.4190 -16.8698 -2.5013 0.9212
-9.3067 -18.1210 -2.5013 0.9212
-7.0591 -19.1090 -2.5013 0.9212
-4.7091 -19.8194 -2.5013 0.9212
-2.2906 -20.2420 -2.5013 0.9212
0.1611 -20.3705 -2.5013 0.9212
2.6105 -20.2032 -2.5013 0.9212
5.0220 -19.7424 -2.5013 0.9212
9.5922 -17.9715 -2.5013 0.9212
11.6845 -16.6870 -2.5013 0.9212
15.3320 -13.4132 -2.5013 0.9212
16.8342 -11.4714 -2.5013 0.9212
18.0920 -9.3629 -2.5013 0.9212
19.0870 -7.1184 -2.5013 0.9212
19.8047 -4.7706 -2.5013 0.9212
20.3709 0.0979 -2.5013 0.9212
18.9814 2.3928 -2.3491 0.9258
18.5557 4.6588 -2.3491 0.9258
16.9377 8.9729 -2.3535 0.9257
8.1262 5.6525 -1.2154 0.9609
12.7764 14.5129 -2.3741 0.9250
4.3039 6.2740 -0.9342 0.9698
2.9550 5.6668 -0.7847 0.9746
2.1354 5.6719 -0.7441 0.9759
0.6786 5.6808 -0.7025 0.9772
-0.0097 5.6850 -0.6980 0.9773
-0.6992 5.6893 -0.7038 0.9772
-1.4107 5.6937 -0.7202 0.9766
-2.1675 5.6983 -0.7486 0.9757
-4.9826 5.6211 -0.9223 0.9702
-6.2650 5.5500 -1.0277 0.9668
-8.3063 5.7360 -1.2394 0.9601
-7.7092 2.9298 -1.0126 0.9673
-18.5714 4.5958 -2.3491 0.9258
-20.3711 0.0286 -2.5013 0.9212
-18.0601 -9.4243 -2.5013 0.9212
-11.6277 -16.7267 -2.5013 0.9212
-7.2959 -19.0198 -2.5013 0.9212
-4.9549 -19.7594 -2.5013 0.9212
-2.5418 -20.2120 -2.5013 0.9212
-0.0919 -20.3710 -2.5013 0.9212
2.3594 -20.2341 -2.5013 0.9212
4.7764 -19.8033 -2.5013 0.9212
7.1241 -19.0849 -2.5013 0.9212
13.4177 -15.3281 -2.5013 0.9212
16.6905 -11.6796 -2.5013 0.9212
17.9743 -9.5869 -2.5013 0.9212
18.9971 -7.3550 -2.5013 0.9212
20.2040 -2.6046 -2.5013 0.9212
18.6121 4.4280 -2.3491 0.9258
17.9443 6.6348 -2.3491 0.9258
14.5457 12.6533 -2.3672 0.9252
5.4642 6.0535 -1.0013 0.9677
4.3620 6.1925 -0.9300 0.9699
3.0448 5.6662 -0.7898 0.9744
2.2160 5.6714 -0.7476 0.9758
1.4608 5.6760 -0.7196 0.9767
-1.3358 5.6932 -0.7180 0.9767
-2.0867 5.6978 -0.7450 0.9758
-2.8967 5.6793 -0.7828 0.9746
-4.8606 5.6227 -0.9126 0.9705
-8.0876 5.7347 -1.2173 0.9608
-10.6217 5.7503 -1.4830 0.9525
-13.6292 5.3743 -1.7989 0.9427
-18.5129 4.8261 -2.3491 0.9258
-18.9590 2.5639 -2.3491 0.9258
-20.2552 -2.1708 -2.5013 0.9212
-10.5542 -2.4418 -1.3301 0.9573
-19.1504 -6.9459 -2.5013 0.9212
-18.1758 -9.1993 -2.5013 0.9212
-16.9371 -11.3190 -2.5013 0.9212
-13.7433 -15.0368 -2.5013 0.9212
-11.8346 -16.5809 -2.5013 0.9212
-9.7539 -17.8842 -2.5013 0.9212
-5.1999 -19.6963 -2.5013 0.9212
-0.3449 -20.3683 -2.5013 0.9212
2.1079 -20.2618 -2.5013 0.9212
4.5301 -19.8611 -2.5013 0.9212
9.1428 -18.2042 -2.5013 0.9212
13.2263 -15.4935 -2.5013 0.9212
16.5441 -11.8860 -2.5013 0.9212
18.9043 -7.5904 -2.5013 0.9212
19.6801 -5.2611 -2.5013 0.9212
20.1701 -2.8554 -2.5013 0.9212
20.3671 -0.4082 -2.5013 0.9212
19.0350 1.9205 -2.3491 0.9258
18.6657 4.1965 -2.3491 0.9258
14.6975 12.4680 -2.3665 0.9253
4.4197 6.1117 -0.9261 0.9701
3.1358 5.6657 -0.7951 0.9742
1.5361 5.6755 -0.7219 0.9766
0.1316 5.6842 -0.6981 0.9773
-0.5561 5.6884 -0.7018 0.9772
-2.8197 5.7023 -0.7811 0.9747
-4.7426 5.6260 -0.9035 0.9708
-7.8766 5.7334 -1.1962 0.9615
-18.9257 2.7992 -2.3491 0.9258
-20.3468 0.5342 -2.4991 0.9212
-20.2806 -1.9190 -2.5013 0.9212
-10.5918 -2.3123 -1.3311 0.9572
-10.5499 -3.6789 -1.3719 0.9560
-18.2886 -8.9728 -2.5013 0.9212
-15.6161 -13.0813 -2.5013 0.9212
-12.0396 -16.4327 -2.5013 0.9212
-7.7661 -18.8327 -2.5013 0.9212
-3.0431 -20.1426 -2.5013 0.9212
-0.5979 -20.3624 -2.5013 0.9212
6.6478 -19.2560 -2.5013 0.9212
8.9160 -18.3164 -2.5013 0.9212
14.8216 -13.9751 -2.5013 0.9212
17.7306 -10.0304 -2.5013 0.9212
20.3604 -0.6611 -2.5013 0.9212
18.7164 3.9643 -2.3491 0.9258
14.8469 12.2809 -2.3658 0.9253
4.4769 6.0315 -0.9223 0.9702
3.2281 5.6651 -0.8006 0.9741
3.0295 19.2424 -2.3918 0.9245
-0.4848 5.6879 -0.7009 0.9773
-1.1872 5.6923 -0.7140 0.9768
-2.7318 5.7018 -0.7763 0.9748
-4.6287 5.6314 -0.8950 0.9711
-7.6727 5.7321 -1.1760 0.9621
-10.0124 5.7465 -1.4175 0.9545
-18.3873 5.2844 -2.3491 0.9258
-18.8895 3.0341 -2.3491 0.9258
-20.3055 0.7856 -2.4951 0.9214
-10.5155 -3.5210 -1.3616 0.9563
-18.3987 -8.7449 -2.5013 0.9212
-17.2130 -10.8948 -2.5013 0.9212
-15.7774 -12.8864 -2.5013 0.9212
-14.1126 -14.6908 -2.5013 0.9212
-10.1952 -17.6364 -2.5013 0.9212
4.0353 -19.9675 -2.5013 0.9212
10.8413 -17.2468 -2.5013 0.9212
14.6469 -14.1581 -2.5013 0.9212
19.5433 -5.7483 -2.5013 0.9212
20.0929 -3.3555 -2.5013 0.9212
20.3507 -0.9140 -2.5013 0.9212
20.2593 1.5368 -2.4947 0.9214
18.7642 3.7315 -2.3491 0.9258
17.3387 8.1095 -2.3503 0.9258
9.0544 5.6524 -1.3106 0.9579
14.9938 12.0919 -2.3651 0.9253
5.6286 5.7868 -0.9912 0.9680
2.4627 5.6698 -0.7590 0.9754
1.6883 5.6746 -0.7269 0.9764
0.9663 5.6779 -0.7072 0.9771
-1.1135 5.6918 -0.7121 0.9769
-1.8485 5.6963 -0.7353 0.9762
-2.6450 5.7012 -0.7717 0.9750
-4.5169 5.6366 -0.8869 0.9713
-5.7045 5.5831 -0.9801 0.9683
-12.5902 5.5150 -1.6877 0.9461
-18.8503 3.2684 -2.3491 0.9258
-11.0945 -2.1347 -1.3872 0.9555
-10.4887 -3.3677 -1.3526 0.9566
-18.5059 -8.5157 -2.5013 0.9212
-15.9362 -12.6895 -2.5013 0.9212
-14.2940 -14.5144 -2.5013 0.9212
-3.5426 -20.0608 -2.5013 0.9212
1.3516 -20.3263 -2.5013 0.9212
3.7870 -20.0161 -2.5013 0.9212
