ply
format ascii 1.0
element vertex 772
property float32 x
property float32 y
property float32 z
property float32 I
end_header
-18.1224 -28.1770 8.9768 0.8705
-15.0372 -43.9221 12.4395 0.8251
-9.7029 -45.7464 12.5304 0.8239
87.2719 13.5287 23.6637 0.6937
38.7825 16.1913 11.2610 0.8403
29.5015 16.7484 9.0900 0.8689
26.1042 24.7136 9.6320 0.8617
26.3214 31.7682 11.0544 0.8430
2.7395 5.6681 1.6869 0.9743
1.2013 5.6776 1.5550 0.9763
0.4993 5.6819 1.5283 0.9767
-0.1888 5.6861 1.5244 0.9767
-0.8836 5.6904 1.5430 0.9764
-2.3812 5.6996 1.6551 0.9747
-3.2406 5.7049 1.7580 0.9732
-4.2210 5.6996 1.9004 0.9711
-24.4332 20.2338 8.5003 0.8769
-18.0954 -28.1966 8.9773 0.8705
-14.5148 -30.0701 8.9468 0.8709
51.4197 -32.9811 16.3685 0.7765
87.1199 13.5936 23.6262 0.6941
29.4342 16.7489 9.0743 0.8691
26.1045 24.7630 9.6411 0.8616
3.6301 5.6627 1.8023 0.9725
0.4937 5.6819 1.5282 0.9767
-0.1944 5.6862 1.5245 0.9767
-2.3878 5.6996 1.6558 0.9747
-3.2481 5.7049 1.7590 0.9732
-4.2290 5.6986 1.9015 0.9710
-24.4830 20.2341 8.5107 0.8768
-35.2601 -42.5138 12.7516 0.7971
-23.5450 -36.6082 10.0488 0.8364
-15.3318 -44.7827 10.9280 0.8234
-9.9151 -46.7470 11.0325 0.8219
51.4912 -54.4155 17.2957 0.7352
51.4165 -33.0511 14.1114 0.7781
22.2093 0.7319 5.1302 0.9128
86.8875 13.4691 20.2992 0.6970
26.5731 19.6691 7.6326 0.8731
5.9367 5.6205 1.8874 0.9670
4.6864 5.6562 1.6958 0.9703
-0.1888 5.6861 1.3135 0.9769
-2.3812 5.6996 1.4261 0.9750
-3.2406 5.7049 1.5147 0.9734
-4.2294 5.7110 1.6407 0.9712
-5.4163 5.7183 1.8184 0.9682
-14.6397 -30.3288 7.7750 0.8709
-15.2823 -44.7830 10.9244 0.8234
25.5919 -45.0008 11.9518 0.8085
51.4197 -32.9811 14.1033 0.7782
29.4342 16.7489 7.8185 0.8702
26.5734 19.7101 7.6383 0.8730
4.6770 5.6562 1.6944 0.9703
3.6301 5.6627 1.5529 0.9728
2.7326 5.6682 1.4527 0.9745
1.9328 5.6731 1.3837 0.9757
1.1954 5.6776 1.3395 0.9765
-0.1944 5.6862 1.3135 0.9769
-0.8893 5.6904 1.3297 0.9766
-1.6122 5.6949 1.3664 0.9760
-2.3878 5.6996 1.4267 0.9750
-24.4830 20.2341 7.3329 0.8778
-70.3979 -66.5816 18.8348 0.6738
-14.7473 -30.4746 6.5808 0.8711
25.6301 -45.1721 10.0955 0.8093
44.5025 -47.0300 12.5857 0.7681
51.3778 -33.0262 11.8722 0.7797
56.9948 -27.5636 12.3062 0.7726
86.6064 13.4256 17.0356 0.6997
51.8388 14.6063 10.4688 0.8030
29.5015 16.7484 6.5942 0.8709
5.9367 5.6205 1.5891 0.9672
3.6380 5.6626 1.3083 0.9729
2.7395 5.6681 1.2237 0.9747
1.9391 5.6731 1.1654 0.9759
1.2013 5.6776 1.1280 0.9766
-0.1888 5.6861 1.1059 0.9771
-0.8836 5.6904 1.1194 0.9768
-1.6061 5.6948 1.1501 0.9762
-2.3812 5.6996 1.2007 0.9751
-3.2406 5.7049 1.2753 0.9736
-4.2294 5.7110 1.3814 0.9715
-5.4163 5.7183 1.5310 0.9684
-6.9162 5.7275 1.7455 0.9641
-68.5163 -38.9427 15.3191 0.7253
-70.3359 -66.6552 18.8359 0.6738
-22.2183 -34.6209 7.9962 0.8457
-14.7080 -30.4704 6.5767 0.8712
-12.5112 -36.6626 7.5300 0.8540
17.7362 -42.3941 8.9327 0.8292
41.5162 -56.0016 13.5506 0.7527
44.6015 -47.0409 12.6005 0.7679
54.9178 -45.4330 13.8545 0.7479
51.3783 -32.9545 11.8647 0.7798
86.6070 13.5136 17.0384 0.6996
51.6681 14.6135 10.4372 0.8035
38.6762 16.1920 8.1502 0.8429
29.4342 16.7489 6.5829 0.8711
5.9310 5.6263 1.5891 0.9672
4.6770 5.6562 1.4266 0.9705
3.6301 5.6627 1.3075 0.9730
1.9328 5.6731 1.1650 0.9759
0.4937 5.6819 1.1086 0.9770
-2.3878 5.6996 1.2012 0.9751
-3.2481 5.7049 1.2761 0.9736
-6.9303 5.7276 1.7476 0.9640
-69.6915 -65.9135 15.1929 0.6781
-30.3360 -36.5767 7.5264 0.8249
-18.2838 -28.4281 5.3534 0.8721
-10.4752 -49.3875 7.9962 0.8151
12.8869 -45.7802 7.5327 0.8248
54.5540 -45.2232 11.2233 0.7505
51.4774 -33.0902 9.6923 0.7805
57.1062 -27.6175 10.0469 0.7734
55.8458 -4.9219 8.8794 0.7969
55.8874 1.8418 8.8565 0.7974
38.7826 16.1913 6.6564 0.8435
29.5015 16.7485 5.3731 0.8716
3.6380 5.6626 1.0660 0.9731
0.4993 5.6819 0.9034 0.9772
-0.8836 5.6904 0.9121 0.9769
-1.6061 5.6948 0.9372 0.9763
-2.3812 5.6996 0.9783 0.9753
-4.2294 5.7110 1.1256 0.9716
-8.9391 5.7399 1.6826 0.9579
-64.4619 -47.7634 12.7070 0.7226
-30.1552 -36.4321 7.4905 0.8257
-23.4939 -36.6086 6.8895 0.8385
12.9308 -45.7619 7.5318 0.8248
18.1034 -43.2720 7.4292 0.8270
51.4779 -33.0184 9.6863 0.7806
56.3409 -11.8770 9.1196 0.7920
56.0443 8.7448 8.9840 0.7948
51.6180 14.5994 8.4962 0.8047
38.6762 16.1920 6.6409 0.8438
29.4342 16.7489 5.3638 0.8718
26.5734 19.7101 5.2402 0.8746
4.6770 5.6562 1.1625 0.9707
3.6301 5.6627 1.0653 0.9731
1.9328 5.6731 0.9492 0.9760
1.1954 5.6776 0.9190 0.9768
-0.1944 5.6862 0.9011 0.9772
-0.8893 5.6904 0.9122 0.9769
-1.6122 5.6949 0.9374 0.9763
-5.4272 5.7183 1.2487 0.9686
-87.0194 41.9242 15.2987 0.6763
-28.6478 -34.5412 5.5100 0.8346
-18.2573 -28.3867 4.1441 0.8728
-17.6238 -36.4188 4.9677 0.8495
24.8328 -43.7669 6.1786 0.8164
54.5571 -45.2258 8.7011 0.7516
56.9948 -27.5636 7.7735 0.7748
55.8123 -19.0925 7.2428 0.7884
55.9811 -4.9338 6.9003 0.7973
26.6435 19.7212 4.0701 0.8750
5.9367 5.6205 1.0038 0.9676
3.6380 5.6626 0.8264 0.9732
2.7395 5.6681 0.7730 0.9749
1.9391 5.6731 0.7361 0.9761
0.4993 5.6819 0.7003 0.9773
-0.1888 5.6861 0.6986 0.9773
-1.6061 5.6948 0.7265 0.9764
-4.2294 5.7110 0.8726 0.9718
-89.0972 -37.2490 11.8573 0.6776
-28.5903 -34.5415 5.5055 0.8347
-18.2437 -28.4276 4.1474 0.8727
-17.5877 -36.4362 4.9677 0.8495
-12.5112 -36.6626 4.7565 0.8555
-10.1814 -48.2385 6.0534 0.8198
14.5842 -51.6132 6.5854 0.8056
18.0281 -43.0920 5.7354 0.8284
33.5455 -45.2499 6.9162 0.7969
43.0824 -45.4387 7.6883 0.7770
51.3199 -42.4564 8.1781 0.7646
57.1412 -27.5645 7.7897 0.7744
55.9831 -11.8016 7.0249 0.7941
56.0231 1.9019 6.8827 0.7978
56.0652 8.7480 6.9672 0.7956
51.6681 14.6135 6.5929 0.8054
26.6438 19.7623 4.0731 0.8749
5.9310 5.6263 1.0038 0.9676
1.9328 5.6731 0.7359 0.9761
0.4937 5.6819 0.7003 0.9773
-0.1944 5.6862 0.6986 0.9773
-0.8893 5.6904 0.7072 0.9771
-2.3878 5.6996 0.7588 0.9754
-5.4272 5.7183 0.9680 0.9687
-11.9524 5.7584 1.6290 0.9479
-30.3361 -36.5767 4.1574 0.8263
-17.7264 -36.6307 3.5603 0.8493
-12.5518 -36.6624 3.3903 0.8559
17.8370 -42.7543 4.0530 0.8303
18.6843 -19.7454 2.3783 0.8966
51.3778 -33.0262 5.3435 0.7825
55.7104 -26.9424 5.4141 0.7800
55.7660 -19.0767 5.1565 0.7893
56.0295 8.6855 4.9605 0.7964
4.6864 5.6562 0.6426 0.9709
3.6380 5.6626 0.5888 0.9733
2.7395 5.6681 0.5508 0.9750
1.9391 5.6731 0.5245 0.9762
-2.3812 5.6996 0.5404 0.9755
-3.2406 5.7049 0.5740 0.9740
-4.2294 5.7110 0.6217 0.9719
-8.9391 5.7399 0.9294 0.9582
-11.9217 5.7583 1.1583 0.9482
-16.9506 5.7892 1.5671 0.9306
-30.1552 -36.4322 4.1376 0.8270
-18.1984 -28.3571 2.9479 0.8735
-10.6810 -50.6050 4.5249 0.8125
15.0233 -53.1673 4.8337 0.8010
17.8825 -42.7438 4.0537 0.8302
25.0392 -44.0288 4.4314 0.8160
33.4764 -45.1566 4.9179 0.7980
42.8211 -45.1632 5.4450 0.7789
51.3783 -32.9545 5.3402 0.7826
55.7108 -26.8745 5.4115 0.7801
55.7664 -19.0151 5.1548 0.7893
55.9036 -11.7848 4.9984 0.7950
55.9461 -4.8748 4.9132 0.7981
56.0298 8.7425 4.9613 0.7964
19.6725 5.5641 1.7886 0.9212
38.6762 16.1920 3.6683 0.8451
29.4342 16.7489 2.9629 0.8729
26.5735 19.7102 2.8946 0.8756
4.6770 5.6562 0.6421 0.9710
2.7326 5.6682 0.5505 0.9751
1.9328 5.6731 0.5243 0.9762
0.4937 5.6819 0.4990 0.9774
-0.1944 5.6862 0.4978 0.9774
-0.8893 5.6904 0.5039 0.9771
-2.3878 5.6996 0.5406 0.9755
-3.2481 5.7049 0.5743 0.9740
-6.9303 5.7276 0.7866 0.9645
-8.9589 5.7400 0.9309 0.9582
-16.7260 -34.5635 2.0123 0.8574
-11.9796 -34.9910 1.9383 0.8623
-10.1802 -47.9967 2.5714 0.8216
13.9961 -90.4358 4.7960 0.6931
15.1567 -53.8433 2.9315 0.7993
24.8328 -43.7669 2.6372 0.8175
33.4067 -45.1562 2.9437 0.7985
18.6825 -19.7435 1.4245 0.8968
32.9007 -27.2735 2.2397 0.8427
60.8755 -20.8245 3.3719 0.7728
60.8222 -12.8847 3.2583 0.7796
60.7722 -5.3560 3.1973 0.7832
44.5660 6.9085 2.3635 0.8347
19.7457 5.5636 1.0751 0.9211
38.7826 16.1913 2.2025 0.8451
29.5015 16.7485 1.7779 0.8729
5.9367 5.6205 0.4284 0.9678
4.6864 5.6562 0.3850 0.9710
1.2013 5.6776 0.3041 0.9770
0.4993 5.6819 0.2989 0.9774
-4.2198 5.6980 0.3716 0.9720
-5.4163 5.7183 0.4128 0.9689
-28.5903 -34.5416 2.3499 0.8356
-18.1520 -28.2847 1.7613 0.8741
-16.6838 -34.5637 2.0114 0.8575
-10.1817 -48.2394 2.5838 0.8208
19.8256 -47.3884 2.6921 0.8140
24.8904 -43.7673 2.6387 0.8174
33.4764 -45.1566 2.9459 0.7984
32.9714 -27.2769 2.2426 0.8425
44.6452 -21.5365 2.5978 0.8199
60.8751 -20.7570 3.3707 0.7729
60.8218 -12.8216 3.2576 0.7796
60.7234 2.0615 3.1842 0.7840
44.5878 6.9572 2.3650 0.8346
19.6725 5.5641 1.0714 0.9214
29.4342 16.7489 1.7748 0.8731
5.9310 5.6263 0.4284 0.9678
3.6301 5.6627 0.3525 0.9734
1.9328 5.6731 0.3141 0.9763
1.1954 5.6776 0.3041 0.9770
-0.8876 5.6793 0.3013 0.9772
-2.3838 5.6900 0.3233 0.9756
-4.2286 5.6981 0.3719 0.9720
-6.9100 5.7108 0.4698 0.9647
-8.9589 5.7400 0.5576 0.9583
-28.3219 -34.1482 0.7744 0.8374
-18.1795 -28.2659 0.5866 0.8742
-16.5313 -34.1611 0.6624 0.8591
-10.7333 -50.6047 0.9030 0.8131
-8.1296 -91.9818 1.6118 0.6911
25.4495 -90.4081 1.6394 0.6868
23.8966 -42.1170 0.8452 0.8239
18.6794 -19.7402 0.4744 0.8970
42.5491 -27.3510 0.8829 0.8168
42.0238 6.5144 0.7423 0.8436
41.1431 17.1768 0.7782 0.8366
29.6235 16.8177 0.5946 0.8726
26.6435 19.7212 0.5786 0.8758
5.9367 5.6205 0.1427 0.9678
4.6864 5.6562 0.1282 0.9710
2.7395 5.6681 0.1099 0.9751
1.9391 5.6731 0.1046 0.9763
1.2013 5.6776 0.1013 0.9771
-0.1888 5.6861 0.0993 0.9775
-0.8816 5.6781 0.1003 0.9773
-2.3711 5.6755 0.1074 0.9757
-4.1949 5.6644 0.1230 0.9722
-6.9162 5.7275 0.1567 0.9647
-11.8546 5.7258 0.2298 0.9487
-16.9506 5.7892 0.3127 0.9308
-27.7075 5.8553 0.4943 0.8929
-63.9977 -18.0665 1.1607 0.7664
-28.2651 -34.1486 0.7738 0.8375
-10.6809 -50.6050 0.9028 0.8131
-8.1366 -93.1138 1.6315 0.6880
25.5465 -90.4087 1.6399 0.6867
23.9399 -42.0960 0.8454 0.8239
32.9899 -27.2922 0.7474 0.8426
45.8650 -22.1249 0.8889 0.8157
41.0303 17.1775 0.7764 0.8370
29.5559 16.8181 0.5936 0.8728
26.6438 19.7623 0.5790 0.8757
3.6301 5.6627 0.1174 0.9734
1.9328 5.6731 0.1046 0.9763
1.1954 5.6776 0.1013 0.9771
0.4937 5.6819 0.0996 0.9774
-0.1944 5.6862 0.0993 0.9775
-0.8874 5.6778 0.1003 0.9773
-1.6053 5.6705 0.1029 0.9767
-2.3777 5.6756 0.1074 0.9757
-3.2209 5.6571 0.1136 0.9743
-11.8852 5.7261 0.2303 0.9486
-27.8481 5.8561 0.4967 0.8924
-70.2606 -51.9520 -1.5252 0.7050
-29.7294 -28.1177 -0.7143 0.8490
-18.8203 -22.6921 -0.5146 0.8887
-18.1720 -28.2542 -0.5864 0.8742
25.4241 -90.3180 -1.6378 0.6870
16.5188 -39.5945 -0.7489 0.8423
25.9317 -35.0521 -0.7611 0.8399
18.6757 -19.7363 -0.4743 0.8970
32.9228 -27.2918 -0.7464 0.8428
42.5491 -27.3510 -0.8829 0.8168
57.1062 -27.6175 -1.1072 0.7759
37.3931 15.6112 -0.7073 0.8503
29.5016 16.7485 -0.5921 0.8731
26.5732 19.6691 -0.5771 0.8761
5.9367 5.6205 -0.1427 0.9678
3.6380 5.6626 -0.1175 0.9734
2.7395 5.6681 -0.1099 0.9751
1.9391 5.6731 -0.1046 0.9763
-0.8816 5.6781 -0.1003 0.9773
-1.5954 5.6567 -0.1026 0.9768
-4.1703 5.6312 -0.1223 0.9724
-5.4163 5.7183 -0.1375 0.9690
-6.9162 5.7275 -0.1567 0.9647
-8.9080 5.7199 -0.1848 0.9585
-11.7255 5.6635 -0.2273 0.9492
-27.1592 5.7394 -0.4845 0.8949
-61.7131 5.4081 -1.0813 0.7805
-65.8784 -18.5975 -1.1948 0.7604
-81.3415 -34.0066 -1.5389 0.7028
-70.3965 -52.1607 -1.5293 0.7043
-29.7194 -28.1641 -0.7147 0.8489
-18.8243 -22.7427 -0.5153 0.8886
-14.2259 -22.1671 -0.4598 0.9000
-11.4040 -23.6255 -0.4579 0.9004
-8.6313 -25.2929 -0.4665 0.8986
-6.5059 -30.8244 -0.5499 0.8816
-6.4584 -73.9093 -1.2950 0.7432
25.5210 -90.3186 -1.6382 0.6870
23.8299 -41.9024 -0.8414 0.8246
18.7189 -19.7427 -0.4749 0.8969
81.2750 -27.7129 -1.4988 0.7093
19.3154 5.4631 -0.3504 0.9228
37.3018 15.6166 -0.7059 0.8506
3.6301 5.6627 -0.1174 0.9734
2.7326 5.6682 -0.1098 0.9751
1.9328 5.6731 -0.1046 0.9763
1.1954 5.6776 -0.1013 0.9771
0.4937 5.6819 -0.0996 0.9774
-0.1944 5.6862 -0.0993 0.9775
-6.9303 5.7276 -0.1569 0.9647
-38.3831 -28.3812 -2.5018 0.8260
-18.7128 -22.5624 -1.5362 0.8892
-8.5064 -24.8463 -1.3763 0.9002
-6.4807 -30.5545 -1.6369 0.8824
-3.9470 -44.6581 -2.3496 0.8356
7.3009 -47.1747 -2.5018 0.8260
12.9349 -45.9505 -2.5018 0.8260
17.0343 -40.8301 -2.3186 0.8376
22.1241 -38.9930 -2.3496 0.8356
18.6719 -19.7324 -1.4237 0.8969
37.7127 -24.2421 -2.3496 0.8356
45.1667 -15.4508 -2.5018 0.8260
46.6999 -9.8930 -2.5018 0.8260
47.5700 1.5677 -2.4944 0.8264
19.1811 5.4046 -1.0444 0.9233
20.8876 8.7204 -1.1862 0.9133
20.9408 11.8884 -1.2620 0.9081
26.2718 19.4460 -1.7130 0.8773
1.2013 5.6776 -0.3041 0.9770
-2.3591 5.6469 -0.3207 0.9758
-3.1895 5.6149 -0.3384 0.9745
-6.9162 5.7275 -0.4706 0.9647
-16.9506 5.7892 -0.9387 0.9308
-26.6385 5.6294 -1.4269 0.8967
-44.9655 -1.5042 -2.3579 0.8351
-41.5013 -23.5881 -2.5018 0.8260
-38.3549 -28.4193 -2.5018 0.8260
-18.7146 -22.6102 -1.5382 0.8891
-8.4615 -24.7955 -1.3731 0.9004
-3.9027 -44.6620 -2.3496 0.8356
1.6078 -47.7092 -2.5018 0.8260
7.3477 -47.1674 -2.5018 0.8260
17.0870 -40.8426 -2.3202 0.8375
22.1627 -38.9710 -2.3496 0.8356
25.8281 -34.8398 -2.2729 0.8405
18.7100 -19.7333 -1.4251 0.8968
30.6992 -25.3972 -2.0881 0.8525
37.7367 -24.2047 -2.3496 0.8356
45.1820 -15.4060 -2.5018 0.8260
46.7097 -9.8467 -2.5018 0.8260
47.5561 -4.1437 -2.5018 0.8260
46.8365 1.5901 -2.4560 0.8289
41.6709 6.5020 -2.2103 0.8446
20.8880 8.7448 -1.1868 0.9133
20.9413 11.9162 -1.2627 0.9080
5.9310 5.6263 -0.4284 0.9678
4.6770 5.6562 -0.3846 0.9710
3.6301 5.6627 -0.3525 0.9734
2.7326 5.6682 -0.3298 0.9751
1.9328 5.6731 -0.3141 0.9763
0.4937 5.6819 -0.2989 0.9774
-0.1944 5.6862 -0.2982 0.9775
-4.1546 5.5983 -0.3654 0.9725
-6.9303 5.7276 -0.4712 0.9646
-8.9261 5.7191 -0.5556 0.9584
-26.7404 5.6232 -1.4321 0.8963
-44.1214 -1.5198 -2.3137 0.8379
-20.4022 -19.2962 -2.4568 0.8934
-14.0448 -21.8373 -2.2715 0.9010
-8.4390 -24.6494 -2.2794 0.9007
-2.5175 -28.4841 -2.5018 0.8915
16.4561 -22.2438 -2.4207 0.8948
18.4583 -19.5066 -2.3496 0.8978
21.2469 -17.6129 -2.4145 0.8951
24.0541 -15.4623 -2.5018 0.8915
25.7428 -12.4496 -2.5018 0.8915
27.9743 -5.9261 -2.5018 0.8915
28.4847 -2.5104 -2.5018 0.8915
28.5796 0.9419 -2.5018 0.8915
26.5385 4.1139 -2.3496 0.8978
22.2112 6.2583 -2.0189 0.9115
21.3591 12.1259 -2.1488 0.9061
4.6864 5.6562 -0.6426 0.9709
3.6380 5.6626 -0.5888 0.9733
2.7395 5.6681 -0.5508 0.9750
1.9391 5.6731 -0.5245 0.9762
-0.1888 5.6861 -0.4977 0.9774
-0.8816 5.6781 -0.5027 0.9772
-2.3532 5.6326 -0.5341 0.9758
-6.9162 5.7275 -0.7856 0.9646
-8.9080 5.7199 -0.9262 0.9584
-11.5324 5.5702 -1.1205 0.9499
-16.9506 5.7892 -1.5671 0.9306
-26.7530 2.3444 -2.3496 0.8978
-26.8405 -0.8979 -2.3496 0.8978
-28.2555 -4.3944 -2.5018 0.8915
-27.5196 -7.7688 -2.5018 0.8915
-26.3824 -11.0297 -2.5018 0.8915
-22.9755 -17.0238 -2.5018 0.8915
-17.1237 -20.6881 -2.3496 0.8978
-8.4159 -24.6617 -2.2798 0.9007
-5.5461 -26.2766 -2.3496 0.8978
-2.4893 -28.4866 -2.5018 0.8915
0.9631 -28.5789 -2.5018 0.8915
4.4015 -28.2544 -2.5018 0.8915
7.7756 -27.5177 -2.5018 0.8915
11.0363 -26.3796 -2.5018 0.8915
18.4777 -19.4883 -2.3496 0.8978
21.2782 -17.6032 -2.4161 0.8950
24.0695 -15.4384 -2.5018 0.8915
27.0650 -9.2286 -2.5018 0.8915
28.4872 -2.4822 -2.5018 0.8915
26.5344 4.1403 -2.3496 0.8978
22.1288 6.2588 -2.0120 0.9118
22.8193 12.9848 -2.2970 0.8999
21.8580 16.2126 -2.3809 0.8965
5.9310 5.6263 -0.7152 0.9677
4.6770 5.6562 -0.6421 0.9710
3.6301 5.6627 -0.5885 0.9734
1.9328 5.6731 -0.5243 0.9762
1.1954 5.6776 -0.5076 0.9770
-0.1944 5.6862 -0.4978 0.9774
-1.5980 5.6445 -0.5132 0.9767
-4.1304 5.5657 -0.6064 0.9726
-17.0068 5.7895 -1.5717 0.9304
-26.2937 5.5292 -2.3507 0.8977
-26.8396 -0.9245 -2.3496 0.8978
-17.7238 -10.0505 -2.5018 0.9212
-11.0217 -17.1368 -2.5018 0.9212
-8.8483 -18.2846 -2.4941 0.9214
-6.5911 -19.2519 -2.4985 0.9213
3.1162 -20.1354 -2.5018 0.9212
7.8451 -18.8043 -2.5018 0.9212
15.6863 -13.0034 -2.5018 0.9212
17.1395 -11.0174 -2.5018 0.9212
18.3427 -8.8708 -2.5018 0.9212
19.2784 -6.5948 -2.5018 0.9212
19.9328 -4.2226 -2.5018 0.9212
20.3641 0.6711 -2.5018 0.9212
7.8979 5.8459 -1.2065 0.9612
5.9367 5.6205 -1.0038 0.9676
1.2013 5.6776 -0.7126 0.9769
0.4993 5.6819 -0.7003 0.9773
-0.8816 5.6781 -0.7055 0.9771
-1.5920 5.6448 -0.7201 0.9766
-2.3472 5.6183 -0.7476 0.9758
-3.1729 5.5856 -0.7887 0.9744
-5.4163 5.7183 -0.9671 0.9688
-8.8455 5.6798 -1.2907 0.9585
-16.9506 5.7892 -2.1993 0.9304
-18.7221 3.9564 -2.3496 0.9258
-19.0625 1.6705 -2.3496 0.9258
-20.3638 -0.6812 -2.5018 0.9212
-20.1331 -3.1312 -2.5018 0.9212
-12.9917 -15.6960 -2.5018 0.9212
-8.8299 -18.2928 -2.4940 0.9214
-6.5722 -19.2591 -2.4986 0.9213
-4.2078 -19.9359 -2.5018 0.9212
-1.7737 -20.2978 -2.5018 0.9212
0.6863 -20.3636 -2.5018 0.9212
3.1362 -20.1323 -2.5018 0.9212
5.5404 -19.6074 -2.5018 0.9212
10.0724 -17.7114 -2.5018 0.9212
12.1342 -16.3679 -2.5018 0.9212
14.0189 -14.7857 -2.5018 0.9212
15.6992 -12.9878 -2.5018 0.9212
18.3515 -8.8526 -2.5018 0.9212
19.9370 -4.2028 -2.5018 0.9212
20.3634 0.6913 -2.5018 0.9212
17.6511 7.3897 -2.3496 0.9258
7.8980 5.8581 -1.2074 0.9611
5.9310 5.6263 -1.0038 0.9676
3.6301 5.6627 -0.8259 0.9733
1.9328 5.6731 -0.7359 0.9761
1.1954 5.6776 -0.7124 0.9769
0.4937 5.6819 -0.7003 0.9773
-0.8874 5.6778 -0.7056 0.9771
-1.5980 5.6445 -0.7203 0.9766
-3.1800 5.5852 -0.7891 0.9744
-4.1093 5.5373 -0.8467 0.9726
-11.3571 5.4716 -1.5479 0.9505
-17.0068 5.7895 -2.2058 0.9302
-18.7260 3.9379 -2.3496 0.9258
-19.0642 1.6516 -2.3496 0.9258
-12.7006 -9.3910 -2.5018 0.9380
-10.0836 -12.1580 -2.5018 0.9380
-5.1162 -14.9439 -2.5018 0.9380
2.4158 -15.6096 -2.5018 0.9380
4.2800 -15.2045 -2.5018 0.9380
6.0818 -14.5777 -2.5018 0.9380
7.7948 -13.7381 -2.5018 0.9380
9.3942 -12.6982 -2.5018 0.9380
12.1605 -10.0806 -2.5018 0.9380
13.2871 -8.5411 -2.5018 0.9380
14.2198 -6.8769 -2.5018 0.9380
15.7344 -1.3867 -2.5018 0.9380
15.7869 0.5203 -2.5018 0.9380
14.6594 2.2725 -2.3496 0.9417
13.6894 5.7152 -2.3496 0.9417
5.9367 5.6205 -1.2948 0.9674
4.6864 5.6562 -1.1634 0.9707
2.7395 5.6681 -0.9971 0.9748
1.2013 5.6776 -0.9192 0.9768
-0.1888 5.6861 -0.9011 0.9772
-0.8816 5.6781 -0.9101 0.9770
-1.5920 5.6448 -0.9289 0.9765
-3.1644 5.5708 -1.0147 0.9744
-4.0799 5.5091 -1.0858 0.9726
-5.4163 5.7183 -1.2475 0.9686
-6.9162 5.7275 -1.4223 0.9643
-8.8455 5.6798 -1.6649 0.9583
-15.6078 -2.4274 -2.5018 0.9380
-15.2013 -4.2913 -2.5018 0.9380
-6.1008 -2.5506 -1.0473 0.9736
-12.6912 -9.4036 -2.5018 0.9380
-11.4650 -10.8651 -2.5018 0.9380
-10.0715 -12.1680 -2.5018 0.9380
-8.5312 -13.2934 -2.5018 0.9380
0.5320 -15.7865 -2.5018 0.9380
4.2951 -15.2003 -2.5018 0.9380
6.0962 -14.5716 -2.5018 0.9380
12.1705 -10.0685 -2.5018 0.9380
14.9502 -5.0977 -2.5018 0.9380
15.7863 0.5359 -2.5018 0.9380
14.6571 2.2870 -2.3496 0.9417
12.8933 7.3366 -2.3496 0.9417
7.8980 5.8581 -1.5575 0.9610
1.9328 5.6731 -0.9492 0.9760
0.4937 5.6819 -0.9033 0.9772
-0.1944 5.6862 -0.9011 0.9772
-1.5980 5.6445 -0.9291 0.9765
-2.3499 5.6092 -0.9632 0.9757
-3.1715 5.5703 -1.0152 0.9744
-5.4272 5.7183 -1.2487 0.9686
-6.9303 5.7276 -1.4240 0.9642
-14.5170 3.0527 -2.3496 0.9417
-5.1286 -2.9082 -1.1460 0.9763
-10.3486 -7.6520 -2.5018 0.9489
-9.3507 -8.8438 -2.5018 0.9489
-8.2163 -9.9066 -2.5018 0.9489
-6.9621 -10.8248 -2.5018 0.9489
-4.1688 -12.1766 -2.5018 0.9489
-2.6704 -12.5903 -2.5018 0.9489
0.4207 -12.8635 -2.5018 0.9489
3.4874 -12.3889 -2.5018 0.9489
4.9555 -11.8781 -2.5018 0.9489
6.3514 -11.1941 -2.5018 0.9489
7.6546 -10.3467 -2.5018 0.9489
8.8461 -9.3485 -2.5018 0.9489
9.9086 -8.2138 -2.5018 0.9489
12.5910 -2.6673 -2.5018 0.9489
12.8207 -1.1299 -2.5018 0.9489
11.9447 1.8516 -2.3496 0.9519
11.6344 3.2781 -2.3496 0.9519
1.9391 5.6731 -1.1654 0.9759
1.2013 5.6776 -1.1280 0.9766
-0.1888 5.6861 -1.1059 0.9771
-0.8786 5.6582 -1.1130 0.9769
-1.5846 5.6186 -1.1348 0.9765
-3.1352 5.5193 -1.2338 0.9745
-5.4163 5.7183 -1.5310 0.9684
-10.8843 5.2571 -2.3496 0.9519
-11.8262 2.4992 -2.3496 0.9519
-12.8112 1.1227 -2.4998 0.9489
-12.8632 -0.4303 -2.5018 0.9489
-12.7175 -1.9779 -2.5018 0.9489
-12.3863 -3.4967 -2.5018 0.9489
-9.3419 -8.8530 -2.5018 0.9489
-5.5948 -11.5907 -2.5018 0.9489
-4.1567 -12.1807 -2.5018 0.9489
-2.6579 -12.5929 -2.5018 0.9489
-1.1204 -12.8215 -2.5018 0.9489
0.4335 -12.8631 -2.5018 0.9489
1.9810 -12.7170 -2.5018 0.9489
6.3625 -11.1878 -2.5018 0.9489
7.6648 -10.3392 -2.5018 0.9489
11.5921 -5.5920 -2.5018 0.9489
12.1817 -4.1537 -2.5018 0.9489
12.5936 -2.6548 -2.5018 0.9489
12.8630 0.4367 -2.5018 0.9489
11.6311 3.2897 -2.3496 0.9519
11.1497 4.6679 -2.3496 0.9519
10.5057 5.9780 -2.3496 0.9519
7.8980 5.8581 -1.9114 0.9607
5.9310 5.6263 -1.5891 0.9672
4.6770 5.6562 -1.4266 0.9705
3.6301 5.6627 -1.3075 0.9730
2.7326 5.6682 -1.2231 0.9747
1.9328 5.6731 -1.1650 0.9759
0.4937 5.6819 -1.1086 0.9770
-0.1944 5.6862 -1.1059 0.9771
-2.3346 5.5726 -1.1744 0.9757
-3.1422 5.5188 -1.2344 0.9745
-4.0232 5.4213 -1.3123 0.9729
-6.9303 5.7276 -1.7476 0.9640
-8.8605 5.6770 -2.0455 0.9580
-10.8895 5.2463 -2.3496 0.9519
-4.7974 -2.7204 -1.2733 0.9776
-7.8728 -7.4460 -2.5018 0.9565
-4.7203 -9.7542 -2.5018 0.9565
-3.5099 -10.2521 -2.5018 0.9565
-2.2484 -10.6005 -2.5018 0.9565
-0.9540 -10.7942 -2.5018 0.9565
0.3542 -10.8305 -2.5018 0.9565
1.6573 -10.7088 -2.5018 0.9565
2.9362 -10.4309 -2.5018 0.9565
4.1723 -10.0008 -2.5018 0.9565
9.1154 -5.8595 -2.5018 0.9565
9.7554 -4.7179 -2.5018 0.9565
10.8304 0.3569 -2.5018 0.9565
9.7956 2.7600 -2.3496 0.9591
9.3914 3.9208 -2.3496 0.9591
8.8503 5.0244 -2.3496 0.9591
3.6380 5.6626 -1.5539 0.9727
1.2013 5.6776 -1.3398 0.9765
-0.1888 5.6861 -1.3135 0.9769
-1.5711 5.5707 -1.3363 0.9765
-3.1061 5.4681 -1.4519 0.9745
-3.9345 5.3128 -1.5263 0.9732
-5.4163 5.7183 -1.8184 0.9682
-8.5636 5.4988 -2.3496 0.9591
-7.8654 -7.4538 -2.5018 0.9565
-4.7106 -9.7589 -2.5018 0.9565
-2.2379 -10.6027 -2.5018 0.9565
-0.9433 -10.7951 -2.5018 0.9565
1.6680 -10.7071 -2.5018 0.9565
2.9466 -10.4280 -2.5018 0.9565
4.1823 -9.9967 -2.5018 0.9565
6.4534 -8.7051 -2.5018 0.9565
8.3494 -6.9074 -2.5018 0.9565
9.1212 -5.8504 -2.5018 0.9565
10.6032 -2.2352 -2.5018 0.9565
10.7954 -0.9406 -2.5018 0.9565
10.8300 0.3677 -2.5018 0.9565
10.1694 1.5868 -2.3762 0.9586
9.7929 2.7698 -2.3496 0.9591
8.8453 5.0332 -2.3496 0.9591
7.8980 5.8581 -2.2702 0.9604
4.6770 5.6562 -1.6944 0.9703
3.6301 5.6627 -1.5529 0.9728
2.7326 5.6682 -1.4527 0.9745
1.1954 5.6776 -1.3395 0.9765
0.4937 5.6819 -1.3167 0.9769
-0.8824 5.6459 -1.3193 0.9768
-3.1130 5.4676 -1.4526 0.9745
-3.9411 5.3107 -1.5268 0.9732
-6.9303 5.7276 -2.0757 0.9638
-9.1685 4.4172 -2.3496 0.9591
-9.9592 2.0943 -2.3496 0.9591
-10.7958 0.9353 -2.5018 0.9565
-5.9604 -7.1866 -2.5018 0.9621
-4.0670 -8.4043 -2.5018 0.9621
-3.0242 -8.8333 -2.5018 0.9621
-0.8220 -9.3004 -2.5018 0.9621
1.4280 -9.2268 -2.5018 0.9621
2.5299 -8.9874 -2.5018 0.9621
3.5949 -8.6168 -2.5018 0.9621
4.6075 -8.1206 -2.5018 0.9621
5.5529 -7.5059 -2.5018 0.9621
7.1880 -5.9586 -2.5018 0.9621
8.8341 -3.0220 -2.5018 0.9621
9.1340 -1.9350 -2.5018 0.9621
9.3006 -0.8197 -2.5018 0.9621
9.3316 0.3075 -2.5018 0.9621
8.4400 2.3781 -2.3496 0.9643
7.0480 5.2168 -2.3496 0.9643
2.7395 5.6681 -1.6869 0.9743
-0.1888 5.6861 -1.5244 0.9767
-0.8768 5.6469 -1.5312 0.9766
-2.2872 5.4746 -1.5898 0.9757
-3.0771 5.4170 -1.6693 0.9745
-3.8546 5.2049 -1.7355 0.9735
-5.4163 5.7183 -2.1104 0.9679
-6.7535 5.5928 -2.3496 0.9643
-7.8959 3.8137 -2.3496 0.9643
-8.2980 2.8340 -2.3496 0.9643
-9.3010 0.8151 -2.5018 0.9621
-7.1245 -2.0112 -1.9836 0.9698
-5.1030 -2.1334 -1.4820 0.9774
-4.5274 -2.5733 -1.3954 0.9787
-4.0587 -8.4083 -2.5018 0.9621
2.5388 -8.9849 -2.5018 0.9621
3.6035 -8.6133 -2.5018 0.9621
4.6156 -8.1160 -2.5018 0.9621
6.4240 -6.7754 -2.5018 0.9621
7.1940 -5.9515 -2.5018 0.9621
8.4094 -4.0566 -2.5018 0.9621
9.1359 -1.9259 -2.5018 0.9621
9.3313 0.3168 -2.5018 0.9621
8.6869 1.3555 -2.3558 0.9642
8.4377 2.3865 -2.3496 0.9643
7.6212 4.3367 -2.3496 0.9643
4.6770 5.6562 -1.9666 0.9701
1.9328 5.6731 -1.6059 0.9755
0.4937 5.6819 -1.5282 0.9767
-2.2934 5.4742 -1.5903 0.9757
-3.0839 5.4165 -1.6701 0.9745
-3.8611 5.2028 -1.7360 0.9735
-6.7591 5.5861 -2.3496 0.9643
-7.3832 4.7305 -2.3496 0.9643
-7.8996 3.8059 -2.3496 0.9643
-9.3018 0.8058 -2.5018 0.9621
-9.3311 -0.3214 -2.5018 0.9621
