ply
format ascii 1.0
element vertex 719
property float32 x
property float32 y
property float32 z
property float32 I
end_header
50.8716 -34.0648 16.4048 0.7761
30.9068 16.7398 9.4181 0.8645
26.0672 18.4958 8.5643 0.8760
26.6433 30.8560 10.9235 0.8447
2.0713 5.6722 1.6180 0.9753
1.3256 5.6768 1.5620 0.9761
0.6199 5.6812 1.5313 0.9766
-0.0684 5.6854 1.5235 0.9767
-2.2377 5.6987 1.6405 0.9750
-3.0783 5.7039 1.7367 0.9735
-4.0385 5.7098 1.8739 0.9715
-20.4925 22.6098 8.1764 0.8813
-22.7729 19.7236 8.0725 0.8827
-29.3240 19.7639 9.4754 0.8638
-5.7140 2.9193 1.7193 0.9738
-19.0377 -28.1553 9.1069 0.8687
-15.0451 -29.3391 8.8348 0.8724
-16.1858 -43.9150 12.5408 0.8238
-10.1850 -43.0322 11.8490 0.8327
50.8520 -34.4959 16.4650 0.7753
32.2758 17.2313 9.8036 0.8594
2.1099 5.6720 1.6216 0.9753
1.3616 5.6766 1.5642 0.9761
-0.0342 5.6852 1.5234 0.9767
-2.1982 5.6985 1.6366 0.9750
-3.9870 5.7095 1.8659 0.9716
-30.1880 -0.1364 8.0889 0.8825
-46.1443 -11.5838 12.7480 0.8212
55.1894 -47.5100 16.8123 0.7416
26.1676 18.5671 7.4075 0.8766
26.6022 24.1840 8.3002 0.8628
4.8829 5.6550 1.7249 0.9698
1.3256 5.6768 1.3459 0.9764
0.6199 5.6812 1.3194 0.9768
-0.0684 5.6854 1.3127 0.9769
-0.7597 5.6896 1.3252 0.9767
-5.1815 5.7168 1.7813 0.9688
-22.7729 19.7236 6.9553 0.8837
-30.8827 20.8144 8.5980 0.8582
-8.2331 3.0205 2.0246 0.9646
-16.0424 -31.2839 8.1167 0.8656
17.2943 -44.4347 11.0082 0.8222
50.9791 -56.5866 17.5838 0.7315
54.3920 -47.3953 16.6558 0.7437
50.8520 -34.4959 14.1865 0.7770
21.6790 2.7954 5.0464 0.9142
44.2795 17.1574 10.9633 0.8229
26.1662 18.3308 7.3758 0.8771
26.6004 23.8921 8.2547 0.8635
3.8528 5.6613 1.5810 0.9723
2.9180 5.6485 1.4678 0.9742
2.1099 5.6720 1.3971 0.9755
0.6544 5.6809 1.3202 0.9768
-0.7249 5.6894 1.3241 0.9767
-1.4384 5.6938 1.3558 0.9762
-3.0341 5.7036 1.4915 0.9738
-5.0954 5.6901 1.7634 0.9691
-22.4983 19.7235 6.9075 0.8844
-30.2137 -0.1365 6.9754 0.8833
23.7429 -90.5407 18.1944 0.6829
16.9865 -42.8800 8.9652 0.8287
41.0076 -57.6107 13.7456 0.7496
50.8229 -34.0322 11.8893 0.7794
54.2204 -27.4965 11.8172 0.7806
51.6122 13.4517 10.3675 0.8047
26.0672 18.4958 6.2129 0.8779
4.8829 5.6550 1.4523 0.9700
1.3256 5.6768 1.1331 0.9765
-0.0684 5.6854 1.1052 0.9771
-0.7597 5.6896 1.1158 0.9769
-1.4749 5.6940 1.1433 0.9763
-2.2377 5.6987 1.1901 0.9754
-3.0783 5.7039 1.2599 0.9739
-4.0385 5.7098 1.3594 0.9719
-8.2319 3.0200 1.7044 0.9649
-66.4272 -17.1001 13.3331 0.7562
-65.7487 -46.3554 15.6373 0.7205
-19.0584 -28.1859 6.6137 0.8705
-13.5105 -36.6565 7.5939 0.8528
-10.6249 -44.8908 8.9670 0.8286
23.1251 -90.3938 18.1366 0.6837
16.7669 -43.0794 8.9857 0.8283
24.2467 -45.2525 9.9793 0.8112
41.0030 -58.3429 13.8613 0.7478
42.1357 -46.7705 12.2365 0.7737
53.4568 -27.5142 11.6865 0.7827
21.6842 2.7961 4.2499 0.9148
51.6101 13.1207 10.3511 0.8049
26.0657 18.2604 6.1863 0.8784
6.2864 5.6463 1.6425 0.9662
4.9422 5.6546 1.4598 0.9699
3.8528 5.6613 1.3311 0.9725
1.3616 5.6766 1.1347 0.9765
-0.7249 5.6894 1.1149 0.9769
-1.4384 5.6938 1.1415 0.9764
-3.9870 5.7095 1.3536 0.9720
-5.0954 5.6901 1.4847 0.9694
-6.5306 5.7251 1.6881 0.9652
-30.2390 -0.1367 5.8779 0.8841
-26.9753 -3.3960 5.2849 0.8951
-46.7117 -11.7262 9.3616 0.8218
14.4942 -55.2716 9.0502 0.7934
32.8726 -46.1821 8.9783 0.7949
41.2193 -45.2044 9.6893 0.7806
54.7589 -27.7696 9.7245 0.7799
56.8964 -13.1961 9.2507 0.7894
55.3407 -5.9546 8.8157 0.7982
55.3819 0.7493 8.7724 0.7991
51.1114 13.3212 8.3657 0.8074
41.0177 16.1776 6.9836 0.8365
6.2114 5.6468 1.3296 0.9666
4.8829 5.6550 1.1833 0.9702
26.2964 51.6613 9.1813 0.7908
2.0713 5.6722 0.9564 0.9758
0.6199 5.6812 0.9051 0.9771
-0.0684 5.6854 0.9005 0.9772
-5.1815 5.7168 1.2220 0.9692
-8.5125 5.7373 1.6259 0.9593
-30.3489 -0.3195 4.8071 0.8843
-71.6923 -38.5521 12.8926 0.7192
-31.7676 -36.5679 7.6721 0.8219
-24.7483 -36.6009 6.9978 0.8362
-11.6279 -49.1287 7.9962 0.8151
14.0444 -54.8983 8.9751 0.7949
23.8147 -44.4462 7.9864 0.8153
51.8835 -45.2095 10.8996 0.7568
54.3961 -27.9976 9.6897 0.7805
55.3798 0.4166 8.7716 0.7991
21.6824 2.7958 3.4626 0.9153
51.1094 12.9934 8.3524 0.8077
44.2795 17.1574 7.5213 0.8250
32.2758 17.2314 5.7949 0.8623
4.9422 5.6546 1.1895 0.9700
2.9180 5.6485 1.0070 0.9746
2.1099 5.6720 0.9585 0.9758
1.3616 5.6766 0.9246 0.9766
-0.0342 5.6852 0.9005 0.9772
-0.7249 5.6894 0.9084 0.9770
-3.0340 5.7036 1.0232 0.9742
-5.0954 5.6901 1.2098 0.9695
-90.4121 21.8296 14.7314 0.6861
-30.2574 -0.1367 4.7924 0.8847
-46.7970 -11.7476 7.6419 0.8225
-89.2347 -34.2688 15.1397 0.6790
13.8334 -52.7521 6.6961 0.8027
16.6404 -42.0064 5.5477 0.8335
23.8690 -43.9119 6.1367 0.8176
32.0742 -45.0603 6.7912 0.8002
51.0719 -34.1989 7.5469 0.7806
55.4778 -12.8671 6.9926 0.7949
52.5028 7.0908 6.5051 0.8077
51.6122 13.4517 6.5489 0.8066
41.0178 16.1776 5.4139 0.8372
30.9068 16.7398 4.3158 0.8679
6.2114 5.6468 1.0307 0.9667
25.7650 50.6174 6.9738 0.7954
1.3256 5.6768 0.7158 0.9768
-0.7597 5.6896 0.7048 0.9771
-1.4749 5.6940 0.7222 0.9766
-3.0783 5.7039 0.7958 0.9742
-5.1815 5.7168 0.9474 0.9694
-30.2949 -0.3189 3.7200 0.8851
-66.9040 -17.2228 8.4826 0.7570
-29.9997 -34.5329 5.6166 0.8316
-15.9826 -31.1673 4.3007 0.8684
-9.7774 -87.1749 10.7708 0.7022
16.4765 -42.3335 5.5777 0.8327
31.8063 -45.2569 6.7919 0.8002
51.8626 -45.1913 8.4463 0.7579
55.3798 0.4166 6.8000 0.8000
21.6807 2.7956 2.6841 0.9157
51.6102 13.1207 6.5385 0.8069
44.2795 17.1574 5.8307 0.8258
6.2864 5.6463 1.0375 0.9665
4.9422 5.6546 0.9221 0.9702
3.8528 5.6613 0.8408 0.9728
1.3616 5.6766 0.7168 0.9767
0.6544 5.6809 0.7021 0.9772
-0.0342 5.6852 0.6981 0.9773
-2.1982 5.6985 0.7499 0.9757
-3.9870 5.7095 0.8550 0.9723
-5.0954 5.6901 0.9378 0.9697
-8.4022 5.7366 1.2492 0.9598
-46.8817 -11.7689 5.9349 0.8230
14.0993 -53.7660 4.8630 0.8000
16.9913 -42.8921 4.0363 0.8309
23.8589 -43.8934 4.3708 0.8182
32.2963 -45.3724 4.8725 0.7996
50.8727 -34.0656 5.3565 0.7821
55.3983 -12.8486 4.9754 0.7959
21.3099 5.5540 1.9267 0.9154
41.0177 16.1776 3.8576 0.8377
30.9068 16.7398 3.0751 0.8684
6.2114 5.6468 0.7344 0.9669
3.8035 5.6616 0.5967 0.9730
25.7650 50.6174 4.9691 0.7961
2.0713 5.6722 0.5283 0.9760
-0.0684 5.6854 0.4974 0.9774
-1.4749 5.6940 0.5146 0.9767
-4.0385 5.7098 0.6119 0.9723
-11.2627 5.7542 1.1065 0.9505
-8.2270 3.0182 0.7667 0.9654
-30.3018 -0.3190 2.6512 0.8854
-66.7321 -17.1786 6.0286 0.7583
-11.9755 -50.5971 4.5490 0.8116
-9.7774 -87.1749 7.6746 0.7031
31.8857 -45.3699 4.8516 0.8004
39.7200 -44.0890 5.1918 0.7880
51.8832 -45.2093 6.0207 0.7586
53.5112 -27.5422 5.2653 0.7853
55.3961 -13.1992 4.9822 0.7956
55.4385 -6.3022 4.8815 0.7993
21.6789 2.7954 1.9124 0.9160
32.2758 17.2314 3.2010 0.8634
26.0658 18.2604 2.7844 0.8800
6.2864 5.6463 0.7393 0.9666
4.9422 5.6546 0.6570 0.9703
3.8528 5.6613 0.5991 0.9729
2.9180 5.6485 0.5562 0.9748
1.3616 5.6766 0.5107 0.9768
-0.0342 5.6852 0.4974 0.9774
-1.4384 5.6938 0.5138 0.9767
-2.1982 5.6985 0.5344 0.9758
-3.9870 5.7095 0.6093 0.9724
-5.0954 5.6901 0.6682 0.9698
-6.5306 5.7251 0.7598 0.9657
-30.2712 -0.1368 2.6485 0.8855
-46.9228 -11.7792 4.2326 0.8234
17.5504 -44.3035 2.4974 0.8262
31.6944 -27.2843 2.1917 0.8458
51.3209 -34.3657 3.2369 0.7808
60.3842 -21.9473 3.3671 0.7731
60.3307 -13.9926 3.2457 0.7803
60.2807 -6.4862 3.1774 0.7844
60.2325 0.8149 3.1569 0.7856
43.3179 5.8503 2.2908 0.8394
30.9068 16.7398 1.8421 0.8687
26.0672 18.4958 1.6751 0.8798
7.3273 6.6613 0.5190 0.9611
4.8829 5.6550 0.3916 0.9705
3.8035 5.6616 0.3575 0.9731
25.7650 50.6174 2.9766 0.7965
2.0713 5.6722 0.3165 0.9761
1.3256 5.6768 0.3055 0.9769
0.6199 5.6812 0.2995 0.9774
-0.7597 5.6896 0.3008 0.9773
-3.0721 5.6924 0.3390 0.9744
-4.0287 5.6960 0.3656 0.9724
-5.1815 5.7168 0.4044 0.9696
-8.5125 5.7373 0.5380 0.9597
-8.2246 3.0174 0.4591 0.9655
-30.3087 -0.3190 1.5885 0.8857
-29.9997 -34.5329 2.3973 0.8326
-23.3774 -34.5734 2.1872 0.8461
-16.1601 -31.5133 1.8560 0.8677
-10.6249 -44.8909 2.4176 0.8313
14.7239 -57.5543 3.1134 0.7882
23.6686 -44.1734 2.6264 0.8181
25.4745 -28.2767 1.9946 0.8586
31.3094 -27.2819 2.1764 0.8468
60.3332 -14.3756 3.2504 0.7800
60.2831 -6.8529 3.1796 0.7843
60.2349 0.4531 3.1569 0.7856
41.7392 16.1731 2.3459 0.8359
26.0657 18.2604 1.6679 0.8803
4.9422 5.6546 0.3936 0.9704
3.8528 5.6613 0.3589 0.9729
1.3616 5.6766 0.3059 0.9769
-0.7249 5.6894 0.3006 0.9773
-2.1944 5.6886 0.3195 0.9759
-11.0957 5.7532 0.6550 0.9512
-15.4672 5.7800 0.8654 0.9360
-30.2781 -0.1368 1.5869 0.8858
-46.9553 -11.7874 2.5372 0.8237
22.7203 -86.6410 1.5635 0.6988
21.2908 -53.7456 1.0091 0.7935
25.4288 -35.7244 0.7654 0.8391
31.6944 -27.2843 0.7300 0.8459
76.1607 -27.6815 1.4145 0.7231
39.8562 5.3828 0.7020 0.8514
25.7422 10.1528 0.4830 0.8952
26.1375 18.5457 0.5594 0.8797
3.8035 5.6616 0.1191 0.9731
2.0713 5.6722 0.1054 0.9761
1.3256 5.6768 0.1018 0.9769
-0.0684 5.6854 0.0992 0.9775
-0.7597 5.6896 0.1002 0.9773
-1.4705 5.6769 0.1024 0.9768
-2.2282 5.6746 0.1064 0.9759
-4.0053 5.6629 0.1211 0.9726
-5.1815 5.7168 0.1347 0.9696
-11.1986 5.7215 0.2195 0.9509
-8.2223 3.0165 0.1529 0.9656
-64.4148 -16.5820 1.1610 0.7664
-25.8952 -38.2970 0.8069 0.8311
-17.5148 -34.1551 0.6700 0.8576
-10.6250 -44.8911 0.8052 0.8315
21.2850 -54.6881 1.0243 0.7908
22.5609 -42.1062 0.8338 0.8260
25.4745 -28.2767 0.6643 0.8588
31.3094 -27.2819 0.7249 0.8469
41.6486 -21.4365 0.8176 0.8291
74.5978 -27.6218 1.3885 0.7274
21.6736 2.7947 0.3814 0.9163
32.2758 17.2314 0.6386 0.8638
4.9422 5.6546 0.1311 0.9704
2.9180 5.6485 0.1110 0.9749
2.1099 5.6720 0.1056 0.9761
1.3616 5.6766 0.1019 0.9769
0.6544 5.6809 0.0998 0.9774
-2.1889 5.6743 0.1062 0.9760
-3.9543 5.6626 0.1206 0.9727
-11.0480 5.7284 0.2172 0.9514
-15.4672 5.7800 0.2882 0.9361
-30.2849 -0.1369 0.5287 0.8859
-46.9877 -11.7955 0.8456 0.8238
21.9351 -83.6469 -1.5094 0.7075
22.7722 -41.8941 -0.8323 0.8263
25.4766 -27.9397 -0.6600 0.8596
31.6944 -27.2843 -0.7300 0.8459
40.8295 -27.3404 -0.8577 0.8215
42.1271 -21.3637 -0.8245 0.8278
90.0964 -20.8962 -1.6144 0.6907
67.9242 0.9190 -1.1857 0.7620
21.2395 5.5357 -0.3831 0.9159
30.9069 16.7398 -0.6135 0.8688
26.0672 18.4958 -0.5579 0.8800
4.8829 5.6550 -0.1304 0.9706
0.6199 5.6812 -0.0998 0.9774
-1.4705 5.6769 -0.1024 0.9768
-2.2226 5.6604 -0.1061 0.9760
-3.0562 5.6630 -0.1123 0.9746
-24.2990 5.7127 -0.4357 0.9050
-81.9187 -10.8132 -1.4423 0.7185
-81.9452 -32.0355 -1.5358 0.7033
-63.9628 -45.0963 -1.3661 0.7312
-12.0863 -23.5692 -0.4623 0.8995
-9.2296 -25.0416 -0.4658 0.8987
-6.9009 -61.5281 -1.0807 0.7806
20.8122 -53.4732 -1.0016 0.7949
31.3094 -27.2819 -0.7249 0.8469
40.2990 -27.3371 -0.8500 0.8230
67.9111 0.5108 -1.1854 0.7621
21.7222 5.5224 -0.3912 0.9142
32.2758 17.2314 -0.6386 0.8638
26.0658 18.2604 -0.5555 0.8805
4.9422 5.6546 -0.1311 0.9704
3.8528 5.6613 -0.1195 0.9730
2.9180 5.6485 -0.1110 0.9749
0.6544 5.6809 -0.0998 0.9774
-0.0342 5.6852 -0.0992 0.9775
-1.4346 5.6786 -0.1022 0.9768
-2.1834 5.6601 -0.1059 0.9760
-3.0134 5.6648 -0.1120 0.9747
-3.9315 5.6300 -0.1199 0.9729
-5.0954 5.6901 -0.1333 0.9699
-6.5306 5.7251 -0.1516 0.9659
-23.6823 5.7180 -0.4253 0.9071
-30.2918 -0.1369 -0.5287 0.8859
-82.0384 -31.5052 -1.5339 0.7036
0.7174 -47.7315 -2.5018 0.8260
6.4602 -47.2978 -2.5018 0.8260
12.1088 -46.1756 -2.5018 0.8260
25.5808 -28.0539 -1.9897 0.8589
31.5718 -27.1787 -2.1832 0.8463
37.2522 -24.9450 -2.3496 0.8356
41.1210 5.5536 -2.1746 0.8469
20.4168 11.0582 -1.2169 0.9112
20.4824 14.5332 -1.3162 0.9043
6.4939 5.9036 -0.4599 0.9655
4.8829 5.6550 -0.3916 0.9705
-5.1815 5.7168 -0.4044 0.9696
-6.6108 5.7256 -0.4583 0.9656
-8.2175 3.0147 -0.4587 0.9655
-23.8426 5.6054 -1.2836 0.9066
-30.3293 -0.3193 -1.5896 0.8856
-43.8372 -11.2848 -2.3723 0.8342
-39.0150 -27.5071 -2.5018 0.8260
-33.2639 -30.0581 -2.3496 0.8356
-14.8133 -21.9078 -1.3860 0.8995
-11.9865 -23.3745 -1.3767 0.9001
-9.1191 -24.7417 -1.3819 0.8998
0.4308 -47.7350 -2.5018 0.8260
25.3220 -36.0305 -2.3080 0.8383
25.5787 -28.3923 -2.0028 0.8581
37.1017 -25.1683 -2.3496 0.8356
32.4699 -16.7123 -1.9138 0.8639
40.8775 -15.1360 -2.2844 0.8398
46.4369 -11.0645 -2.5018 0.8260
47.4314 -5.3920 -2.5018 0.8260
21.6664 2.7938 -1.1449 0.9162
21.7222 5.5224 -1.1746 0.9141
20.3652 7.8911 -1.1446 0.9162
20.4140 10.8986 -1.2128 0.9115
3.8528 5.6613 -0.3589 0.9729
-3.0054 5.6499 -0.3354 0.9747
-6.5306 5.7251 -0.4551 0.9658
-15.4672 5.7800 -0.8654 0.9360
-23.3419 5.6358 -1.2584 0.9083
-36.5927 4.2712 -1.9308 0.8628
-43.4836 -10.9158 -2.3496 0.8356
0.4298 -28.5923 -2.5018 0.8915
7.2535 -27.6603 -2.5018 0.8915
10.5316 -26.5855 -2.5018 0.8915
13.6564 -25.1238 -2.5018 0.8915
17.9831 -19.7217 -2.3350 0.8984
20.5390 -17.6811 -2.3710 0.8969
23.7604 -15.9105 -2.5018 0.8915
25.5035 -12.9335 -2.5018 0.8915
27.8561 -6.4607 -2.5018 0.8915
28.5929 0.3868 -2.5018 0.8915
20.5873 5.3657 -1.8613 0.9181
14.2475 5.6193 -1.3399 0.9404
20.7975 11.2644 -2.0693 0.9094
20.8852 14.8190 -2.2405 0.9023
4.8829 5.6550 -0.6537 0.9704
3.8035 5.6616 -0.5967 0.9730
12.5068 24.5707 -2.4121 0.8952
2.0713 5.6722 -0.5283 0.9760
1.3256 5.6768 -0.5100 0.9769
0.6199 5.6812 -0.5000 0.9773
-0.0684 5.6854 -0.4974 0.9774
-0.7597 5.6896 -0.5022 0.9772
-1.4705 5.6769 -0.5131 0.9767
-2.2154 5.6420 -0.5303 0.9760
-3.0405 5.6339 -0.5601 0.9746
-3.9524 5.5880 -0.5988 0.9729
-5.1815 5.7168 -0.6750 0.9695
-6.6108 5.7256 -0.7651 0.9655
-8.5125 5.7373 -0.8981 0.9596
-8.2151 3.0139 -0.7656 0.9655
-22.9863 5.4041 -2.0659 0.9095
-26.8544 -0.2827 -2.3496 0.8978
-27.6927 -7.1288 -2.5018 0.8915
-26.6327 -10.4117 -2.5018 0.8915
-25.1851 -13.5431 -2.5018 0.8915
-17.6126 -20.2740 -2.3496 0.8978
-14.7840 -21.8645 -2.3091 0.8994
-11.8474 -23.1032 -2.2715 0.9010
-9.0600 -24.5815 -2.2920 0.9002
-3.1846 -28.3936 -2.4997 0.8916
0.2580 -28.5943 -2.5018 0.8915
3.6995 -28.3552 -2.5018 0.8915
7.0872 -27.7033 -2.5018 0.8915
20.3636 -17.7441 -2.3631 0.8972
23.6644 -16.0530 -2.5018 0.8915
25.4254 -13.0864 -2.5018 0.8915
26.8162 -9.9294 -2.5018 0.8915
27.8168 -6.6279 -2.5018 0.8915
28.5947 0.2151 -2.5018 0.8915
21.5854 2.7833 -1.9041 0.9163
21.7222 5.5224 -1.9609 0.9139
20.7934 11.1011 -2.0622 0.9097
6.5247 5.8604 -0.7673 0.9654
2.1099 5.6720 -0.5295 0.9760
1.3616 5.6766 -0.5107 0.9768
-0.7249 5.6894 -0.5018 0.9772
-1.4346 5.6786 -0.5124 0.9768
-3.9039 5.5905 -0.5966 0.9730
-5.0954 5.6901 -0.6682 0.9698
-8.4022 5.7366 -0.8901 0.9600
-15.4672 5.7800 -1.4446 0.9359
-22.6899 5.4784 -2.0422 0.9105
-26.6748 3.1135 -2.3496 0.8978
-27.7350 -6.9624 -2.5018 0.8915
-26.6947 -10.2516 -2.5018 0.8915
0.3062 -20.3731 -2.5018 0.9212
5.1684 -19.7090 -2.5018 0.9212
15.4418 -13.2931 -2.5018 0.9212
16.9302 -11.3369 -2.5018 0.9212
18.1722 -9.2156 -2.5018 0.9212
20.2585 -2.1798 -2.5018 0.9212
20.3735 0.2756 -2.5018 0.9212
17.8013 7.0209 -2.3496 0.9258
16.8626 9.1331 -2.3546 0.9256
3.8035 5.6616 -0.8375 0.9729
0.6199 5.6812 -0.7017 0.9772
-0.7597 5.6896 -0.7048 0.9771
-1.4705 5.6769 -0.7200 0.9766
-2.2154 5.6420 -0.7442 0.9759
-3.9414 5.5726 -0.8381 0.9729
-8.5125 5.7373 -1.2604 0.9595
-18.6280 4.3794 -2.3496 0.9258
-20.3743 -0.2145 -2.5018 0.9212
-20.2002 -2.6664 -2.5018 0.9212
-17.9453 -9.6500 -2.5018 0.9212
-16.6527 -11.7408 -2.5018 0.9212
-13.3626 -15.3818 -2.5018 0.9212
-11.4130 -16.8790 -2.5018 0.9212
-2.2710 -20.2484 -2.5018 0.9212
2.6361 -20.2042 -2.5018 0.9212
5.0499 -19.7397 -2.5018 0.9212
7.3903 -18.9879 -2.5018 0.9212
16.8618 -11.4384 -2.5018 0.9212
19.1076 -7.0751 -2.5018 0.9212
19.8205 -4.7227 -2.5018 0.9212
18.9787 2.4472 -2.3496 0.9258
18.5459 4.7149 -2.3496 0.9258
17.8432 6.9139 -2.3496 0.9258
16.9144 9.0302 -2.3543 0.9256
8.0686 5.6525 -1.2096 0.9611
4.9422 5.6546 -0.9221 0.9702
3.8528 5.6613 -0.8408 0.9728
2.1099 5.6720 -0.7431 0.9759
1.3616 5.6766 -0.7168 0.9767
-0.0342 5.6852 -0.6981 0.9773
-0.7249 5.6894 -0.7042 0.9772
-1.4346 5.6786 -0.7192 0.9767
-5.0954 5.6901 -0.9378 0.9697
-10.7055 5.5508 -1.4807 0.9526
-15.4672 5.7800 -2.0274 0.9356
-20.3752 -0.0921 -2.5018 0.9212
-9.3684 -2.3518 -1.1860 0.9618
0.2374 -15.7939 -2.5018 0.9380
2.1376 -15.6503 -2.5018 0.9380
4.0067 -15.2790 -2.5018 0.9380
10.6429 -11.6718 -2.5018 0.9380
14.8455 -5.3958 -2.5018 0.9380
15.7942 0.2137 -2.5018 0.9380
14.3551 3.7414 -2.3496 0.9417
13.8001 5.4428 -2.3496 0.9417
12.1143 8.5957 -2.3527 0.9416
1.3256 5.6768 -0.9233 0.9767
0.6199 5.6812 -0.9051 0.9771
-0.7597 5.6896 -0.9091 0.9770
-1.4705 5.6769 -0.9288 0.9765
-2.2154 5.6420 -0.9600 0.9758
-3.9229 5.5464 -1.0760 0.9729
-5.1815 5.7168 -1.2220 0.9692
-8.5125 5.7373 -1.6259 0.9593
-14.4410 3.3950 -2.3496 0.9417
-8.6264 -3.3724 -1.4670 0.9632
-11.7196 -10.5902 -2.5018 0.9380
-7.2076 -14.0553 -2.5018 0.9380
-3.6380 -15.3710 -2.5018 0.9380
0.1425 -15.7950 -2.5018 0.9380
2.0436 -15.6629 -2.5018 0.9380
3.9149 -15.3028 -2.5018 0.9380
5.7292 -14.7200 -2.5018 0.9380
7.4601 -13.9230 -2.5018 0.9380
9.0824 -12.9233 -2.5018 0.9380
13.0718 -8.8674 -2.5018 0.9380
14.0445 -7.2287 -2.5018 0.9380
15.3655 -3.6611 -2.5018 0.9380
15.6946 -1.7841 -2.5018 0.9380
15.7952 0.1188 -2.5018 0.9380
14.3773 3.6551 -2.3496 0.9417
13.0865 6.9866 -2.3496 0.9417
6.5247 5.8604 -1.3891 0.9651
4.9422 5.6546 -1.1895 0.9700
3.8528 5.6613 -1.0846 0.9726
1.3616 5.6766 -0.9246 0.9766
0.6544 5.6809 -0.9057 0.9771
-2.1771 5.6438 -0.9581 0.9758
-3.8754 5.5497 -1.0721 0.9730
-4.8629 5.4305 -1.1546 0.9709
-6.5306 5.7251 -1.3755 0.9654
-10.5357 5.4628 -1.8797 0.9531
-14.7347 1.7199 -2.3496 0.9417
-8.7871 -2.2058 -1.4349 0.9640
3.2647 -12.4496 -2.5018 0.9489
8.6720 -9.5104 -2.5018 0.9489
10.6943 -7.1612 -2.5018 0.9489
11.4789 -5.8212 -2.5018 0.9489
12.5378 -2.9079 -2.5018 0.9489
12.8694 0.1741 -2.5018 0.9489
11.6968 3.0486 -2.3496 0.9519
9.8581 6.9948 -2.3496 0.9519
4.8829 5.6550 -1.4523 0.9700
3.8035 5.6616 -1.3258 0.9726
5.5098 10.8245 -2.3610 0.9517
-0.0684 5.6854 -1.1052 0.9771
-4.8041 5.3004 -1.3905 0.9713
-6.6108 5.7256 -1.7000 0.9650
-8.5125 5.7373 -1.9954 0.9590
-10.7641 5.4994 -2.3496 0.9519
-8.1247 -2.0915 -1.6308 0.9664
-7.8433 -3.0662 -1.6369 0.9663
-11.3356 -6.0956 -2.5018 0.9489
-8.4407 -9.7162 -2.5018 0.9489
-7.2093 -10.6620 -2.5018 0.9489
-5.8729 -11.4525 -2.5018 0.9489
-2.9643 -12.5245 -2.5018 0.9489
8.6147 -9.5623 -2.5018 0.9489
9.7035 -8.4553 -2.5018 0.9489
12.0697 -4.4691 -2.5018 0.9489
12.7882 -1.4537 -2.5018 0.9489
12.1455 1.5661 -2.3804 0.9513
11.7149 2.9782 -2.3496 0.9519
11.2710 4.3673 -2.3496 0.9519
10.6631 5.6928 -2.3496 0.9519
9.8999 6.9354 -2.3496 0.9519
4.9422 5.6546 -1.4598 0.9699
3.8528 5.6613 -1.3311 0.9725
2.9180 5.6485 -1.2358 0.9744
2.1099 5.6720 -1.1763 0.9756
1.3616 5.6766 -1.1347 0.9765
-0.0342 5.6852 -1.1051 0.9771
-0.7249 5.6894 -1.1149 0.9769
-1.4283 5.6539 -1.1335 0.9765
-2.1639 5.6096 -1.1687 0.9758
-2.9565 5.5578 -1.2237 0.9747
-4.7592 5.3148 -1.3868 0.9713
-8.4022 5.7366 -1.9776 0.9594
-10.7309 5.5640 -2.3496 0.9519
-11.7499 2.8370 -2.3496 0.9519
-12.7451 1.4876 -2.4942 0.9491
-12.8704 -0.0582 -2.5018 0.9489
-8.1775 -2.0528 -1.6389 0.9662
-7.8472 -3.0136 -1.6340 0.9663
2.7487 -10.4820 -2.5018 0.9565
3.9910 -10.0747 -2.5018 0.9565
7.3014 -8.0073 -2.5018 0.9565
8.2125 -7.0698 -2.5018 0.9565
9.0041 -6.0294 -2.5018 0.9565
10.1846 -3.7017 -2.5018 0.9565
10.5562 -2.4483 -2.5018 0.9565
10.4653 1.4134 -2.4380 0.9576
9.8482 2.5667 -2.3496 0.9591
9.4674 3.7340 -2.3496 0.9591
8.9489 4.8469 -2.3496 0.9591
8.3001 5.8893 -2.3496 0.9591
6.4939 5.9036 -2.0262 0.9646
4.8829 5.6550 -1.7249 0.9698
4.6263 9.0888 -2.3545 0.9590
2.0713 5.6722 -1.3941 0.9755
1.3256 5.6768 -1.3459 0.9764
0.6199 5.6812 -1.3194 0.9768
-1.4595 5.6344 -1.3437 0.9764
-2.1825 5.5581 -1.3786 0.9758
-2.9704 5.5040 -1.4439 0.9747
-4.7022 5.1881 -1.6165 0.9717
-6.6108 5.7256 -2.0191 0.9647
-8.4393 5.6879 -2.3496 0.9591
-9.0629 4.6303 -2.3496 0.9591
-9.9071 2.3291 -2.3496 0.9591
-10.7654 1.1910 -2.5005 0.9565
-7.4107 -2.8971 -1.8370 0.9679
-9.5440 -5.1322 -2.5018 0.9565
-3.7475 -10.1678 -2.5018 0.9565
-2.4958 -10.5451 -2.5018 0.9565
5.1179 -9.5517 -2.5018 0.9565
6.2309 -8.8659 -2.5018 0.9565
7.2532 -8.0510 -2.5018 0.9565
8.1699 -7.1190 -2.5018 0.9565
10.7671 -1.2240 -2.5018 0.9565
10.8361 0.0815 -2.5018 0.9565
10.5045 1.3545 -2.4452 0.9575
9.4897 3.6771 -2.3496 0.9591
8.9778 4.7931 -2.3496 0.9591
8.3353 5.8393 -2.3496 0.9591
3.8528 5.6613 -1.5810 0.9723
2.9180 5.6485 -1.4678 0.9742
2.1099 5.6720 -1.3971 0.9755
0.6544 5.6809 -1.3202 0.9768
-0.7249 5.6894 -1.3241 0.9767
-1.4250 5.6408 -1.3432 0.9764
-2.1450 5.5605 -1.3759 0.9758
-3.8004 5.4422 -1.5325 0.9731
-4.6586 5.2024 -1.6122 0.9717
-6.5306 5.7251 -2.0050 0.9650
-9.0349 4.6846 -2.3496 0.9591
-9.8929 2.3886 -2.3496 0.9591
-10.8363 -0.0490 -2.5018 0.9565
-7.9080 -1.9851 -1.8823 0.9671
-7.4186 -2.8490 -1.8347 0.9679
2.3683 -9.0314 -2.5018 0.9621
4.4590 -8.2032 -2.5018 0.9621
6.2910 -6.8992 -2.5018 0.9621
7.7581 -5.1950 -2.5018 0.9621
8.3272 -4.2229 -2.5018 0.9621
5.8104 0.7847 -1.5710 0.9760
8.4853 2.2115 -2.3496 0.9643
8.1572 3.2173 -2.3496 0.9643
7.1514 5.0743 -2.3496 0.9643
6.4883 5.8985 -2.3496 0.9643
4.8829 5.6550 -2.0019 0.9695
3.9780 7.8152 -2.3497 0.9643
2.0713 5.6722 -1.6180 0.9753
0.6199 5.6812 -1.5313 0.9766
-0.0684 5.6854 -1.5235 0.9767
-1.4595 5.6344 -1.5596 0.9762
-2.9429 5.4531 -1.6603 0.9747
-4.6031 5.0787 -1.8366 0.9720
-8.0870 2.9668 -2.3081 0.9650
-8.5360 2.0068 -2.3496 0.9643
-9.2802 1.0267 -2.5018 0.9621
-9.2565 -1.2218 -2.5018 0.9621
-7.7768 -2.0020 -2.1517 0.9673
-7.3696 -2.8811 -2.1202 0.9678
-8.2232 -4.4220 -2.5018 0.9621
-7.6309 -5.3801 -2.5018 0.9621
-6.1232 -7.0485 -2.5018 0.9621
-5.2299 -7.7346 -2.5018 0.9621
-4.2604 -8.3081 -2.5018 0.9621
-2.1505 -9.0858 -2.5018 0.9621
-1.0407 -9.2786 -2.5018 0.9621
1.2079 -9.2583 -2.5018 0.9621
3.3865 -8.7010 -2.5018 0.9621
5.3686 -7.6390 -2.5018 0.9621
7.0393 -6.1338 -2.5018 0.9621
7.7267 -5.2415 -2.5018 0.9621
8.3017 -4.2729 -2.5018 0.9621
8.7558 -3.2421 -2.5018 0.9621
9.0825 -2.1641 -2.5018 0.9621
9.3365 0.0702 -2.5018 0.9621
8.1764 3.1682 -2.3496 0.9643
7.7354 4.1298 -2.3496 0.9643
7.1818 5.0312 -2.3496 0.9643
2.9180 5.6485 -1.7035 0.9740
2.1099 5.6720 -1.6216 0.9753
-0.0342 5.6852 -1.5234 0.9767
-1.4250 5.6408 -1.5589 0.9762
-3.7437 5.3610 -1.7521 0.9733
-6.5937 5.7805 -2.3496 0.9643
-5.6808 2.9455 -1.7146 0.9738
-9.2637 -1.1662 -2.5018 0.9621
-7.9080 -1.9851 -2.1847 0.9668
-7.3740 -2.8318 -2.1165 0.9678
