ply
format ascii 1.0
element vertex 577
property float32 x
property float32 y
property float32 z
property float32 I
end_header
-1.2602 5.6927 1.5623 0.9761
-2.0078 5.6973 1.6186 0.9753
-2.8237 5.7023 1.7050 0.9740
-3.7459 5.7080 1.8294 0.9721
-26.5576 19.2468 8.7883 0.8730
-44.3820 -9.9089 12.1849 0.8284
-21.2607 -29.4481 9.7322 0.8604
-17.7087 -43.9054 12.6853 0.8220
-11.4363 -42.5766 11.8128 0.8331
46.4255 16.6442 13.2150 0.8153
25.7232 17.0811 8.2737 0.8800
25.4782 21.7732 8.9801 0.8704
4.0554 5.6600 1.8657 0.9716
1.5026 5.6757 1.5732 0.9760
0.7879 5.6801 1.5366 0.9765
0.0959 5.6844 1.5233 0.9767
-1.2980 5.6692 1.5584 0.9762
-2.0543 5.6976 1.6229 0.9752
-20.2166 23.5704 8.3206 0.8793
-22.8265 20.8792 8.2891 0.8798
-44.7093 -10.3215 12.2949 0.8269
-67.2073 -24.3691 19.1554 0.7438
-16.3634 -30.1587 9.1938 0.8675
-11.1078 -42.5786 11.7907 0.8334
-0.5529 5.6884 1.3195 0.9768
-1.2602 5.6927 1.3461 0.9763
-2.0078 5.6973 1.3946 0.9755
-2.8237 5.7023 1.4691 0.9742
-3.7459 5.7080 1.5762 0.9724
-57.0579 -28.3830 14.7127 0.7698
-26.4174 -36.5906 10.4192 0.8309
-19.8103 -35.8905 9.4644 0.8451
-11.6662 -43.4322 10.3825 0.8314
50.9030 -46.8992 15.9794 0.7527
26.2562 22.4381 7.9737 0.8678
5.1896 5.6531 1.7717 0.9690
4.0554 5.6600 1.6075 0.9718
2.2636 5.6711 1.4097 0.9752
0.7879 5.6801 1.3239 0.9767
-0.5944 5.6886 1.3205 0.9768
-1.2980 5.6692 1.3427 0.9764
-2.8754 5.7026 1.4744 0.9741
-6.2572 5.7234 1.9578 0.9658
-28.3705 20.2498 8.0471 0.8667
-46.1227 -10.6478 10.9283 0.8234
-59.3765 -30.0733 15.3661 0.7609
-17.1626 -31.6316 8.3084 0.8627
-11.3310 -43.4343 10.3632 0.8317
-0.5529 5.6884 1.1109 0.9770
-3.7459 5.7080 1.3271 0.9726
-4.8303 5.7147 1.4545 0.9700
-6.1666 5.7229 1.6353 0.9663
-7.9009 5.7259 1.8967 0.9610
-64.6357 -22.9098 13.3298 0.7562
-58.4146 -29.0578 12.6819 0.7665
-24.9539 -34.5636 8.2865 0.8405
-10.2075 -18.4930 4.1059 0.9175
-14.7818 -36.6487 7.6814 0.8513
-11.6662 -43.4322 8.7416 0.8326
-13.0094 -91.3622 17.9381 0.6866
15.5604 -43.6502 9.0077 0.8279
40.7323 -47.8379 12.2129 0.7741
50.6144 -46.6334 13.3777 0.7555
50.5234 -36.3378 12.0970 0.7760
50.8151 11.5379 10.1289 0.8087
46.4255 16.6442 9.5866 0.8179
25.7232 17.0812 6.0021 0.8818
26.2562 22.4381 6.7135 0.8687
3.1007 5.6659 1.2555 0.9740
2.2636 5.6711 1.1869 0.9754
0.7879 5.6801 1.1147 0.9769
0.0959 5.6844 1.1051 0.9771
-0.5944 5.6886 1.1118 0.9770
-1.2980 5.6692 1.1305 0.9766
-2.0543 5.6976 1.1773 0.9756
-67.6691 -15.6219 13.4995 0.7535
-14.4539 -36.5955 7.6482 0.8519
-11.3310 -43.4343 8.7253 0.8328
-0.5529 5.6884 0.9052 0.9771
-2.0078 5.6973 0.9568 0.9758
-7.9114 5.7336 1.5475 0.9612
-10.3707 5.7487 1.8780 0.9531
-88.6925 1.9763 14.0510 0.6982
-72.2048 -35.9177 12.7729 0.7214
-65.7631 -43.3278 12.4733 0.7269
-33.8024 -36.5554 7.8857 0.8174
-19.8103 -35.8905 6.4929 0.8470
-13.9659 -34.6258 5.9135 0.8597
12.7737 -56.7319 9.2104 0.7902
15.6958 -44.0300 7.4035 0.8275
22.5308 -45.0890 7.9834 0.8154
38.4005 -45.0993 9.3816 0.7867
55.4941 -14.7987 9.0966 0.7925
54.9945 -7.7296 8.7959 0.7986
55.0357 -1.0275 8.7183 0.8002
46.4255 16.6442 7.8114 0.8189
34.3037 17.2189 6.0792 0.8560
25.7232 17.0812 4.8906 0.8825
26.2562 22.4381 5.4702 0.8695
4.0554 5.6600 1.1028 0.9722
3.1007 5.6659 1.0230 0.9742
2.2636 5.6711 0.9671 0.9756
1.5026 5.6757 0.9299 0.9765
0.7879 5.6801 0.9083 0.9770
0.0959 5.6844 0.9004 0.9772
-0.5944 5.6886 0.9059 0.9771
-2.0543 5.6976 0.9593 0.9758
-2.8754 5.7026 1.0115 0.9745
-4.9019 5.7151 1.1925 0.9700
-8.0340 5.7344 1.5633 0.9608
-10.5320 5.7391 1.8997 0.9526
-88.7470 1.3363 14.0578 0.6981
-65.9724 -44.1523 12.5732 0.7251
-18.4841 -34.0671 6.1388 0.8547
-13.6766 -34.6275 5.8967 0.8600
-1.2602 5.6927 0.7159 0.9768
-2.0078 5.6973 0.7417 0.9759
-3.7459 5.7080 0.8383 0.9729
-4.8303 5.7147 0.9187 0.9703
-10.3707 5.7487 1.4559 0.9533
-73.9593 -36.7904 10.1426 0.7168
-31.9214 -34.5211 5.7731 0.8274
-9.6494 -17.4819 2.4518 0.9227
-14.7818 -36.6487 4.8521 0.8528
-10.9530 -40.7773 5.1843 0.8435
22.4170 -44.8612 6.1577 0.8170
29.8535 -45.1342 6.6444 0.8041
38.6059 -45.3406 7.3118 0.7866
52.6836 -21.1388 6.9700 0.7955
55.1313 -14.7019 7.0058 0.7946
54.9945 -7.7296 6.8188 0.7995
55.0357 -1.0275 6.7587 0.8010
51.2843 5.2649 6.3300 0.8124
34.3037 17.2189 4.7128 0.8567
5.1896 5.6531 0.9422 0.9695
4.0554 5.6600 0.8549 0.9723
2.2636 5.6711 0.7497 0.9757
0.7879 5.6801 0.7041 0.9772
-0.5944 5.6886 0.7023 0.9772
-2.8754 5.7026 0.7842 0.9746
-4.9019 5.7151 0.9245 0.9701
-6.2572 5.7234 1.0412 0.9664
-8.0340 5.7344 1.2119 0.9610
-14.5228 5.7663 1.9186 0.9390
-72.6574 -36.7999 10.0002 0.7202
-24.5778 -34.5660 5.2077 0.8429
-19.2949 -35.5615 4.9677 0.8495
-14.4539 -36.5955 4.8311 0.8534
-11.7697 -87.1627 10.7994 0.7016
-0.5529 5.6884 0.5000 0.9773
-2.0078 5.6973 0.5285 0.9760
-4.8303 5.7147 0.6546 0.9704
-7.9115 5.7336 0.8548 0.9615
-10.3707 5.7487 1.0374 0.9535
-14.2376 5.7725 1.3441 0.9402
-54.6585 -27.1894 5.3410 0.7826
-26.4174 -36.5907 3.9484 0.8343
18.7451 -83.2527 7.4660 0.7099
22.5308 -45.0890 4.4099 0.8168
29.9819 -45.3283 4.7547 0.8040
48.0774 -44.2959 5.7193 0.7691
46.7341 -33.6125 5.0364 0.7936
55.0518 -14.6807 4.9847 0.7955
55.0944 -7.7436 4.8675 0.7998
55.0430 -1.0276 4.8165 0.8017
50.8152 11.5379 4.5589 0.8112
34.3037 17.2189 3.3581 0.8572
25.7232 17.0812 2.7015 0.8834
4.0554 5.6600 0.6092 0.9724
3.1007 5.6659 0.5651 0.9744
1.5026 5.6757 0.5137 0.9767
-0.5944 5.6886 0.5004 0.9773
-2.8754 5.7026 0.5587 0.9747
-3.8054 5.7084 0.6002 0.9728
-6.2572 5.7234 0.7419 0.9665
-54.0226 -27.3616 5.2980 0.7842
-33.3186 -36.5584 4.3275 0.8199
-19.7898 -36.4736 3.6305 0.8465
-14.4539 -36.5955 3.4424 0.8539
-11.7697 -87.1627 7.6950 0.7025
-1.2602 5.6927 0.3056 0.9769
-2.8193 5.6933 0.3330 0.9749
-4.8216 5.7044 0.3914 0.9705
-10.3707 5.7487 0.6214 0.9536
-14.2376 5.7725 0.8052 0.9403
-21.5016 5.8171 1.1674 0.9146
-24.9540 -34.5637 2.2342 0.8430
-13.9476 -34.5805 1.9541 0.8613
-10.9530 -40.7773 2.2128 0.8444
13.1865 -58.5651 3.1461 0.7863
16.4716 -46.2062 2.5708 0.8216
29.8534 -45.1341 2.8360 0.8051
25.1317 -29.5158 2.0316 0.8562
29.5995 -27.2714 2.1093 0.8511
50.7226 -36.4811 3.2744 0.7786
60.0633 -24.0998 3.3917 0.7716
60.0087 -16.0026 3.2548 0.7798
59.9581 -8.4272 3.1732 0.7846
59.9098 -1.1185 3.1403 0.7866
24.3778 5.5351 1.3101 0.9047
25.7232 17.0812 1.6182 0.8837
7.7914 6.6584 0.5371 0.9598
2.2636 5.6711 0.3200 0.9758
1.5026 5.6757 0.3077 0.9768
0.0959 5.6844 0.2979 0.9775
-0.5944 5.6886 0.2998 0.9774
-2.0507 5.6875 0.3169 0.9761
-3.7956 5.6936 0.3586 0.9730
-8.0340 5.7344 0.5173 0.9612
-14.5430 5.7743 0.8200 0.9392
-24.5778 -34.5660 2.2228 0.8438
-8.8717 -65.7012 3.4745 0.7668
-1.2602 5.6927 0.1018 0.9769
-2.8119 5.6784 0.1106 0.9750
-3.7177 5.6650 0.1183 0.9733
-4.7917 5.6689 0.1296 0.9707
-6.1666 5.7229 0.1468 0.9669
-7.9114 5.7336 0.1705 0.9617
-10.3389 5.7311 0.2063 0.9538
-14.2376 5.7725 0.2682 0.9404
-71.3465 -35.4908 1.3909 0.7270
-10.5663 -39.3377 0.7110 0.8496
-10.0566 -70.6253 1.2452 0.7517
21.0242 -58.9773 1.0929 0.7784
29.5995 -27.2714 0.7025 0.8513
40.7220 -22.3813 0.8111 0.8304
68.7515 -27.5859 1.2931 0.7435
41.5214 4.2626 0.7286 0.8462
24.3778 5.5351 0.4363 0.9048
25.3883 9.1021 0.4708 0.8977
25.7232 17.0812 0.5390 0.8838
5.8363 6.3576 0.1506 0.9661
2.2636 5.6711 0.1066 0.9759
0.7879 5.6801 0.1001 0.9773
0.0959 5.6844 0.0992 0.9775
-0.5944 5.6886 0.0998 0.9774
-1.2980 5.6692 0.1015 0.9770
-2.0456 5.6734 0.1053 0.9762
-6.2572 5.7234 0.1480 0.9666
-8.0340 5.7344 0.1723 0.9613
-14.5430 5.7743 0.2731 0.9393
-22.1320 5.8164 0.3994 0.9125
-83.2112 -8.8462 1.4606 0.7155
-31.1307 -34.1578 0.8067 0.8312
-11.5036 -85.1924 1.5005 0.7090
-1.9982 5.6700 -0.1049 0.9762
-2.8046 5.6637 -0.1103 0.9750
-6.1666 5.7229 -0.1468 0.9669
-10.2888 5.7033 -0.2053 0.9540
-14.2376 5.7725 -0.2682 0.9404
-35.9283 5.1821 -0.6336 0.8648
-63.8089 1.4218 -1.1141 0.7747
-56.5653 -12.6289 -1.0117 0.7931
-82.1409 -29.1144 -1.5212 0.7056
-70.1904 -46.2447 -1.4672 0.7144
-10.0454 -24.9057 -0.4688 0.8981
20.0395 -56.2150 -1.0417 0.7876
25.0800 -37.9174 -0.7935 0.8337
37.9893 -27.3230 -0.8168 0.8293
69.5109 -27.8906 -1.3073 0.7411
24.3778 5.5351 -0.4363 0.9048
25.7232 17.0812 -0.5390 0.8838
26.2562 22.4382 -0.6029 0.8709
5.8363 6.3576 -0.1506 0.9661
4.0554 5.6600 -0.1215 0.9725
1.5026 5.6757 -0.1025 0.9768
0.7879 5.6801 -0.1001 0.9773
0.0959 5.6844 -0.0992 0.9775
-0.5944 5.6886 -0.0998 0.9774
-1.2980 5.6692 -0.1015 0.9770
-3.7645 5.6470 -0.1185 0.9732
-6.2572 5.7234 -0.1480 0.9666
-10.4680 5.7042 -0.2081 0.9534
-14.5430 5.7743 -0.2731 0.9393
-21.9800 5.7765 -0.3967 0.9131
-96.3152 13.1828 -1.6969 0.6778
-66.5860 -33.7248 -1.3028 0.7419
-70.2777 -47.0336 -1.4761 0.7130
-12.7326 -23.4668 -0.4660 0.8987
-9.8224 -24.8690 -0.4667 0.8986
-7.7775 -29.8129 -0.5378 0.8840
-7.1785 -53.1616 -0.9364 0.8069
-1.2602 5.6927 -0.3056 0.9769
-3.6977 5.6345 -0.3532 0.9734
-6.1666 5.7229 -0.4409 0.9669
-14.2376 5.7725 -0.8052 0.9403
-21.3580 5.7783 -1.1596 0.9152
-44.9941 -15.9479 -2.5018 0.8260
-42.7407 -21.2610 -2.5018 0.8260
-34.1875 -29.0031 -2.3496 0.8356
-21.0385 -22.7520 -1.6240 0.8833
-12.8311 -23.2462 -1.3915 0.8991
-9.8768 -24.4877 -1.3838 0.8996
-7.7635 -28.9030 -1.5684 0.8870
-6.3201 -44.3849 -2.3496 0.8356
4.7893 -47.4959 -2.5018 0.8260
15.0540 -42.2296 -2.3496 0.8356
20.0400 -40.1044 -2.3496 0.8356
25.2182 -29.6174 -2.0386 0.8557
29.4850 -27.1658 -2.1011 0.8516
39.1245 -21.5032 -2.3397 0.8363
47.7285 -0.8911 -2.5018 0.8260
44.5982 4.5785 -2.3496 0.8356
19.9181 7.1409 -1.1089 0.9187
20.1174 13.3587 -1.2656 0.9078
25.4520 21.7509 -1.7546 0.8745
5.8363 6.3576 -0.4523 0.9660
0.0959 5.6844 -0.2979 0.9775
-0.5944 5.6886 -0.2998 0.9774
-2.0436 5.6678 -0.3158 0.9762
-2.8484 5.6492 -0.3316 0.9750
-3.7543 5.6317 -0.3547 0.9733
-4.8027 5.5995 -0.3866 0.9709
-6.2572 5.7234 -0.4444 0.9666
-14.5430 5.7743 -0.8200 0.9392
-43.6837 -10.0847 -2.3496 0.8356
-44.8777 -16.2725 -2.5018 0.8260
-15.5928 -21.9296 -1.4102 0.8978
-0.5529 5.6884 -0.5000 0.9773
-2.7900 5.6342 -0.5501 0.9751
-6.1666 5.7229 -0.7360 0.9668
-10.2810 5.6990 -1.0284 0.9539
-14.2376 5.7725 -1.3441 0.9402
-27.9083 -6.2309 -2.5018 0.8915
-23.8787 -15.7324 -2.5018 0.8915
-18.2329 -19.7179 -2.3496 0.8978
-15.7202 -21.7740 -2.3496 0.8978
-9.8224 -24.3529 -2.2974 0.8999
-6.9667 -25.9364 -2.3496 0.8978
-3.8534 -27.0617 -2.3915 0.8961
-0.5854 -28.5894 -2.5018 0.8915
6.2813 -27.8971 -2.5018 0.8915
9.6018 -26.9352 -2.5018 0.8915
12.7821 -25.5796 -2.5018 0.8915
15.3313 -23.1787 -2.4313 0.8944
23.2147 -16.6966 -2.5018 0.8915
25.0599 -13.7732 -2.5018 0.8915
27.6299 -7.3681 -2.5018 0.8915
20.4249 10.2524 -1.9994 0.9123
20.5147 13.6225 -2.1545 0.9059
20.7376 17.7220 -2.3866 0.8963
5.8363 6.3576 -0.7550 0.9659
3.1007 5.6659 -0.5651 0.9744
2.2636 5.6711 -0.5342 0.9758
0.7879 5.6801 -0.5017 0.9772
0.0959 5.6844 -0.4974 0.9774
-3.7441 5.6164 -0.5905 0.9733
-4.7731 5.5650 -0.6414 0.9710
-6.2572 5.7234 -0.7419 0.9665
-8.0340 5.7344 -0.8636 0.9611
-10.4391 5.6885 -1.0401 0.9534
-14.5430 5.7743 -1.3690 0.9391
-21.7266 5.7099 -1.9654 0.9137
-26.6077 3.6418 -2.3496 0.8978
-26.8527 0.4043 -2.3496 0.8978
-28.4352 -3.0229 -2.5018 0.8915
-27.8626 -6.4323 -2.5018 0.8915
-21.6715 -18.6560 -2.5018 0.8915
-18.0900 -19.8491 -2.3496 0.8978
-12.4556 -22.9564 -2.2850 0.9004
-9.6538 -24.4423 -2.2992 0.8999
-3.8157 -28.2576 -2.4947 0.8918
-0.3789 -28.5929 -2.5018 0.8915
-0.5529 5.6884 -0.7017 0.9772
-1.2602 5.6927 -0.7159 0.9768
-2.7893 5.6328 -0.7718 0.9750
-3.6777 5.6040 -0.8230 0.9733
-4.6922 5.5513 -0.8925 0.9711
-7.9114 5.7336 -1.1997 0.9614
-10.1237 5.6118 -1.4212 0.9544
-12.8432 5.2071 -1.7016 0.9457
-18.4717 4.9974 -2.3496 0.9258
-18.9398 2.7318 -2.3496 0.9258
-20.3226 0.4528 -2.4959 0.9213
-7.9140 -2.8051 -1.0310 0.9667
-17.0145 -11.2099 -2.5018 0.9212
-11.9268 -16.5199 -2.5018 0.9212
-5.2856 -19.6778 -2.5018 0.9212
-2.8723 -20.1719 -2.5018 0.9212
2.0442 -20.2725 -2.5018 0.9212
4.4757 -19.8777 -2.5018 0.9212
6.8417 -19.1923 -2.5018 0.9212
9.1077 -18.2265 -2.5018 0.9212
11.2406 -16.9942 -2.5018 0.9212
13.2092 -15.5136 -2.5018 0.9212
18.9099 -7.5874 -2.5018 0.9212
20.3718 -0.3803 -2.5018 0.9212
18.6608 4.2371 -2.3496 0.9258
18.0131 6.4580 -2.3496 0.9258
4.0554 5.6600 -0.8549 0.9723
3.1007 5.6659 -0.7931 0.9743
2.2636 5.6711 -0.7497 0.9757
1.5026 5.6757 -0.7209 0.9766
-0.5944 5.6886 -0.7023 0.9772
-3.7340 5.6011 -0.8265 0.9732
-4.7584 5.5478 -0.8974 0.9710
-6.2572 5.7234 -1.0412 0.9664
-12.9916 5.1584 -1.7163 0.9452
-20.3445 0.3063 -2.4983 0.9213
-20.2612 -2.1540 -2.5018 0.9212
-19.8532 -4.5833 -2.5018 0.9212
-18.1769 -9.2063 -2.5018 0.9212
-16.9331 -11.3325 -2.5018 0.9212
-13.7248 -15.0594 -2.5018 0.9212
-11.8072 -16.6056 -2.5018 0.9212
-9.7101 -17.8963 -2.5000 0.9212
-5.1433 -19.7155 -2.5018 0.9212
-1.2602 5.6927 -0.9235 0.9767
-1.9982 5.6700 -0.9522 0.9759
-2.7893 5.6328 -0.9955 0.9749
-3.6632 5.5819 -1.0575 0.9733
-6.1666 5.7229 -1.3325 0.9665
-10.1112 5.6049 -1.8310 0.9543
-15.7917 0.3519 -2.5018 0.9380
-7.1115 -2.5206 -1.1950 0.9699
-7.0142 -3.4892 -1.2408 0.9688
-13.1901 -8.6903 -2.5018 0.9380
-12.0451 -10.2185 -2.5018 0.9380
-10.7239 -11.5973 -2.5018 0.9380
-9.2460 -12.8067 -2.5018 0.9380
-7.6330 -13.8289 -2.5018 0.9380
-5.9085 -14.6489 -2.5018 0.9380
1.5847 -15.7159 -2.5018 0.9380
5.3039 -14.8785 -2.5018 0.9380
8.7141 -13.1744 -2.5018 0.9380
13.8426 -7.6081 -2.5018 0.9380
14.6596 -5.8820 -2.5018 0.9380
14.9829 1.5381 -2.3855 0.9408
14.4664 3.2847 -2.3496 0.9417
13.9643 5.0064 -2.3496 0.9417
13.2581 6.6550 -2.3496 0.9417
12.3667 8.2120 -2.3512 0.9417
5.8363 6.3576 -1.3669 0.9657
3.1007 5.6659 -1.0230 0.9742
1.5026 5.6757 -0.9299 0.9765
0.7879 5.6801 -0.9083 0.9770
-0.5944 5.6886 -0.9059 0.9771
-1.2980 5.6692 -0.9211 0.9767
-2.0436 5.6678 -0.9543 0.9759
-3.7186 5.5781 -1.0618 0.9732
-4.7244 5.5081 -1.1493 0.9710
-13.7876 5.4744 -2.3496 0.9417
-14.3474 3.7706 -2.3496 0.9417
-7.0953 -2.5727 -1.1954 0.9699
-7.0186 -3.5548 -1.2461 0.9686
-13.1270 -8.7853 -2.5018 0.9380
-10.6399 -11.6745 -2.5018 0.9380
-9.1533 -12.8731 -2.5018 0.9380
-7.5330 -13.8836 -2.5018 0.9380
-3.9872 -15.2841 -2.5018 0.9380
-2.1137 -15.6535 -2.5018 0.9380
-0.2093 -15.7942 -2.5018 0.9380
-3.6282 5.5286 -1.2854 0.9734
-6.1666 5.7229 -1.6353 0.9663
-10.5719 5.8603 -2.3496 0.9519
-11.6681 3.1567 -2.3496 0.9519
-12.8673 0.2867 -2.5018 0.9489
-6.6855 -2.3697 -1.3788 0.9715
-9.8145 -8.3262 -2.5018 0.9489
-7.5338 -10.4351 -2.5018 0.9489
-6.2196 -11.2680 -2.5018 0.9489
-0.2635 -12.8678 -2.5018 0.9489
5.7531 -11.5131 -2.5018 0.9489
8.3439 -9.7995 -2.5018 0.9489
9.4655 -8.7210 -2.5018 0.9489
10.4487 -7.5150 -2.5018 0.9489
11.2792 -6.1992 -2.5018 0.9489
12.4359 -3.3163 -2.5018 0.9489
12.7453 -1.7914 -2.5018 0.9489
11.3784 4.0793 -2.3496 0.9519
10.0696 6.6866 -2.3496 0.9519
7.0650 6.0377 -1.8065 0.9628
5.8363 6.3576 -1.6776 0.9654
2.2636 5.6711 -1.1869 0.9754
1.5026 5.6757 -1.1413 0.9764
0.7879 5.6801 -1.1147 0.9769
0.0959 5.6844 -1.1051 0.9771
-2.0319 5.6354 -1.1644 0.9759
-3.6830 5.5247 -1.2906 0.9733
-11.2344 4.4606 -2.3496 0.9519
-11.6906 3.0724 -2.3496 0.9519
-11.9759 1.6392 -2.3496 0.9519
-12.8691 0.1938 -2.5018 0.9489
-10.6961 -7.1584 -2.5018 0.9489
-9.7541 -8.3969 -2.5018 0.9489
-8.6696 -9.5126 -2.5018 0.9489
-6.1380 -11.3126 -2.5018 0.9489
-4.7280 -11.9706 -2.5018 0.9489
-3.2489 -12.4537 -2.5018 0.9489
-0.5529 5.6884 -1.3195 0.9768
-1.2602 5.6927 -1.3461 0.9763
-2.7422 5.5376 -1.4266 0.9750
-4.5088 5.3342 -1.6125 0.9717
-6.1666 5.7229 -1.9423 0.9661
-10.8337 0.2414 -2.5018 0.9565
-10.7837 -1.0677 -2.5018 0.9565
-8.9516 -1.9986 -2.1175 0.9630
-6.3302 -2.2437 -1.5505 0.9728
-9.0490 -5.9619 -2.5018 0.9565
-7.3570 -7.9562 -2.5018 0.9565
-6.3432 -8.7859 -2.5018 0.9565
-5.2366 -9.4871 -2.5018 0.9565
-4.0534 -10.0497 -2.5018 0.9565
-1.5276 -10.7282 -2.5018 0.9565
1.0872 -10.7817 -2.5018 0.9565
2.3803 -10.5717 -2.5018 0.9565
4.8438 -9.6935 -2.5018 0.9565
5.9782 -9.0382 -2.5018 0.9565
7.0252 -8.2507 -2.5018 0.9565
7.9695 -7.3427 -2.5018 0.9565
10.7309 -1.5083 -2.5018 0.9565
10.8345 -0.2023 -2.5018 0.9565
9.0956 4.5656 -2.3496 0.9591
5.8363 6.3576 -1.9924 0.9652
4.0554 5.6600 -1.6075 0.9718
1.5026 5.6757 -1.3555 0.9762
0.0959 5.6844 -1.3125 0.9769
-3.6475 5.4715 -1.5181 0.9734
-9.4588 3.7557 -2.3496 0.9591
-9.8429 2.5868 -2.3496 0.9591
-10.7116 1.4661 -2.4960 0.9566
-8.6571 -1.9986 -2.0512 0.9642
-6.3141 -2.2895 -1.5506 0.9728
-6.0265 -3.0523 -1.5596 0.9726
-6.2795 -8.8315 -2.5018 0.9565
-2.7354 -10.4855 -2.5018 0.9565
-1.4501 -10.7389 -2.5018 0.9565
-0.1436 -10.8354 -2.5018 0.9565
-0.5529 5.6884 -1.5314 0.9766
-1.9746 5.6031 -1.5918 0.9757
-7.1002 5.1457 -2.3496 0.9643
-8.1262 3.2947 -2.3496 0.9643
-8.4644 2.2900 -2.3496 0.9643
-9.2291 1.3312 -2.4985 0.9621
-8.9516 -1.9986 -2.4576 0.9627
-5.5752 -2.7733 -1.6685 0.9745
-5.4460 -3.5881 -1.7475 0.9734
-5.4653 -7.5700 -2.5018 0.9621
-4.5119 -8.1742 -2.5018 0.9621
0.9367 -9.2896 -2.5018 0.9621
3.1351 -8.7947 -2.5018 0.9621
5.1509 -7.7874 -2.5018 0.9621
6.0530 -7.1089 -2.5018 0.9621
6.8666 -6.3265 -2.5018 0.9621
7.5799 -5.4517 -2.5018 0.9621
8.1824 -4.4971 -2.5018 0.9621
9.2459 -1.2995 -2.5018 0.9621
9.3351 -0.1743 -2.5018 0.9621
9.2319 0.9478 -2.4867 0.9623
8.5511 1.9416 -2.3496 0.9643
8.2543 2.9593 -2.3496 0.9643
7.8369 3.9338 -2.3496 0.9643
6.6661 5.6968 -2.3496 0.9643
5.8290 6.3496 -2.3096 0.9649
3.1007 5.6659 -1.7307 0.9736
0.7879 5.6801 -1.5366 0.9765
-0.5944 5.6886 -1.5326 0.9766
-2.0174 5.5952 -1.5937 0.9757
-2.7650 5.4837 -1.6456 0.9749
-4.4657 5.2065 -1.8379 0.9720
-7.1372 5.0943 -2.3496 0.9643
-7.6998 4.1958 -2.3496 0.9643
-8.1498 3.2359 -2.3496 0.9643
-8.4808 2.2288 -2.3496 0.9643
-9.3357 0.1406 -2.5018 0.9621
-9.2845 -0.9870 -2.5018 0.9621
-8.7075 -2.0102 -2.3945 0.9637
-5.8123 -2.1075 -1.6566 0.9747
-5.5626 -2.8174 -1.6708 0.9745
-5.4624 -3.6558 -1.7612 0.9731
-7.0760 -6.0914 -2.5018 0.9621
-6.2892 -6.9008 -2.5018 0.9621
-5.4105 -7.6093 -2.5018 0.9621
-4.4527 -8.2066 -2.5018 0.9621
-3.4299 -8.6840 -2.5018 0.9621
-2.3569 -9.0344 -2.5018 0.9621
-0.1237 -9.3359 -2.5018 0.9621
