ply
format ascii 1.0
element vertex 1577
property float32 x
property float32 y
property float32 z
property float32 I
end_header
0.2240 5.6836 0.9009 0.9772
-0.4637 5.6878 0.9039 0.9772
-1.1663 5.6921 0.9203 0.9767
-2.7092 5.7016 0.9998 0.9748
-3.6126 5.7072 1.0698 0.9730
-4.6685 5.7137 1.1686 0.9706
-5.9601 5.7216 1.3086 0.9671
-9.9549 5.7462 1.8205 0.9545
-86.5013 3.5076 13.7117 0.7043
-65.0500 -21.6801 10.8601 0.7575
-72.6904 -34.4388 12.7398 0.7220
-66.6558 -69.2772 15.2266 0.6775
-8.1939 -19.1721 3.3023 0.9190
14.6492 -44.1209 7.3632 0.8284
20.0130 -42.3657 7.4211 0.8272
28.5432 -45.3195 8.4829 0.8050
52.3960 -39.5438 10.3969 0.7666
56.3504 -9.2982 9.0457 0.7935
56.4694 -2.4178 8.9521 0.7954
50.2490 16.6207 8.3827 0.8071
36.5287 17.2052 6.3952 0.8491
6.9535 5.6422 1.4183 0.9644
3.2955 5.6647 1.0380 0.9738
-4.6253 5.7134 1.1643 0.9707
-5.9059 5.7213 1.3024 0.9672
-86.8027 3.9137 13.7622 0.7034
-88.8439 -17.6797 14.3474 0.6929
-64.5198 -66.4515 14.6697 0.6872
-26.2377 -34.5208 6.8676 0.8390
-12.2957 -72.9720 11.7206 0.7410
14.4380 -44.1525 7.3575 0.8285
19.7760 -42.3599 7.4043 0.8275
52.3937 -39.9158 10.4322 0.7659
52.4475 -30.7509 9.6294 0.7817
56.4678 -2.6742 8.9537 0.7954
51.0086 16.6160 8.4968 0.8047
36.9568 17.2026 6.4564 0.8478
27.1643 16.8946 5.0666 0.8785
7.0178 5.6418 1.4262 0.9642
53.3396 6.3629 6.5957 0.8053
52.7156 12.8710 6.6628 0.8036
45.5323 17.1497 5.9741 0.8219
32.0653 16.7327 4.4409 0.8644
6.4052 5.6456 1.0484 0.9662
5.0356 5.6540 0.9296 0.9699
0.1952 62.0294 7.6163 0.7788
-0.6721 5.6891 0.7034 0.9772
-1.3833 5.6935 0.7194 0.9767
-2.9679 5.7032 0.7894 0.9744
-17.5947 25.6866 3.8229 0.8821
-5.0265 5.7159 0.9346 0.9698
-8.2416 5.7356 1.2329 0.9603
-10.8550 5.7517 1.5084 0.9517
-30.8913 -34.5275 5.6885 0.8297
-14.1169 -36.6528 4.8227 0.8536
-9.8889 -39.2354 4.9682 0.8495
-11.2293 -88.5389 10.9583 0.6979
19.6218 -81.5666 10.3008 0.7131
22.2785 -43.0491 5.9516 0.8226
39.6964 -45.3473 7.3999 0.7844
51.9657 -36.3400 7.7860 0.7745
52.0163 -27.7126 7.2367 0.7886
56.6174 -0.3705 6.9519 0.7960
53.0787 6.0880 6.5600 0.8063
46.1550 17.1459 6.0455 0.8200
33.3759 17.2246 4.6116 0.8595
6.4636 5.6452 1.0537 0.9660
5.0814 5.6537 0.9334 0.9698
26.7956 38.2251 5.7318 0.8285
2.1991 5.6715 0.7469 0.9758
1.4443 5.6761 0.7191 0.9767
0.7335 5.6805 0.7033 0.9772
-1.3560 5.6933 0.7186 0.9767
-2.1094 5.6979 0.7460 0.9758
-17.5932 25.9356 3.8480 0.8814
-8.1617 5.7351 1.2248 0.9606
-10.7358 5.7510 1.4954 0.9521
-66.5527 -45.0354 9.8667 0.7234
-29.2654 -25.4434 4.7615 0.8553
-31.1726 -34.5258 5.7115 0.8291
-24.3486 -34.5674 5.1916 0.8433
-14.3075 -36.6516 4.8310 0.8534
-10.0666 -39.1902 4.9682 0.8495
-11.6368 -88.5364 10.9644 0.6978
21.4896 -91.1451 11.4981 0.6856
22.0646 -43.1132 5.9466 0.8227
30.4698 -45.1381 6.6868 0.8029
51.9635 -36.6902 7.8105 0.7739
52.1141 -28.0686 7.2679 0.7878
54.3423 -21.2843 7.1659 0.7904
71.6410 -18.4886 9.0846 0.7422
56.4804 -0.6255 6.9353 0.7964
52.7125 12.3652 6.6480 0.8040
46.7928 17.1420 6.1188 0.8180
27.2734 18.3656 4.0372 0.8759
5.1277 5.6535 0.9371 0.9697
2.2287 5.6713 0.7482 0.9757
1.4717 5.6759 0.7200 0.9766
0.7597 5.6803 0.7037 0.9772
0.7572 62.0259 7.6164 0.7788
-0.6199 5.6888 0.7026 0.9772
-1.3287 5.6931 0.7178 0.9767
-4.9349 5.7153 0.9271 0.9700
-6.2962 5.7237 1.0448 0.9663
-8.0829 5.7346 1.2169 0.9608
-10.6185 5.7502 1.4827 0.9525
-14.6467 5.7750 1.9331 0.9385
-72.3877 -36.7370 9.9672 0.7210
-31.4561 -34.5240 5.7347 0.8284
-24.5826 -34.5660 5.2080 0.8429
19.3043 -83.5704 10.5314 0.7078
16.0461 -44.2667 5.7813 0.8272
30.1717 -45.1362 6.6662 0.8035
49.6583 -45.3486 8.2571 0.7626
54.2072 -21.5152 7.1609 0.7905
56.5719 -7.7617 7.0112 0.7944
56.4789 -0.8815 6.9356 0.7964
52.8285 5.5748 6.5225 0.8073
46.9681 16.9653 6.1316 0.8177
34.1221 17.2200 4.6930 0.8572
27.2723 18.1858 4.0248 0.8763
4.0287 5.6378 0.8508 0.9725
2.2583 5.6711 0.7495 0.9757
0.7859 5.6801 0.7041 0.9772
0.0950 5.6744 0.6968 0.9774
-2.0507 5.6976 0.7435 0.9759
-2.8698 5.7026 0.7839 0.9746
-8.0052 5.7342 1.2091 0.9611
-10.5033 5.7495 1.4702 0.9529
-31.7420 -34.5223 5.7582 0.8278
-24.8182 -34.5645 5.2247 0.8424
-18.9692 -34.5603 4.8406 0.8531
-10.4213 -39.0973 4.9682 0.8495
-12.4533 -88.5314 10.9773 0.6975
15.8524 -44.3585 5.7839 0.8271
29.8755 -45.1342 6.6459 0.8040
51.9592 -37.3972 7.8604 0.7726
56.4773 -1.1375 6.9359 0.7964
52.9717 5.3473 6.5371 0.8069
52.7094 11.8616 6.6337 0.8043
27.2712 18.0071 4.0126 0.8766
6.6425 5.6441 1.0703 0.9655
5.2213 5.6529 0.9449 0.9695
3.1265 5.6658 0.7946 0.9743
2.2881 5.6709 0.7508 0.9757
0.1202 5.6489 0.6938 0.9775
-0.5677 5.6885 0.7019 0.9772
-1.2743 5.6928 0.7163 0.9768
-2.8374 5.7024 0.7821 0.9747
-3.7518 5.6961 0.8375 0.9729
-4.8447 5.7147 0.9199 0.9703
-6.1819 5.7230 1.0344 0.9666
-72.8972 -36.1687 9.9918 0.7204
-25.0552 -34.5631 5.2416 0.8419
-19.1727 -34.5591 4.8526 0.8528
-14.8832 -36.6481 4.8567 0.8526
-12.8542 -88.4745 10.9774 0.6975
20.1094 -90.8000 11.4190 0.6874
15.7706 -44.7686 5.8280 0.8259
29.5811 -45.1325 6.6258 0.8045
38.1219 -45.1751 7.2579 0.7880
52.5071 -29.2079 7.3774 0.7849
53.9382 -21.9762 7.1514 0.7908
53.1807 5.1252 6.5600 0.8063
47.4027 16.6382 6.1685 0.8167
34.6951 17.1165 4.7502 0.8556
27.2701 17.8295 4.0005 0.8770
6.7033 5.6438 1.0759 0.9653
5.2687 5.6526 0.9488 0.9693
3.1600 5.6655 0.7965 0.9742
2.3179 5.6707 0.7522 0.9756
1.5542 5.6754 0.7225 0.9766
0.8384 5.6798 0.7050 0.9771
-0.5417 5.6883 0.7016 0.9772
-1.2472 5.6926 0.7155 0.9768
-2.8051 5.7022 0.7803 0.9747
-4.8002 5.7145 0.9163 0.9704
-26.3599 19.2456 4.0074 0.8768
-10.2785 5.7481 1.4460 0.9536
-7.1476 2.9311 0.9485 0.9693
-10.7752 -39.0012 4.9682 0.8495
-13.2550 -88.4153 10.9774 0.6975
15.5829 -44.8836 5.8337 0.8257
29.2886 -45.1308 6.6060 0.8051
38.0698 -45.5303 7.2871 0.7873
48.1483 -45.1849 8.1074 0.7664
52.5052 -29.5190 7.3958 0.7845
56.3881 -15.6474 7.1852 0.7899
56.6113 -8.5526 7.0299 0.7940
56.6300 -1.6539 6.9562 0.7959
35.2923 17.2128 4.8213 0.8536
27.2690 17.6529 3.9886 0.8773
6.7649 5.6434 1.0817 0.9651
3.1936 5.6653 0.7985 0.9741
2.3479 5.6705 0.7536 0.9756
1.5818 5.6753 0.7234 0.9765
-1.2202 5.6925 0.7148 0.9768
-4.7560 5.7142 0.9128 0.9705
-7.7345 5.7009 1.1798 0.9620
-87.8219 24.5846 11.1977 0.6924
-57.9785 -28.1149 7.9117 0.7713
-32.6139 -34.5169 5.8308 0.8258
-25.5082 -34.5253 5.2707 0.8411
-15.2705 -36.6457 4.8746 0.8521
-10.9518 -38.9521 4.9682 0.8495
-13.6553 -88.3544 10.9774 0.6975
16.7023 -48.8203 6.3355 0.8123
56.3863 -15.9226 7.1941 0.7897
56.5857 -8.8111 7.0316 0.7939
56.6293 -1.9109 6.9572 0.7958
53.4351 4.6614 6.5859 0.8056
52.3543 11.0362 6.5695 0.8060
48.7886 16.6297 6.3289 0.8124
35.6970 17.2103 4.8659 0.8524
27.1675 17.4131 3.9621 0.8781
6.8271 5.6430 1.0875 0.9649
5.3646 5.6520 0.9568 0.9691
4.2010 5.6592 0.8654 0.9720
3.2274 5.6651 0.8005 0.9741
2.3780 5.6704 0.7550 0.9755
0.1982 5.6838 0.6983 0.9773
-0.4897 5.6880 0.7010 0.9773
-1.1932 5.6923 0.7141 0.9768
-1.9346 5.6969 0.7387 0.9760
-4.7120 5.7139 0.9094 0.9706
-6.0148 5.7219 1.0193 0.9671
-7.7032 5.7319 1.1789 0.9620
-10.0611 5.7468 1.4227 0.9544
-7.1132 2.9926 0.9475 0.9694
-58.2540 -27.9232 7.9319 0.7708
-30.0217 -24.7005 4.7735 0.8550
-32.9094 -34.5151 5.8556 0.8251
-25.7499 -34.5238 5.2882 0.8407
-20.1047 -35.1054 4.9672 0.8496
-11.1281 -38.9021 4.9682 0.8495
-12.4215 -78.0263 9.7011 0.7273
16.7382 -49.6593 6.4344 0.8096
20.4248 -42.7348 5.8157 0.8262
37.3472 -45.4974 7.2274 0.7888
48.1410 -46.0057 8.1761 0.7646
56.3847 -16.1982 7.2032 0.7894
53.6188 4.4326 6.6060 0.8051
52.2527 10.7678 6.5506 0.8065
49.5095 16.6253 6.4126 0.8102
36.1090 17.2078 4.9113 0.8511
6.8899 5.6426 1.0935 0.9647
4.2407 5.6589 0.8683 0.9719
2.4082 5.6702 0.7564 0.9755
0.9173 5.6793 0.7064 0.9771
0.2240 5.6836 0.6984 0.9773
-0.4637 5.6878 0.7007 0.9773
-2.7092 5.7016 0.7751 0.9749
-3.6126 5.7072 0.8293 0.9731
-5.9601 5.7216 1.0144 0.9673
-9.9549 5.7462 1.4113 0.9547
-13.5389 5.7682 1.8070 0.9424
-73.0356 -34.6023 9.9232 0.7220
-20.2635 -35.0140 4.9672 0.8496
-12.7838 -78.0240 9.7079 0.7271
28.4210 -45.1254 6.5481 0.8066
36.9901 -45.4813 7.1982 0.7896
46.9117 -45.2392 8.0020 0.7690
52.3698 -30.3871 7.4343 0.7835
53.7771 -23.0556 7.1843 0.7899
74.3643 -21.7285 9.5126 0.7318
56.5230 -2.4201 6.9465 0.7961
53.7666 4.1997 6.6218 0.8047
1.6651 5.6747 0.7261 0.9764
-0.4378 5.6877 0.7004 0.9773
-2.6775 5.7014 0.7734 0.9749
-3.5763 5.7070 0.8269 0.9732
-5.9059 5.7213 1.0096 0.9674
-72.5828 -33.9860 9.8406 0.7240
-26.2377 -34.5208 5.3240 0.8397
-8.2672 -19.1038 2.5559 0.9195
-11.4472 -38.6881 4.9539 0.8499
36.3309 -45.0865 7.1095 0.7919
46.4854 -45.2366 7.9642 0.7700
51.9458 -39.5746 8.0182 0.7686
75.1118 -12.7439 9.3544 0.7356
36.9568 17.2026 5.0052 0.8485
42.9201 16.1658 4.0125 0.8318
27.1752 18.6596 2.8840 0.8760
6.4052 5.6456 0.7470 0.9663
5.0356 5.6540 0.6624 0.9701
26.7979 38.5993 4.1111 0.8281
2.9943 5.6666 0.5607 0.9746
2.1697 5.6716 0.5313 0.9759
1.4170 5.6763 0.5118 0.9768
0.7074 5.6806 0.5008 0.9773
0.1952 62.0294 5.4269 0.7795
-0.6721 5.6891 0.5012 0.9773
-1.3833 5.6935 0.5126 0.9767
-2.1388 5.6981 0.5325 0.9759
-2.9679 5.7032 0.5625 0.9745
-17.5947 25.6866 2.7239 0.8825
-6.4128 5.7244 0.7521 0.9661
-59.6310 14.9576 5.3787 0.7813
-71.2928 -36.9976 7.0272 0.7243
-18.3644 -34.5640 3.4243 0.8546
-14.1169 -36.6528 3.4363 0.8541
13.5689 -56.4050 5.0756 0.7922
16.4619 -44.1605 4.1233 0.8276
23.4258 -45.2659 4.4591 0.8149
39.3643 -44.9680 5.2286 0.7867
49.5195 -44.4055 5.8192 0.7656
55.4154 -21.4155 5.1977 0.7878
56.5398 -7.2359 4.9869 0.7954
56.4893 -0.3697 4.9423 0.7971
47.1602 5.4092 4.1530 0.8265
43.5071 16.1622 4.0605 0.8300
6.4636 5.6452 0.7508 0.9661
2.1991 5.6715 0.5322 0.9759
-1.3560 5.6933 0.5120 0.9768
-2.1094 5.6979 0.5316 0.9759
-2.9350 5.7030 0.5611 0.9746
-4.9805 5.7156 0.6633 0.9700
-8.1617 5.7351 0.8727 0.9607
-10.7358 5.7510 1.0655 0.9523
-14.8466 5.7762 1.3938 0.9380
-25.4584 -36.1430 3.8678 0.8374
-18.5650 -34.5628 3.4325 0.8542
-0.6136 -61.7116 5.3993 0.7805
16.2465 -44.1933 4.1194 0.8277
39.1246 -45.1048 5.2239 0.7868
51.9635 -36.6902 5.5652 0.7746
52.0144 -28.0149 5.1687 0.7888
54.5598 -21.3695 5.1264 0.7904
56.4946 -14.5797 5.1046 0.7911
56.5382 -7.4962 4.9897 0.7953
27.1730 18.2980 2.8661 0.8767
3.0601 5.6662 0.5634 0.9745
2.2287 5.6713 0.5331 0.9758
1.4717 5.6759 0.5130 0.9767
0.7597 5.6803 0.5014 0.9773
-0.6199 5.6888 0.5006 0.9773
-10.6185 5.7502 1.0565 0.9527
-33.3098 -36.5585 4.3270 0.8199
-14.4987 -36.6505 3.4483 0.8536
-11.3667 -43.4342 3.9280 0.8350
-10.9386 -80.4033 7.0992 0.7219
15.9583 -44.0246 4.0969 0.8286
30.1717 -45.1362 4.7499 0.8041
38.8405 -45.1894 5.2132 0.7872
49.9626 5.2724 4.3954 0.8173
52.2603 12.0096 4.6914 0.8063
44.7242 16.1547 4.1603 0.8262
27.1719 18.1188 2.8573 0.8771
6.5472 5.6145 0.7546 0.9660
5.1743 5.6532 0.6705 0.9697
4.0287 5.6378 0.6062 0.9726
3.0932 5.6660 0.5648 0.9744
1.4991 5.6758 0.5136 0.9767
0.0950 5.6744 0.4965 0.9775
-0.5938 5.6886 0.5004 0.9773
-1.3015 5.6930 0.5109 0.9768
-2.0507 5.6976 0.5298 0.9760
-6.2388 5.7233 0.7407 0.9666
-8.0052 5.7342 0.8615 0.9612
-10.5033 5.7495 1.0476 0.9531
-14.4515 5.7738 1.3615 0.9394
-53.7316 -26.9636 5.2596 0.7855
-11.5459 -43.3165 3.9220 0.8353
-11.3096 -80.4010 7.1034 0.7218
20.0970 -88.8352 7.9685 0.6937
21.7491 -43.4632 4.2521 0.8227
38.4840 -45.1871 5.1928 0.7879
51.9592 -37.3972 5.6008 0.7733
52.0107 -28.6239 5.1939 0.7879
56.3449 -22.6596 5.3132 0.7836
56.4913 -15.1261 5.1165 0.7907
56.5350 -8.0177 4.9957 0.7951
56.4845 -1.1376 4.9428 0.7970
50.1069 5.0581 4.4061 0.8169
27.1708 17.9408 2.8486 0.8774
5.2213 5.6529 0.6732 0.9696
4.0681 5.6386 0.6083 0.9725
3.1265 5.6658 0.5662 0.9744
1.5266 5.6756 0.5142 0.9767
0.8121 5.6800 0.5020 0.9772
-0.5677 5.6885 0.5001 0.9773
-1.2743 5.6928 0.5104 0.9768
-2.0215 5.6974 0.5289 0.9760
-2.8374 5.7024 0.5572 0.9747
-3.7518 5.6961 0.5967 0.9730
-4.8447 5.7147 0.6555 0.9704
-6.1819 5.7230 0.7370 0.9667
-7.9031 5.7154 0.8533 0.9616
-14.2606 5.7726 1.3460 0.9401
-21.5303 5.8173 1.9512 0.9143
-14.8832 -36.6481 3.4606 0.8531
-11.5854 -42.6866 3.8697 0.8373
-11.6809 -80.3988 7.1078 0.7217
15.6874 -44.5325 4.1308 0.8273
20.9832 -42.4119 4.1399 0.8270
48.6572 -45.2497 5.8133 0.7658
51.9570 -37.7542 5.6190 0.7727
56.5334 -8.2790 4.9988 0.7950
56.4830 -1.3936 4.9431 0.7970
50.2834 4.8459 4.4196 0.8164
46.0028 16.1469 4.2654 0.8222
34.6951 17.1165 3.3847 0.8561
6.7033 5.6438 0.7666 0.9654
4.1224 5.6596 0.6126 0.9723
2.3179 5.6707 0.5360 0.9757
1.5542 5.6754 0.5148 0.9766
0.1461 5.6622 0.4955 0.9775
-1.2472 5.6926 0.5099 0.9769
-1.9924 5.6972 0.5280 0.9761
-73.4569 -36.0325 7.1582 0.7200
-25.4500 -34.7749 3.7701 0.8411
-12.0312 -80.2522 7.0996 0.7219
19.2394 -88.7756 7.9472 0.6944
15.6203 -44.9911 4.1667 0.8259
20.7375 -42.3975 4.1292 0.8274
29.2886 -45.1308 4.7070 0.8057
48.2145 -45.2470 5.7848 0.7668
52.0543 -38.1866 5.6482 0.7717
56.3413 -23.2535 5.3326 0.7829
50.4143 4.6281 4.4292 0.8161
52.2557 11.2631 4.6768 0.8068
27.1686 17.5879 2.8315 0.8781
4.1616 5.6594 0.6146 0.9722
3.1936 5.6653 0.5690 0.9742
2.3479 5.6705 0.5370 0.9757
0.8646 5.6797 0.5026 0.9772
0.1724 5.6839 0.4975 0.9774
-0.5157 5.6881 0.4997 0.9773
-1.2202 5.6925 0.5093 0.9769
-1.9635 5.6970 0.5272 0.9761
-2.7730 5.7020 0.5547 0.9749
-4.7560 5.7142 0.6504 0.9706
-6.0699 5.7223 0.7298 0.9671
-10.1689 5.7475 1.0219 0.9542
-7.1170 2.9562 0.6742 0.9695
-20.7639 5.8126 1.8864 0.9171
-57.9509 -28.1015 5.6347 0.7721
-25.5083 -34.5253 3.7556 0.8417
-19.5831 -34.5566 3.4750 0.8526
-15.2705 -36.6457 3.4733 0.8526
-12.4251 -80.3942 7.1171 0.7213
20.5703 -42.5429 4.1343 0.8272
36.3344 -43.8570 4.9827 0.7956
52.0050 -29.5489 5.2330 0.7865
50.9845 -21.3134 4.8346 0.8010
56.3936 -15.9246 5.1267 0.7903
56.5301 -8.8024 5.0053 0.7948
52.2542 11.0151 4.6721 0.8070
48.7888 16.6298 4.5096 0.8130
27.1675 17.4131 2.8232 0.8785
5.3647 5.6520 0.6818 0.9692
4.2010 5.6592 0.6166 0.9721
2.3780 5.6704 0.5380 0.9756
0.8910 5.6795 0.5030 0.9772
0.1982 5.6838 0.4976 0.9774
-0.4897 5.6880 0.4995 0.9773
-1.9346 5.6969 0.5264 0.9761
-2.7410 5.7018 0.5535 0.9749
-7.7032 5.7319 0.8400 0.9622
-10.0611 5.7468 1.0137 0.9545
-20.3994 5.8103 1.8557 0.9184
-58.0407 -27.8210 5.6311 0.7723
-25.7500 -34.5239 3.7681 0.8412
-20.9744 -36.6241 3.6924 0.8441
-15.4654 -36.6446 3.4798 0.8524
-9.6438 -60.5775 5.3666 0.7817
18.3177 -88.3829 7.8968 0.6960
15.2288 -45.1811 4.1713 0.8258
20.3677 -42.6153 4.1323 0.8272
28.8318 -45.3212 4.6994 0.8060
52.0031 -29.8602 5.2464 0.7860
49.5097 16.6253 4.5692 0.8108
27.1664 17.2391 2.8149 0.8788
5.4133 5.6517 0.6847 0.9691
3.2614 5.6649 0.5719 0.9741
2.4081 5.6702 0.5390 0.9756
0.2240 5.6836 0.4976 0.9774
-1.9058 5.6967 0.5255 0.9762
-2.7092 5.7016 0.5523 0.9750
-7.6307 5.7319 0.8350 0.9624
-74.3443 -35.2223 7.1973 0.7187
-25.9930 -34.5224 3.7807 0.8407
-9.5966 -58.5714 5.1927 0.7880
15.2091 -45.8071 4.2227 0.8238
35.8384 -44.0652 4.9693 0.7961
46.9116 -45.2391 5.7017 0.7698
52.3960 -39.5438 5.7430 0.7683
52.0011 -30.1732 5.2599 0.7855
50.7345 -21.7512 4.8294 0.8012
56.3903 -16.4767 5.1398 0.7899
56.5269 -9.3274 5.0123 0.7945
56.5133 4.4143 4.9593 0.7964
52.6493 10.6012 4.6987 0.8060
50.2492 16.6208 4.6305 0.8085
36.5287 17.2052 3.5326 0.8503
5.4623 5.6514 0.6876 0.9689
4.2807 5.6587 0.6208 0.9719
3.2955 5.6647 0.5734 0.9740
-0.4378 5.6877 0.4991 0.9774
-4.6253 5.7134 0.6431 0.9709
-7.5586 5.7314 0.8299 0.9626
-4.7318 2.7599 0.4793 0.9782
-13.3682 5.7671 1.2738 0.9432
-21.4160 -36.6214 3.7116 0.8434
-11.5633 -39.0804 3.5656 0.8490
-9.5617 -56.7461 5.0346 0.7937
35.5063 -44.0631 4.9508 0.7967
51.9992 -30.4880 5.2736 0.7850
56.3886 -16.7540 5.1465 0.7896
56.5171 4.1571 4.9580 0.7965
53.6878 10.5572 4.7870 0.8028
27.1643 16.8946 2.7987 0.8795
7.0178 5.6418 0.7878 0.9645
5.5117 5.6511 0.6906 0.9688
22.6694 5.5349 1.2229 0.9108
27.1752 18.6596 1.7276 0.8763
6.4052 5.6456 0.4475 0.9664
5.0356 5.6540 0.3968 0.9701
2.9943 5.6666 0.3359 0.9747
1.4170 5.6763 0.3066 0.9768
0.7074 5.6806 0.3000 0.9773
-0.6708 5.6779 0.2996 0.9774
-1.3807 5.6827 0.3065 0.9768
-2.9586 5.6854 0.3359 0.9747
-16.9104 24.6876 1.5682 0.8870
-5.0265 5.7159 0.3989 0.9700
-6.4117 5.7234 0.4504 0.9662
-8.2416 5.7356 0.5262 0.9606
-10.8550 5.7517 0.6438 0.9520
-9.4751 -37.5934 2.0318 0.8562
16.8202 -45.1217 2.5237 0.8246
23.3109 -45.0440 2.6580 0.8162
30.7695 -45.1397 2.8630 0.8035
26.5688 -30.3510 2.1140 0.8508
52.1648 -36.4793 3.3360 0.7749
52.0163 -27.7126 3.0888 0.7897
44.8147 5.1401 2.3640 0.8347
23.1559 5.5427 1.2478 0.9090
43.5071 16.1622 2.4324 0.8304
6.7987 9.6986 0.6207 0.9537
3.0271 5.6664 0.3367 0.9746
2.1991 5.6715 0.3188 0.9759
-0.6447 5.6777 0.2995 0.9774
-1.3534 5.6825 0.3061 0.9769
-2.1019 5.6777 0.3173 0.9760
-2.9258 5.6851 0.3351 0.9747
-4.9805 5.7156 0.3973 0.9701
-6.3542 5.7240 0.4482 0.9663
-8.1617 5.7351 0.5228 0.9608
-22.7843 5.8250 1.2325 0.9101
-71.4703 -36.6797 4.2101 0.7249
-29.2599 -25.4386 2.0319 0.8562
-31.1726 -34.5258 2.4378 0.8300
-24.3486 -34.5674 2.2159 0.8442
-18.5650 -34.5628 2.0561 0.8546
-13.5001 -34.5833 1.9456 0.8618
-8.6667 -65.9390 3.4854 0.7661
20.4443 -86.7113 4.6689 0.6999
16.7656 -45.6054 2.5465 0.8231
23.0520 -45.0424 2.6518 0.8165
26.5671 -30.6279 2.1249 0.8501
52.1141 -28.0686 3.1021 0.7889
61.5061 -24.0901 3.4618 0.7675
61.3992 -8.1407 3.2459 0.7803
61.3499 -0.6794 3.2154 0.7821
44.9254 4.9467 2.3687 0.8344
23.6162 5.5398 1.2713 0.9074
33.7457 17.2223 1.9855 0.8592
5.1277 5.6535 0.4000 0.9699
6.7936 9.5985 0.6163 0.9540
3.0601 5.6662 0.3375 0.9745
2.2287 5.6713 0.3193 0.9759
1.4717 5.6759 0.3073 0.9768
0.7597 5.6803 0.3003 0.9773
-0.6186 5.6775 0.2993 0.9774
-1.3262 5.6823 0.3058 0.9769
-4.9349 5.7153 0.3957 0.9702
-8.0829 5.7346 0.5194 0.9611
-14.6467 5.7750 0.8251 0.9389
-22.3513 5.8223 1.2105 0.9116
-24.5827 -34.5660 2.2229 0.8438
-18.7666 -34.5615 2.0611 0.8543
-9.4645 -36.1654 1.9592 0.8609
16.5508 -45.6590 2.5452 0.8232
29.8649 -27.2730 2.1196 0.8504
52.0609 -37.1136 3.3507 0.7741
52.0125 -28.3187 3.1037 0.7888
61.4010 -8.4243 3.2480 0.7802
45.0365 4.7526 2.3734 0.8341
24.0941 5.5369 1.2956 0.9057
44.7242 16.1547 2.4921 0.8266
27.1719 18.1188 1.7116 0.8774
6.5472 5.6145 0.4520 0.9660
4.0287 5.6378 0.3631 0.9726
3.0932 5.6660 0.3383 0.9745
2.2583 5.6711 0.3199 0.9758
-0.5926 5.6774 0.2992 0.9774
-1.2990 5.6821 0.3055 0.9769
-2.0445 5.6803 0.3164 0.9761
-3.7742 5.6740 0.3571 0.9731
-4.8896 5.7150 0.3942 0.9703
-6.2388 5.7233 0.4437 0.9667
-8.0052 5.7342 0.5161 0.9613
-21.9337 5.8198 1.1893 0.9131
-31.7421 -34.5223 2.4578 0.8287
-24.8182 -34.5646 2.2300 0.8433
-11.3096 -80.4010 4.2551 0.7224
19.8999 -87.9640 4.7265 0.6968
17.4673 -48.8774 2.7202 0.8123
26.5619 -31.1885 2.1470 0.8487
52.4592 -28.8707 3.1381 0.7868
61.4547 -16.4551 3.3342 0.7751
61.4029 -8.7081 3.2502 0.7800
45.3557 16.1508 2.5232 0.8246
6.6345 5.6373 0.4563 0.9657
5.2213 5.6529 0.4033 0.9696
4.0681 5.6386 0.3644 0.9725
2.2881 5.6709 0.3205 0.9758
1.5266 5.6756 0.3080 0.9767
0.8121 5.6800 0.3007 0.9773
0.1202 5.6489 0.2961 0.9776
-2.0160 5.6816 0.3160 0.9761
-4.8447 5.7147 0.3926 0.9704
-6.1819 5.7230 0.4415 0.9668
-7.9031 5.7154 0.5111 0.9617
-10.3900 5.7488 0.6223 0.9536
-31.9977 -34.4856 2.4655 0.8283
-25.0552 -34.5631 2.2372 0.8428
-14.0433 -34.5799 1.9560 0.8611
-9.6895 -35.7014 1.9387 0.8623
19.3173 -54.8369 3.0470 0.7922
29.5810 -45.1324 2.8281 0.8056
26.5619 -31.4762 2.1585 0.8479
51.9570 -37.7542 3.3659 0.7732
52.4573 -29.1802 3.1459 0.7863
61.4567 -16.7545 3.3383 0.7748
61.4048 -8.9924 3.2524 0.7799
45.2604 4.3619 2.3830 0.8335
25.1071 5.5307 1.3474 0.9021
26.8392 13.2409 1.5684 0.8870
27.1697 17.7639 1.7012 0.8781
6.6926 5.6348 0.4585 0.9656
1.5542 5.6754 0.3084 0.9767
0.8384 5.6798 0.3009 0.9773
-0.5406 5.6770 0.2989 0.9774
-1.2448 5.6817 0.3048 0.9770
-6.1257 5.7226 0.4393 0.9670
-26.3599 19.2456 1.7105 0.8775
-7.1430 2.9292 0.4046 0.9695
-21.1405 5.8149 1.1491 0.9159
-32.3210 -34.5187 2.4783 0.8274
-25.2684 -34.5268 2.2423 0.8425
-9.8513 -35.6571 1.9387 0.8623
18.7740 -86.6279 4.6454 0.7011
29.2885 -45.1306 2.8196 0.8061
26.5601 -31.7651 2.1700 0.8472
29.0564 -27.2681 2.0883 0.8525
52.0543 -38.1866 3.3834 0.7721
51.8642 -21.4057 2.9405 0.7987
61.4587 -17.0545 3.3426 0.7745
25.6445 5.5274 1.3748 0.9003
46.6668 16.1428 2.5879 0.8205
35.2923 17.2128 2.0578 0.8545
6.7514 5.6321 0.4608 0.9654
5.3165 5.6523 0.4067 0.9694
3.1936 5.6653 0.3408 0.9743
2.3479 5.6705 0.3216 0.9757
1.5818 5.6753 0.3088 0.9767
0.8646 5.6797 0.3011 0.9773
-0.5147 5.6768 0.2987 0.9774
-1.2179 5.6815 0.3045 0.9770
-4.7560 5.7142 0.3896 0.9707
-6.0699 5.7223 0.4372 0.9671
-7.7345 5.7009 0.5036 0.9622
-10.1689 5.7475 0.6122 0.9543
-20.7639 5.8126 1.1300 0.9173
-57.9111 -28.0822 3.3730 0.7728
-25.5083 -34.5253 2.2497 0.8420
-19.5830 -34.5565 2.0816 0.8529
-14.4087 -34.5777 1.9632 0.8607
-12.4250 -80.3942 4.2633 0.7219
15.3107 -44.7528 2.4789 0.8274
21.5073 -44.4808 2.5893 0.8205
28.9974 -45.1288 2.8113 0.8067
26.5583 -32.0569 2.1817 0.8464
28.7920 -27.2664 2.0782 0.8531
51.9526 -38.4751 3.3881 0.7719
61.4086 -9.5621 3.2571 0.7796
50.9410 4.4439 2.6798 0.8148
6.8107 5.6295 0.4631 0.9652
5.3646 5.6520 0.4084 0.9693
3.2274 5.6651 0.3417 0.9742
2.3780 5.6704 0.3222 0.9757
1.6095 5.6751 0.3091 0.9766
0.8910 5.6795 0.3013 0.9772
0.1982 5.6838 0.2981 0.9775
-0.4887 5.6767 0.2986 0.9774
-2.7321 5.6833 0.3305 0.9751
-3.6392 5.6920 0.3541 0.9733
-6.0148 5.7219 0.4351 0.9673
-10.0611 5.7468 0.6072 0.9547
-7.1104 2.9914 0.4043 0.9696
-20.3994 5.8103 1.1116 0.9185
-32.9094 -34.5152 2.4993 0.8261
-19.7925 -34.5603 2.0872 0.8525
-12.4216 -78.0263 4.1407 0.7287
18.4468 -89.0056 4.7637 0.6948
15.0976 -44.7918 2.4772 0.8275
28.7083 -45.1270 2.8030 0.8072
26.5565 -32.3519 2.1936 0.8456
61.4627 -17.6570 3.3514 0.7740
61.4105 -9.8477 3.2595 0.7795
61.3608 -2.3488 3.2181 0.7820
61.3122 5.0686 3.2242 0.7816
52.2527 10.7678 2.7960 0.8076
49.5097 16.6253 2.7371 0.8112
36.1090 17.2078 2.0963 0.8520
27.1664 17.2392 1.6862 0.8791
5.4133 5.6517 0.4101 0.9691
4.2407 5.6589 0.3706 0.9721
3.2614 5.6649 0.3426 0.9742
2.4081 5.6702 0.3229 0.9756
0.2240 5.6836 0.2981 0.9775
-1.9024 5.6864 0.3142 0.9763
-2.7003 5.6830 0.3297 0.9751
-7.6307 5.7319 0.5002 0.9625
-9.9549 5.7462 0.6024 0.9550
-13.5389 5.7682 0.7713 0.9428
-20.0464 5.8082 1.0938 0.9198
-20.4031 -27.0982 1.7777 0.8730
-20.0003 -34.5591 2.0926 0.8522
-12.7839 -78.0241 4.1436 0.7286
18.0689 -89.2161 4.7705 0.6945
17.6873 -53.2711 2.9417 0.7987
26.5547 -32.6504 2.2056 0.8449
28.2712 -27.2632 2.0583 0.8544
52.3960 -39.5438 3.4402 0.7688
52.0246 -22.3042 2.9665 0.7971
61.4124 -10.1336 3.2620 0.7793
61.3141 4.7893 3.2231 0.7817
52.9521 10.6621 2.8308 0.8054
5.4623 5.6514 0.4119 0.9690
3.2955 5.6647 0.3435 0.9741
2.4385 5.6700 0.3235 0.9756
-1.1372 5.6810 0.3036 0.9771
-1.8737 5.6862 0.3138 0.9763
-2.6687 5.6827 0.3290 0.9752
-3.5665 5.6913 0.3520 0.9735
-4.6253 5.7134 0.3852 0.9710
-7.5586 5.7314 0.4971 0.9627
-4.7317 2.7599 0.2871 0.9783
-19.5729 5.7672 1.0694 0.9215
-33.5083 -34.5115 2.5209 0.8248
-8.2618 -19.0914 1.0902 0.9201
-9.6194 -57.0884 3.0340 0.7930
17.8473 -90.2208 4.8199 0.6919
17.4389 -53.3295 2.9405 0.7987
28.0142 -27.2617 2.0486 0.8551
52.3937 -39.9158 3.4519 0.7681
52.4476 -30.7509 3.1863 0.7839
61.4668 -18.2629 3.3605 0.7735
61.4143 -10.4199 3.2646 0.7792
61.3159 4.5101 3.2221 0.7817
56.0744 11.0265 2.9950 0.7954
36.9568 17.2026 2.1364 0.8494
27.1643 16.8946 1.6765 0.8797
6.9977 5.6257 0.4705 0.9647
5.5117 5.6511 0.4137 0.9689
45.5325 17.1498 0.8493 0.8231
27.2455 18.7079 0.5769 0.8761
2.9943 5.6666 0.1119 0.9747
2.1697 5.6716 0.1060 0.9760
0.1920 61.0293 1.0653 0.7834
-16.9104 24.6876 0.5223 0.8872
-5.0265 5.7159 0.1329 0.9700
-6.4128 5.7244 0.1500 0.9662
-8.2190 5.7200 0.1748 0.9607
-10.7895 5.7170 0.2131 0.9523
-15.0513 5.7775 0.2814 0.9375
-64.4680 -15.5857 1.1577 0.7669
-78.0180 -53.3108 1.6494 0.6852
-13.1652 -34.1818 0.6394 0.8637
-10.9479 -43.4367 0.7819 0.8359
26.5162 -38.9000 0.8217 0.8283
30.4177 -27.2764 0.7131 0.8492
39.0302 -27.2941 0.8313 0.8265
71.5562 -27.6532 1.3390 0.7357
27.2444 18.5260 0.5751 0.8765
6.4636 5.6452 0.1498 0.9663
1.4443 5.6761 0.1022 0.9768
0.7335 5.6805 0.1000 0.9773
0.4685 61.0276 1.0653 0.7834
-0.6432 5.6643 0.0995 0.9775
-1.3501 5.6688 0.1017 0.9770
-2.0967 5.6638 0.1054 0.9761
-2.9102 5.6548 0.1110 0.9749
-6.3542 5.7240 0.1493 0.9664
-10.6705 5.7160 0.2113 0.9527
-65.4858 -15.5181 1.1747 0.7640
-29.2564 -25.4356 0.6767 0.8563
-30.8179 -34.1329 0.8027 0.8320
-25.4584 -36.1430 0.7717 0.8379
-18.5650 -34.5628 0.6848 0.8547
-13.3429 -34.1807 0.6405 0.8635
-11.1571 -43.4355 0.7828 0.8358
-8.7349 -66.4584 1.1700 0.7648
26.5671 -30.6279 0.7077 0.8503
30.1399 -27.2747 0.7095 0.8499
38.7031 -27.3273 0.8270 0.8273
41.8353 -22.5324 0.8294 0.8269
6.5197 5.6423 0.1505 0.9661
3.0601 5.6662 0.1124 0.9746
2.2287 5.6713 0.1064 0.9759
0.7450 61.0259 1.0653 0.7834
-1.3230 5.6687 0.1016 0.9770
-2.0681 5.6651 0.1053 0.9762
-2.8778 5.6546 0.1107 0.9749
-6.2962 5.7237 0.1485 0.9665
-8.0719 5.7269 0.1728 0.9612
-10.5535 5.7150 0.2095 0.9531
-22.3167 5.8133 0.4025 0.9119
-81.5578 -8.7933 1.4318 0.7202
-69.9289 -35.4892 1.3688 0.7307
-31.0982 -34.1312 0.8060 0.8313
-13.5213 -34.1796 0.6416 0.8633
-9.0412 -66.4565 1.1707 0.7647
32.7868 -90.4496 1.6793 0.6805
23.1229 -45.6904 0.8938 0.8148
28.1789 -42.1550 0.8851 0.8164
41.3421 -22.5091 0.8217 0.8284
69.5141 -27.5906 1.3054 0.7414
42.8522 4.5221 0.7521 0.8417
24.0941 5.5369 0.4315 0.9058
46.9682 16.9653 0.8717 0.8189
5.1743 5.6532 0.1338 0.9698
2.2583 5.6711 0.1065 0.9759
0.7859 5.6801 0.1001 0.9773
0.0950 5.6744 0.0991 0.9776
-0.5912 5.6640 0.0994 0.9775
-1.2959 5.6685 0.1015 0.9770
-2.0395 5.6665 0.1051 0.9762
-4.8896 5.7150 0.1313 0.9704
-6.2388 5.7233 0.1478 0.9667
-7.9997 5.7302 0.1718 0.9614
-18.9692 -34.5603 0.6881 0.8541
-9.3478 -66.4546 1.1714 0.7645
32.3231 -90.4469 1.6765 0.6810
22.5630 -45.0898 0.8801 0.8173
27.8559 -42.0831 0.8809 0.8172
68.5921 -27.5849 1.2905 0.7440
82.7616 -22.1602 1.4955 0.7098
42.9543 4.3361 0.7536 0.8414
24.5908 5.5338 0.4400 0.9041
27.2411 17.9872 0.5698 0.8776
7.3514 6.2465 0.1684 0.9621
2.2881 5.6709 0.1067 0.9758
1.5266 5.6756 0.1026 0.9768
0.8121 5.6800 0.1002 0.9773
-0.5653 5.6638 0.0994 0.9775
-2.0110 5.6678 0.1050 0.9762
-2.8133 5.6541 0.1102 0.9751
-3.7286 5.6608 0.1183 0.9732
-4.8447 5.7147 0.1308 0.9705
-6.1819 5.7230 0.1470 0.9669
-7.9031 5.7154 0.1702 0.9617
-10.3255 5.7132 0.2060 0.9539
-14.2606 5.7726 0.2685 0.9403
-21.5103 5.8119 0.3889 0.9147
-25.1627 -34.7113 0.7483 0.8424
-19.1727 -34.5590 0.6898 0.8538
-13.8798 -34.1774 0.6439 0.8628
-11.4364 -42.1378 0.7621 0.8397
22.4494 -45.3753 0.8837 0.8167
29.3232 -27.2697 0.6990 0.8520
82.7591 -22.5620 1.4973 0.7095
46.0095 4.4341 0.8068 0.8312
26.8392 13.2409 0.5224 0.8872
27.2400 17.8098 0.5681 0.8779
7.3769 6.2108 0.1683 0.9622
5.2687 5.6526 0.1349 0.9696
4.1224 5.6596 0.1222 0.9724
2.3179 5.6707 0.1069 0.9758
1.5542 5.6754 0.1027 0.9767
0.1461 5.6622 0.0989 0.9776
-0.5393 5.6637 0.0993 0.9775
-1.2419 5.6681 0.1013 0.9771
-1.9826 5.6691 0.1048 0.9763
-3.6918 5.6605 0.1180 0.9733
-26.3599 19.2456 0.5697 0.8776
-10.2143 5.7122 0.2043 0.9543
-70.6721 -34.6665 1.3740 0.7299
-31.9557 -34.1286 0.8161 0.8294
-25.2684 -34.5268 0.7468 0.8427
22.4463 -45.8911 0.8917 0.8152
26.5601 -31.7651 0.7227 0.8473
29.0564 -27.2681 0.6955 0.8526
82.7566 -22.9645 1.4991 0.7092
48.0871 16.6341 0.8882 0.8158
35.2923 17.2128 0.6854 0.8546
7.4023 6.1751 0.1683 0.9622
4.1616 5.6594 0.1226 0.9723
3.1936 5.6653 0.1135 0.9743
2.3479 5.6705 0.1071 0.9757
0.1724 5.6839 0.0993 0.9775
-0.5134 5.6635 0.0993 0.9775
-1.9543 5.6705 0.1047 0.9763
-2.7495 5.6536 0.1097 0.9752
-4.7560 5.7142 0.1298 0.9707
-6.0699 5.7223 0.1456 0.9672
-7.7345 5.7009 0.1677 0.9623
-10.1075 5.7127 0.2027 0.9546
-7.1146 2.9552 0.1345 0.9696
-20.7414 5.8063 0.3760 0.9174
-57.8716 -28.0630 1.1226 0.7731
-32.2492 -34.1310 0.8196 0.8287
-25.5082 -34.5253 0.7493 0.8422
-19.5830 -34.5565 0.6933 0.8531
-14.2410 -34.1752 0.6462 0.8623
-10.2698 -66.4490 1.1736 0.7641
30.9406 -90.4386 1.6684 0.6822
27.0800 -42.1447 0.8744 0.8184
65.9478 -27.5687 1.2477 0.7513
82.7541 -23.3684 1.5010 0.7089
26.1279 5.5077 0.4661 0.8987
48.7888 16.6298 0.8997 0.8137
35.6970 17.2103 0.6917 0.8534
26.8548 17.2126 0.5568 0.8802
5.3646 5.6520 0.1360 0.9693
3.2274 5.6651 0.1138 0.9743
2.3780 5.6704 0.1073 0.9757
1.6095 5.6751 0.1030 0.9767
0.8910 5.6795 0.1003 0.9773
0.1982 5.6838 0.0993 0.9775
-2.7177 5.6534 0.1095 0.9752
-4.7120 5.7139 0.1293 0.9708
-7.7032 5.7319 0.1676 0.9623
-7.1090 2.9908 0.1346 0.9696
-57.8375 -27.7236 1.1195 0.7737
-25.7500 -34.5239 0.7518 0.8417
-11.4229 -39.9327 0.7250 0.8469
-10.5782 -66.4471 1.1744 0.7640
29.2084 -86.6560 1.5962 0.6936
26.8095 -42.1422 0.8718 0.8189
65.1051 -27.5635 1.2341 0.7536
82.9399 6.8565 1.4527 0.7168
36.1090 17.2078 0.6982 0.8521
27.1664 17.2392 0.5616 0.8792
7.4531 6.1039 0.1682 0.9622
5.4133 5.6517 0.1366 0.9692
4.2407 5.6589 0.1234 0.9721
3.2614 5.6649 0.1141 0.9742
2.4082 5.6702 0.1075 0.9757
0.2240 5.6836 0.0993 0.9775
-0.4619 5.6655 0.0992 0.9775
-1.8977 5.6724 0.1044 0.9764
-3.5826 5.6597 0.1169 0.9736
-4.6685 5.7137 0.1288 0.9709
-9.9126 5.7218 0.1998 0.9552
-13.5389 5.7682 0.2569 0.9428
-58.0721 -27.5130 1.1217 0.7733
-25.9930 -34.5224 0.7543 0.8412
-22.1767 -38.3198 0.7728 0.8377
-8.1823 -19.1452 0.3634 0.9201
-11.4187 -39.2448 0.7134 0.8492
-10.8867 -66.4452 1.1753 0.7639
22.5924 -47.8261 0.9233 0.8093
26.5405 -42.1397 0.8693 0.8194
36.1748 -27.3015 0.7911 0.8342
47.1865 -27.3795 0.9522 0.8039
64.2798 -27.5584 1.2208 0.7559
82.9376 6.4783 1.4521 0.7169
50.2492 16.6208 0.9238 0.8092
4.2807 5.6587 0.1239 0.9720
2.4385 5.6700 0.1077 0.9756
1.6651 5.6747 0.1032 0.9766
-1.1345 5.6675 0.1009 0.9771
-1.8690 5.6722 0.1042 0.9764
-4.6253 5.7134 0.1283 0.9710
-4.7316 2.7599 0.0956 0.9783
-13.3682 5.7671 0.2541 0.9434
-19.5729 5.7672 0.3562 0.9216
-65.2970 -21.4340 1.1996 0.7596
-33.1834 -34.1769 0.8315 0.8265
-11.4146 -38.5779 0.7022 0.8513
22.4466 -48.0802 0.9262 0.8087
26.2293 -42.0669 0.8653 0.8201
28.0142 -27.2617 0.6823 0.8552
35.8395 -27.3041 0.7864 0.8351
46.6923 -27.3764 0.9448 0.8053
63.4728 -27.5534 1.2078 0.7582
82.9352 6.1003 1.4515 0.7170
53.8730 10.5937 0.9584 0.8028
36.9568 17.2026 0.7115 0.8495
27.1643 16.8946 0.5584 0.8799
7.5039 6.0327 0.1681 0.9622
44.4542 5.3030 -0.7814 0.8360
22.6694 5.5349 -0.4073 0.9109
23.1550 33.3521 -0.7087 0.8501
2.9943 5.6666 -0.1119 0.9747
2.1697 5.6716 -0.1060 0.9760
0.1942 61.7293 -1.0775 0.7812
-0.6682 5.6558 -0.0994 0.9775
-2.1202 5.6486 -0.1053 0.9762
-2.9272 5.6250 -0.1107 0.9750
-16.9104 24.6875 -0.5223 0.8872
-10.6804 5.6592 -0.2110 0.9528
-15.0513 5.7775 -0.2814 0.9375
-64.9399 -7.5975 -1.1413 0.7698
-68.8549 -47.0495 -1.4556 0.7163
-65.4166 -57.3958 -1.5190 0.7060
-20.8203 -23.2711 -0.5450 0.8826
-15.5170 -22.2427 -0.4734 0.8972
-9.3836 -24.3635 -0.4557 0.9008
21.9519 -42.4180 -0.8337 0.8261
26.5162 -38.9000 -0.8217 0.8283
30.4177 -27.2764 -0.7131 0.8492
39.0302 -27.2941 -0.8313 0.8265
43.9652 -23.4233 -0.8695 0.8193
71.5563 -27.6532 -1.3390 0.7357
89.5608 -22.6809 -1.6126 0.6910
70.5188 -0.4615 -1.2309 0.7542
44.4529 5.0987 -0.7810 0.8361
23.1559 5.5427 -0.4156 0.9091
33.3759 17.2246 -0.6556 0.8605
27.1741 18.4782 -0.5736 0.8768
23.3787 33.3507 -0.7109 0.8496
3.0271 5.6664 -0.1121 0.9746
1.4443 5.6761 -0.1022 0.9768
0.7335 5.6805 -0.1000 0.9773
0.4739 61.7276 -1.0775 0.7812
-0.6424 5.6571 -0.0994 0.9775
-1.3469 5.6553 -0.1015 0.9770
-6.3542 5.7240 -0.1493 0.9664
-62.3255 8.1200 -1.0971 0.7777
-67.3278 -7.5679 -1.1826 0.7626
-80.7602 -19.1377 -1.4487 0.7175
-65.2751 -33.5002 -1.2807 0.7456
-21.2523 -23.5383 -0.5535 0.8808
-12.3057 -22.9097 -0.4539 0.9012
-6.9151 -26.9211 -0.4852 0.8948
22.6936 -96.2513 -1.7261 0.6733
21.8563 -42.7061 -0.8374 0.8254
28.2544 -41.8562 -0.8815 0.8171
30.1399 -27.2747 -0.7095 0.8499
43.9637 -23.6788 -0.8716 0.8189
44.4516 4.8946 -0.7806 0.8362
46.7930 17.1420 -0.8699 0.8192
33.7457 17.2223 -0.6613 0.8594
6.5197 5.6423 -0.1505 0.9661
5.1277 5.6535 -0.1332 0.9699
0.7536 61.7259 -1.0775 0.7812
-0.6166 5.6583 -0.0993 0.9775
-2.0630 5.6513 -0.1050 0.9762
-16.6007 24.7128 -0.5196 0.8877
-4.9349 5.7153 -0.1318 0.9702
-8.0719 5.7269 -0.1728 0.9612
-14.6467 5.7750 -0.2748 0.9390
-22.0308 5.7388 -0.3974 0.9129
-69.2124 -7.4622 -1.2151 0.7569
-64.8718 -32.9227 -1.2698 0.7475
-21.4699 -23.5639 -0.5564 0.8803
-7.0598 -26.9768 -0.4867 0.8944
22.3170 -96.6128 -1.7308 0.6725
28.0350 -41.9397 -0.8805 0.8172
38.3301 -27.3251 -0.8217 0.8283
69.8467 -27.7226 -1.3117 0.7403
41.9979 4.4319 -0.7371 0.8446
34.1221 17.2200 -0.6671 0.8582
27.1719 18.1188 -0.5701 0.8775
6.5472 5.6145 -0.1505 0.9661
5.1743 5.6532 -0.1338 0.9698
4.0287 5.6378 -0.1210 0.9727
3.0932 5.6660 -0.1127 0.9745
1.4991 5.6758 -0.1025 0.9768
0.7859 5.6801 -0.1001 0.9773
-0.5907 5.6595 -0.0993 0.9775
-1.2928 5.6549 -0.1013 0.9771
-4.8896 5.7150 -0.1313 0.9704
-14.4515 5.7738 -0.2716 0.9396
-21.6908 5.7553 -0.3917 0.9141
-62.5742 1.1184 -1.0924 0.7785
-72.4508 -7.4796 -1.2713 0.7472
-66.2302 -56.5352 -1.5200 0.7058
-21.7535 -23.6589 -0.5610 0.8793
-16.1253 -22.4580 -0.4826 0.8953
-9.7013 -24.2021 -0.4551 0.9009
21.8430 -43.6508 -0.8520 0.8226
27.7592 -41.9371 -0.8778 0.8177
29.5928 -27.2714 -0.7024 0.8513
37.9619 -27.3228 -0.8164 0.8293
43.2192 -23.7855 -0.8611 0.8209
69.8444 -28.0885 -1.3140 0.7400
44.3497 4.4769 -0.7780 0.8367
27.1708 17.9408 -0.5683 0.8779
7.3514 6.2465 -0.1684 0.9621
5.2213 5.6529 -0.1343 0.9697
2.2881 5.6709 -0.1067 0.9758
1.5266 5.6756 -0.1026 0.9768
-1.2658 5.6548 -0.1011 0.9771
-2.7985 5.6244 -0.1097 0.9752
-7.9031 5.7154 -0.1702 0.9617
-14.2606 5.7726 -0.2685 0.9403
-21.3146 5.7590 -0.3854 0.9155
-35.6196 5.1339 -0.6282 0.8659
-62.3668 1.3974 -1.0889 0.7791
-74.9413 -7.3936 -1.3144 0.7399
-54.7234 -12.1846 -0.9786 0.7991
-80.9700 -28.6265 -1.4991 0.7092
-66.1776 -55.9739 -1.5129 0.7070
-16.2284 -22.3868 -0.4826 0.8953
-12.8094 -23.0892 -0.4609 0.8998
-5.7637 -39.6714 -0.6997 0.8518
17.9465 -36.2739 -0.7064 0.8505
27.4851 -41.9345 -0.8752 0.8183
26.5619 -31.4762 -0.7189 0.8481
37.5983 -27.3206 -0.8112 0.8303
42.7441 -23.7771 -0.8538 0.8223
25.1071 5.5307 -0.4488 0.9023
47.4029 16.6383 -0.8769 0.8179
4.1224 5.6596 -0.1222 0.9724
2.3179 5.6707 -0.1069 0.9758
0.8384 5.6798 -0.1002 0.9773
0.1461 5.6622 -0.0989 0.9776
-2.7667 5.6242 -0.1094 0.9752
-3.6710 5.6287 -0.1173 0.9735
-4.8002 5.7145 -0.1303 0.9706
-6.1257 5.7226 -0.1463 0.9670
-23.8867 17.4399 -0.5162 0.8884
-10.1621 5.6830 -0.2032 0.9545
-7.1402 2.9280 -0.1347 0.9696
-54.8377 -11.9495 -0.9797 0.7989
-68.4969 -44.5626 -1.4264 0.7211
-64.6861 -54.2113 -1.4731 0.7134
-16.5504 -22.6145 -0.4892 0.8939
-7.2490 -26.2380 -0.4751 0.8968
23.5232 -67.7540 -1.2519 0.7506
17.7518 -36.2933 -0.7052 0.8508
66.9324 -27.6248 -1.2639 0.7485
25.6445 5.5274 -0.4579 0.9004
48.0871 16.6341 -0.8882 0.8158
35.2923 17.2128 -0.6854 0.8546
7.4023 6.1751 -0.1683 0.9622
4.1616 5.6594 -0.1226 0.9723
2.3479 5.6705 -0.1071 0.9757
0.8646 5.6797 -0.1003 0.9773
0.1724 5.6839 -0.0993 0.9775
-0.5134 5.6631 -0.0993 0.9775
-2.7351 5.6241 -0.1092 0.9753
-3.6347 5.6286 -0.1170 0.9736
-4.7560 5.7142 -0.1298 0.9707
-6.0699 5.7223 -0.1456 0.9672
-10.0633 5.6878 -0.2018 0.9548
-7.1134 2.9547 -0.1344 0.9697
-80.7312 -27.7214 -1.4899 0.7107
-57.8321 -28.0439 -1.1219 0.7733
-16.8101 -22.7525 -0.4938 0.8930
-10.0498 -24.1172 -0.4561 0.9008
-7.2956 -25.9480 -0.4705 0.8978
-5.6849 -36.7829 -0.6497 0.8617
30.6349 -89.5450 -1.6520 0.6848
26.9417 -41.9295 -0.8699 0.8192
26.5583 -32.0569 -0.7266 0.8466
28.7920 -27.2664 -0.6922 0.8533
36.8848 -27.3162 -0.8012 0.8323
41.8248 -23.7646 -0.8396 0.8249
66.2863 -27.7102 -1.2541 0.7502
26.2048 5.5239 -0.4675 0.8984
48.7888 16.6298 -0.8997 0.8137
35.6970 17.2103 -0.6917 0.8534
5.3646 5.6520 -0.1360 0.9693
4.2010 5.6592 -0.1230 0.9722
3.2274 5.6651 -0.1138 0.9743
1.6095 5.6751 -0.1030 0.9767
-1.9214 5.6581 -0.1043 0.9764
-2.7036 5.6239 -0.1089 0.9753
-6.0148 5.7219 -0.1449 0.9673
-7.7032 5.7319 -0.1676 0.9623
-9.9660 5.6925 -0.2003 0.9551
-7.1076 2.9902 -0.1346 0.9696
-20.2903 5.7793 -0.3683 0.9191
-62.5672 2.2530 -1.0928 0.7784
-80.9651 -16.8761 -1.4436 0.7183
-57.7368 -27.6754 -1.1176 0.7740
-23.0645 -24.1899 -0.5834 0.8748
-16.7542 -22.4631 -0.4891 0.8939
-12.9733 -22.6531 -0.4557 0.9008
-7.3647 -25.7456 -0.4674 0.8984
-5.6618 -35.5649 -0.6286 0.8658
18.8886 -91.1373 -1.6246 0.6891
17.3351 -36.2702 -0.7017 0.8514
26.6725 -41.9270 -0.8674 0.8197
26.5565 -32.3519 -0.7306 0.8458
28.5303 -27.2648 -0.6888 0.8540
47.6881 -27.3826 -0.9599 0.8025
49.5097 16.6253 -0.9116 0.8114
27.1664 17.2391 -0.5616 0.8792
5.4133 5.6517 -0.1366 0.9692
4.2407 5.6589 -0.1234 0.9721
3.2614 5.6649 -0.1141 0.9742
0.9173 5.6793 -0.1004 0.9772
-1.1585 5.6542 -0.1007 0.9772
-2.6722 5.6237 -0.1087 0.9754
-3.5626 5.6282 -0.1163 0.9737
-4.6685 5.7137 -0.1288 0.9709
-5.9601 5.7216 -0.1442 0.9675
-19.9946 5.7932 -0.3634 0.9201
-62.3598 2.5287 -1.0894 0.7790
-80.7772 -16.4552 -1.4389 0.7191
-80.8872 -26.9584 -1.4882 0.7110
-16.8886 -22.4306 -0.4901 0.8938
-8.1823 -19.1450 -0.3634 0.9201
-7.4154 -25.4858 -0.4633 0.8993
30.0270 -90.4362 -1.6633 0.6830
17.1683 -36.3439 -0.7016 0.8515
26.5547 -32.6504 -0.7346 0.8450
28.2712 -27.2632 -0.6855 0.8546
64.8743 -27.8133 -1.2321 0.7540
52.9521 10.6621 -0.9428 0.8057
36.5287 17.2052 -0.7048 0.8508
27.1654 17.0664 -0.5600 0.8795
7.4785 6.0683 -0.1681 0.9622
5.4623 5.6514 -0.1372 0.9690
4.2807 5.6587 -0.1239 0.9720
1.6651 5.6747 -0.1032 0.9766
0.2498 5.6834 -0.0993 0.9775
-1.8645 5.6583 -0.1040 0.9764
-3.5269 5.6280 -0.1159 0.9738
-4.6253 5.7134 -0.1283 0.9710
-5.9059 5.7213 -0.1435 0.9676
-13.3682 5.7671 -0.2541 0.9434
-19.5729 5.7672 -0.3562 0.9216
-35.2691 5.9017 -0.6242 0.8667
-80.8589 -16.0907 -1.4391 0.7190
-24.2664 -24.9930 -0.6081 0.8699
-17.2656 -22.7164 -0.4980 0.8921
-8.2647 -19.0980 -0.3632 0.9201
-7.5522 -25.5241 -0.4646 0.8990
29.5720 -90.4334 -1.6608 0.6834
18.0048 -38.5659 -0.7429 0.8434
26.1389 -41.9220 -0.8623 0.8207
26.5528 -32.9519 -0.7387 0.8443
28.0142 -27.2617 -0.6823 0.8552
35.8470 -27.3098 -0.7866 0.8350
64.8655 -28.1580 -1.2343 0.7536
51.0089 16.6161 -0.9364 0.8068
33.9530 15.8043 -0.6537 0.8609
27.1643 16.8946 -0.5584 0.8799
7.5039 6.0327 -0.1681 0.9622
42.2701 5.0424 -2.2310 0.8432
21.5001 8.0980 -1.2040 0.9121
21.6173 14.8433 -1.3743 0.9003
6.4052 5.6456 -0.4475 0.9664
2.1697 5.6716 -0.3182 0.9760
1.4170 5.6763 -0.3066 0.9768
-2.9121 5.5960 -0.3306 0.9750
-16.8018 24.5291 -1.5582 0.8877
-8.2190 5.7200 -0.5248 0.9607
-10.6297 5.6323 -0.6304 0.9530
-15.0513 5.7775 -0.8449 0.9375
-44.5205 -5.2086 -2.3491 0.8357
-42.3635 -21.9847 -2.5013 0.8260
-39.4070 -26.9273 -2.5013 0.8260
-20.5320 -22.9489 -1.6138 0.8840
-15.4320 -22.1210 -1.4135 0.8976
-12.1855 -22.9346 -1.3611 0.9012
-9.2967 -24.1378 -1.3556 0.9016
-6.8291 -27.0951 -1.4644 0.8941
-5.4892 -43.2806 -2.2864 0.8397
11.1631 -46.4045 -2.5013 0.8260
25.2469 -37.0378 -2.3491 0.8357
36.7333 -25.6879 -2.3491 0.8357
39.5600 -21.0763 -2.3491 0.8357
46.2677 -11.7171 -2.5013 0.8260
47.3422 -6.0588 -2.5013 0.8260
23.1559 5.5427 -1.2478 0.9090
3.0271 5.6664 -0.3367 0.9746
2.1991 5.6715 -0.3188 0.9759
1.4443 5.6761 -0.3070 0.9768
0.7335 5.6805 -0.3002 0.9773
0.3659 47.6628 -2.4980 0.8262
-1.3437 5.6417 -0.3039 0.9770
-2.0865 5.6362 -0.3150 0.9762
-6.3542 5.7240 -0.4482 0.9663
-10.5242 5.6376 -0.6257 0.9533
-14.8466 5.7762 -0.8349 0.9382
-41.5660 0.3662 -2.1785 0.8466
-42.4627 -21.7925 -2.5013 0.8260
-39.5286 -26.7485 -2.5013 0.8260
-15.5852 -22.1262 -1.4184 0.8973
-12.2053 -22.7228 -1.3518 0.9018
-5.4749 -41.6547 -2.2018 0.8451
5.2775 -47.4356 -2.5013 0.8260
10.9528 -46.4546 -2.5013 0.8260
20.4212 -39.9021 -2.3491 0.8357
25.0788 -37.1518 -2.3491 0.8357
27.8312 -25.1854 -1.9671 0.8604
39.4641 -21.2553 -2.3491 0.8357
46.2141 -11.9266 -2.5013 0.8260
47.3142 -6.2732 -2.5013 0.8260
23.6162 5.5398 -1.2713 0.9074
21.4968 7.8751 -1.1998 0.9124
21.6116 14.5530 -1.3655 0.9009
6.5197 5.6423 -0.4519 0.9661
5.1277 5.6535 -0.4000 0.9699
3.0601 5.6662 -0.3375 0.9745
2.2287 5.6713 -0.3193 0.9759
-0.6166 5.6583 -0.2983 0.9775
-1.3167 5.6416 -0.3036 0.9771
-2.8495 5.5990 -0.3292 0.9751
-3.7601 5.5975 -0.3534 0.9734
-6.2962 5.7237 -0.4459 0.9665
-8.0719 5.7269 -0.5187 0.9611
-14.6467 5.7750 -0.8251 0.9389
-21.7692 5.6707 -1.1789 0.9138
-45.1071 0.6018 -2.3642 0.8347
-43.6626 -10.1380 -2.3491 0.8357
-42.5610 -21.5999 -2.5013 0.8260
-39.6494 -26.5691 -2.5013 0.8260
-29.2957 -25.2376 -2.0265 0.8565
-21.2482 -23.3205 -1.6534 0.8813
-15.7333 -22.1229 -1.4227 0.8970
-9.4763 -23.9545 -1.3501 0.9020
-6.9644 -26.6120 -1.4416 0.8957
-5.4615 -40.1447 -2.1233 0.8502
-0.6907 -47.7233 -2.5013 0.8260
10.7421 -46.5037 -2.5013 0.8260
20.2402 -39.9942 -2.3491 0.8357
24.9102 -37.2651 -2.3491 0.8357
24.7788 -28.8292 -1.9923 0.8588
36.4990 -26.0197 -2.3491 0.8357
39.3674 -21.4340 -2.3491 0.8357
40.0988 -15.9155 -2.2610 0.8413
47.7225 -0.7448 -2.5013 0.8260
41.9779 4.4298 -2.2122 0.8444
24.0941 5.5369 -1.2956 0.9057
21.4952 7.7642 -1.1978 0.9125
21.5442 10.8724 -1.2647 0.9079
6.5472 5.6145 -0.4520 0.9660
5.1743 5.6532 -0.4016 0.9698
3.0932 5.6660 -0.3383 0.9745
2.2583 5.6711 -0.3199 0.9758
1.4991 5.6758 -0.3077 0.9768
0.7859 5.6801 -0.3005 0.9773
-0.5907 5.6595 -0.2982 0.9775
-6.2388 5.7233 -0.4437 0.9667
-10.3179 5.6480 -0.6165 0.9540
-14.4515 5.7738 -0.8156 0.9396
-21.4459 5.6903 -1.1628 0.9150
-45.1152 0.8063 -2.3648 0.8347
-44.5959 -4.6040 -2.3496 0.8356
-43.7081 -9.9401 -2.3491 0.8357
-39.7693 -26.3892 -2.5013 0.8260
-9.6184 -23.9952 -1.3548 0.9016
-5.2119 -37.0518 -1.9609 0.8608
-0.9070 -47.7197 -2.5013 0.8260
4.8475 -47.4815 -2.5013 0.8260
20.0589 -40.0855 -2.3491 0.8357
36.3808 -26.1848 -2.3491 0.8357
46.1042 -12.3449 -2.5013 0.8260
47.2554 -6.7017 -2.5013 0.8260
47.7186 -0.9611 -2.5013 0.8260
44.5975 4.5020 -2.3491 0.8357
24.5908 5.5338 -1.3210 0.9040
21.4937 7.6537 -1.1957 0.9127
21.6060 14.2664 -1.3569 0.9015
7.3514 6.2465 -0.5056 0.9621
5.2213 5.6529 -0.4033 0.9696
4.0681 5.6386 -0.3644 0.9725
3.1265 5.6658 -0.3391 0.9744
2.2881 5.6709 -0.3205 0.9758
-0.5650 5.6607 -0.2981 0.9775
-1.2628 5.6413 -0.3030 0.9771
-2.0013 5.6403 -0.3136 0.9763
-3.6868 5.5973 -0.3513 0.9735
-6.1819 5.7230 -0.4415 0.9668
-7.9031 5.7154 -0.5111 0.9617
-21.1311 5.7094 -1.1471 0.9161
-30.1735 4.3490 -1.5977 0.8851
-44.6257 -4.4028 -2.3501 0.8356
-43.7527 -9.7419 -2.3491 0.8357
-36.4413 -30.8225 -2.5013 0.8260
-21.7372 -23.4273 -1.6749 0.8798
-16.1720 -22.3090 -1.4440 0.8955
-1.1231 -47.7151 -2.5013 0.8260
4.6322 -47.5030 -2.5013 0.8260
10.3203 -46.5992 -2.5013 0.8260
15.8580 -45.0168 -2.5013 0.8260
19.8770 -40.1760 -2.3491 0.8357
24.5715 -37.4893 -2.3491 0.8357
36.2617 -26.3494 -2.3491 0.8357
39.1715 -21.7898 -2.3491 0.8357
37.1657 -15.1425 -2.1032 0.8515
46.0478 -12.5537 -2.5013 0.8260
47.7138 -1.1772 -2.5013 0.8260
44.6174 4.2999 -2.3491 0.8357
25.1071 5.5307 -1.3474 0.9021
21.4921 7.5437 -1.1937 0.9128
21.6033 14.1245 -1.3527 0.9018
5.2687 5.6526 -0.4050 0.9695
1.5542 5.6754 -0.3084 0.9767
0.8384 5.6798 -0.3009 0.9773
-1.9730 5.6417 -0.3132 0.9763
-23.7190 17.3174 -1.5391 0.8890
-10.1175 5.6581 -0.6075 0.9546
-7.1388 2.9274 -0.4044 0.9696
-29.9878 4.4610 -1.5889 0.8856
-45.1287 1.2159 -2.3659 0.8346
-45.0705 -15.7049 -2.5013 0.8260
-42.8506 -21.0193 -2.5013 0.8260
-40.0069 -26.0276 -2.5013 0.8260
-22.0663 -23.5667 -1.6920 0.8787
-7.1442 -25.8585 -1.4060 0.8981
-5.4267 -36.1980 -1.9183 0.8636
-1.3394 -47.7095 -2.5013 0.8260
24.4015 -37.6002 -2.3491 0.8357
36.5879 -15.1008 -2.0744 0.8534
45.9904 -12.7621 -2.5013 0.8260
47.1928 -7.1297 -2.5013 0.8260
47.7080 -1.3933 -2.5013 0.8260
21.4905 7.4339 -1.1918 0.9129
21.6006 13.9834 -1.3485 0.9021
7.4023 6.1751 -0.5052 0.9621
5.3165 5.6523 -0.4067 0.9694
3.1936 5.6653 -0.3408 0.9743
2.3479 5.6705 -0.3216 0.9757
1.5818 5.6753 -0.3088 0.9767
0.8646 5.6797 -0.3011 0.9773
0.1724 5.6839 -0.2980 0.9775
-0.5134 5.6631 -0.2980 0.9775
-1.2092 5.6410 -0.3023 0.9772
-2.7258 5.6051 -0.3266 0.9753
-3.6144 5.5971 -0.3492 0.9737
-6.0699 5.7223 -0.4372 0.9671
-10.0196 5.6631 -0.6032 0.9549
-7.1122 2.9542 -0.4036 0.9696
-20.5264 5.7461 -1.1171 0.9182
-29.9870 4.5999 -1.5899 0.8856
-44.6825 -3.9998 -2.3511 0.8355
-43.8392 -9.3451 -2.3491 0.8357
-45.1412 -15.5005 -2.5013 0.8260
-36.7191 -30.4910 -2.5013 0.8260
-22.6485 -23.9700 -1.7283 0.8763
-16.5224 -22.3632 -1.4572 0.8946
-5.4165 -35.0468 -1.8585 0.8676
4.2017 -47.5430 -2.5013 0.8260
15.4496 -45.1586 -2.5013 0.8260
18.0629 -37.3571 -2.1746 0.8469
24.2307 -37.7104 -2.3491 0.8357
26.4542 -31.9313 -2.1731 0.8470
27.8034 -26.3302 -2.0068 0.8578
34.8878 -25.8373 -2.2752 0.8404
45.9321 -12.9705 -2.5013 0.8260
47.1600 -7.3434 -2.5013 0.8260
47.7011 -1.6096 -2.5013 0.8260
21.4890 7.3246 -1.1898 0.9131
21.5979 13.8432 -1.3444 0.9023
5.3646 5.6520 -0.4084 0.9693
3.2274 5.6651 -0.3417 0.9742
2.3780 5.6704 -0.3222 0.9757
1.6095 5.6751 -0.3091 0.9766
0.1982 5.6838 -0.2981 0.9775
-0.4877 5.6643 -0.2980 0.9775
-3.5785 5.5971 -0.3482 0.9737
-7.7032 5.7319 -0.5032 0.9623
-9.9230 5.6679 -0.5989 0.9553
-20.2357 5.7637 -1.1027 0.9192
-44.7095 -3.7981 -2.3516 0.8355
-45.2109 -15.2959 -2.5013 0.8260
-43.0393 -20.6303 -2.5013 0.8260
-40.2411 -25.6641 -2.5013 0.8260
-23.0476 -24.1722 -1.7504 0.8748
-12.8017 -22.3536 -1.3500 0.9020
-10.0295 -23.7646 -1.3518 0.9018
3.9861 -47.5616 -2.5013 0.8260
9.6860 -46.7351 -2.5013 0.8260
19.3291 -40.4424 -2.3491 0.8357
24.0597 -37.8198 -2.3491 0.8357
23.6365 -28.7946 -1.9524 0.8614
45.8729 -13.1784 -2.5013 0.8260
47.1262 -7.5571 -2.5013 0.8260
47.6934 -1.8256 -2.5013 0.8260
21.4875 7.2155 -1.1879 0.9132
5.4133 5.6517 -0.4101 0.9691
3.2614 5.6649 -0.3426 0.9742
2.4081 5.6702 -0.3229 0.9756
1.6373 5.6749 -0.3095 0.9766
0.9173 5.6793 -0.3015 0.9772
0.2240 5.6836 -0.2981 0.9775
-0.4619 5.6655 -0.2979 0.9775
-3.5428 5.5970 -0.3472 0.9738
-13.5389 5.7682 -0.7713 0.9428
-19.9522 5.7809 -1.0887 0.9202
-44.7356 -3.5964 -2.3521 0.8355
-43.9221 -8.9474 -2.3491 0.8357
-43.1324 -20.4349 -2.5013 0.8260
-40.3569 -25.4816 -2.5013 0.8260
-36.9939 -30.1570 -2.5013 0.8260
-16.8150 -22.3327 -1.4651 0.8941
-12.9240 -22.3318 -1.3522 0.9018
-8.1821 -19.1446 -1.0911 0.9200
-5.5988 -34.1716 -1.8147 0.8705
3.7707 -47.5791 -2.5013 0.8260
15.0396 -45.2968 -2.5013 0.8260
23.8881 -37.9284 -2.3491 0.8357
35.7783 -27.0022 -2.3491 0.8357
45.8127 -13.3860 -2.5013 0.8260
47.0915 -7.7705 -2.5013 0.8260
21.5319 10.1417 -1.2473 0.9091
21.5926 13.5653 -1.3364 0.9029
7.4785 6.0683 -0.5047 0.9622
5.4623 5.6514 -0.4119 0.9690
4.2807 5.6587 -0.3719 0.9720
3.2955 5.6647 -0.3435 0.9741
2.4385 5.6700 -0.3235 0.9756
-0.4362 5.6667 -0.2979 0.9775
-1.1291 5.6406 -0.3015 0.9772
-2.6344 5.6095 -0.3248 0.9755
-5.9059 5.7213 -0.4309 0.9676
-7.5586 5.7314 -0.4971 0.9627
-4.7315 2.7598 -0.2871 0.9783
-29.9844 5.0174 -1.5933 0.8854
-43.9622 -8.7483 -2.3491 0.8357
-45.3477 -14.8856 -2.5013 0.8260
-43.2245 -20.2394 -2.5013 0.8260
-37.1301 -29.9891 -2.5013 0.8260
-23.6533 -24.3614 -1.7795 0.8728
-16.9825 -22.3439 -1.4708 0.8937
-13.0133 -22.2528 -1.3510 0.9019
-8.2646 -19.0978 -1.0906 0.9200
-2.2027 -47.6529 -2.5000 0.8261
3.5551 -47.5957 -2.5013 0.8260
9.2621 -46.8210 -2.5013 0.8260
14.8343 -45.3644 -2.5013 0.8260
26.4487 -32.8228 -2.2091 0.8446
38.6678 -22.6716 -2.3491 0.8357
34.7269 -15.0749 -1.9840 0.8593
21.5900 13.4277 -1.3325 0.9032
7.5039 6.0327 -0.5046 0.9622
5.5117 5.6511 -0.4137 0.9689
22.6637 2.7036 -1.9969 0.9124
21.8753 8.2393 -2.0451 0.9104
8.6264 5.9232 -0.9155 0.9589
6.4052 5.6456 -0.7470 0.9663
15.6719 22.5735 -2.4042 0.8955
2.9943 5.6666 -0.5607 0.9746
0.7074 5.6806 -0.5008 0.9773
-0.6682 5.6558 -0.4983 0.9774
-1.3675 5.6283 -0.5067 0.9770
-2.1099 5.6210 -0.5253 0.9762
-15.5397 22.6865 -2.4058 0.8955
-6.4128 5.7244 -0.7521 0.9661
-8.2190 5.7200 -0.8761 0.9606
-10.5712 5.6013 -1.0467 0.9531
-15.0513 5.7775 -1.4105 0.9373
-25.3767 -13.1693 -2.5013 0.8915
-17.9034 -20.0108 -2.3491 0.8978
-12.5593 -18.0030 -1.9205 0.9156
-9.2129 -23.9201 -2.2426 0.9022
3.2901 -28.4004 -2.5013 0.8915
6.6870 -27.7974 -2.5013 0.8915
9.9865 -26.7895 -2.5013 0.8915
13.1405 -25.3916 -2.5013 0.8915
16.1033 -23.6240 -2.5013 0.8915
20.3566 -18.2543 -2.3922 0.8960
25.2327 -13.4432 -2.5013 0.8915
27.7154 -7.0188 -2.5013 0.8915
28.3590 -3.6294 -2.5013 0.8915
23.1559 5.5427 -2.0831 0.9088
21.9457 11.3257 -2.1606 0.9056
8.6531 5.8841 -0.9155 0.9589
6.4636 5.6452 -0.7508 0.9661
15.7722 22.4997 -2.4039 0.8955
0.2127 27.6999 -2.4235 0.8947
-1.3404 5.6282 -0.5062 0.9770
-2.0814 5.6224 -0.5245 0.9762
-3.7756 5.5659 -0.5884 0.9734
-10.4691 5.6081 -1.0391 0.9534
