ply
format ascii 1.0
element vertex 695
property float32 x
property float32 y
property float32 z
property float32 I
end_header
-20.2161 22.5575 8.1164 0.8821
-29.8527 -0.0791 7.9990 0.8837
-45.6211 -11.3303 12.5955 0.8231
-16.7417 -43.9116 12.5922 0.8232
-10.5948 -42.5818 11.7576 0.8338
44.3860 -85.5744 25.8305 0.6709
51.1209 -35.7868 16.7206 0.7723
33.6751 17.2227 10.1348 0.8550
26.9636 29.7163 10.7517 0.8469
4.0110 5.6603 1.8589 0.9717
3.0591 5.6520 1.7220 0.9737
1.4814 5.6759 1.5718 0.9760
0.0826 5.6845 1.5233 0.9767
-1.3105 5.6930 1.5653 0.9761
-2.0581 5.6976 1.6232 0.9752
-2.8755 5.7027 1.7113 0.9739
-19.5909 22.8939 8.0738 0.8827
-13.5346 -14.5773 5.3300 0.9209
-15.9984 -28.7669 8.8199 0.8726
-17.8989 -43.8988 12.7028 0.8217
35.6425 17.2106 10.6055 0.8488
26.3408 21.7680 9.1562 0.8680
-7.9016 2.9608 1.9481 0.9660
-70.9803 -37.3337 18.5156 0.7195
-25.3087 -36.5974 10.2727 0.8330
-17.0698 -44.7721 11.0622 0.8214
17.0682 -45.6094 11.2429 0.8188
23.4381 -45.1877 11.7522 0.8114
51.1209 -35.7868 14.4067 0.7740
51.4816 12.1615 12.2126 0.8048
46.1856 16.9830 11.3608 0.8171
26.4906 17.8579 7.3757 0.8771
26.9242 23.3082 8.2216 0.8640
5.1298 5.6534 1.7624 0.9691
4.0110 5.6603 1.6016 0.9719
2.2369 5.6712 1.4075 0.9753
1.4814 5.6759 1.3543 0.9762
-0.6045 5.6887 1.3207 0.9768
-1.3105 5.6930 1.3487 0.9763
-2.8755 5.7027 1.4745 0.9741
-4.8905 5.7150 1.7366 0.9696
-6.2354 5.7233 1.9540 0.9659
-27.7626 19.9126 7.8877 0.8691
-56.4632 -28.0662 14.5571 0.7719
-26.2380 -36.1427 10.3111 0.8325
-18.7450 -33.7056 8.9040 0.8536
-11.8687 -43.4310 10.3945 0.8312
22.4786 -45.8794 11.7951 0.8108
51.4296 -28.9888 13.6297 0.7848
51.4740 10.9212 12.1482 0.8057
48.6389 16.6306 11.8674 0.8098
35.6425 17.2106 9.1378 0.8500
-5.1231 5.7165 1.4921 0.9692
-29.9031 -0.0792 5.8126 0.8853
-71.1829 -37.4402 15.6338 0.7206
-23.8826 -34.5352 8.1618 0.8427
-18.1010 -34.3785 7.5522 0.8536
-10.8077 -43.4375 8.7008 0.8333
22.7151 -93.7544 18.7513 0.6750
16.8956 -45.1482 9.3703 0.8217
31.1594 -45.6560 10.7445 0.7983
41.3983 -47.2711 12.2141 0.7741
51.2810 -45.9981 13.3905 0.7552
51.5686 -27.5302 11.3629 0.7880
6.5206 5.6449 1.6765 0.9655
3.0591 5.6520 1.2492 0.9742
2.2369 5.6712 1.1850 0.9755
1.4814 5.6759 1.1402 0.9764
-3.8008 5.7083 1.3330 0.9724
-4.8905 5.7150 1.4621 0.9698
-7.9703 5.7167 1.9066 0.9608
-64.2969 -22.8102 13.2612 0.7573
-58.1806 -28.9199 12.6292 0.7674
-25.0910 -34.5628 8.3020 0.8403
-14.9424 -36.6477 7.6930 0.8511
29.5536 -45.5079 10.5475 0.8016
41.3847 -49.4988 12.5414 0.7688
51.3579 -48.2348 13.6955 0.7504
51.2295 -28.8760 11.4309 0.7869
51.5741 10.9425 10.2481 0.8067
48.6388 16.6306 9.9918 0.8110
6.8284 5.6430 1.7219 0.9645
5.3695 5.6520 1.5154 0.9687
-6.5316 5.7251 1.3757 0.9654
-8.3977 5.7366 1.6108 0.9596
-5.4346 2.8218 0.9699 0.9755
-7.9002 2.9603 1.3362 0.9664
-89.9942 21.8449 14.6676 0.6873
-89.5907 -34.1134 15.1836 0.6782
-63.9384 -44.1757 12.3088 0.7300
-25.3087 -36.5975 7.0475 0.8351
-17.9789 -34.1466 6.1121 0.8553
-13.2032 -34.6304 5.8700 0.8606
-10.8077 -43.4375 7.0896 0.8342
13.8743 -57.2649 9.3323 0.7877
16.4259 -43.8929 7.4228 0.8271
23.3898 -45.0945 8.0459 0.8141
71.2975 -27.6515 12.1119 0.7337
55.7017 -0.4904 8.8226 0.7980
55.7431 6.2461 8.8841 0.7968
51.4316 12.1497 8.3702 0.8073
46.1856 16.9830 7.7940 0.8193
-1.3105 5.6930 0.9253 0.9766
-2.0581 5.6976 0.9595 0.9758
-4.8905 5.7150 1.1913 0.9700
-6.2354 5.7233 1.3405 0.9663
-10.4736 5.7465 1.8921 0.9528
-85.0848 22.7290 13.9487 0.7000
-67.3633 -15.1007 10.9341 0.7561
-72.9356 -36.2542 12.9003 0.7190
-65.0780 -42.7946 12.3362 0.7295
-19.2195 -34.5587 6.2631 0.8520
20.9619 -42.7839 7.5459 0.8245
29.3087 -45.1308 8.5231 0.8042
38.6228 -46.1953 9.5370 0.7836
51.5434 -48.4090 11.1997 0.7510
51.1783 -37.6025 10.0586 0.7732
66.6536 -27.6230 11.4276 0.7466
56.4943 -15.7868 9.2906 0.7886
55.6522 -8.5306 8.9174 0.7961
55.6938 -1.7667 8.8255 0.7980
35.6426 17.2107 6.2689 0.8519
-73.2114 -38.5071 10.1568 0.7165
-65.7464 -45.4249 9.8118 0.7247
-18.8501 -35.8013 4.9679 0.8495
-10.3115 -41.4434 5.2438 0.8419
13.1869 -54.4275 6.8762 0.7980
23.3637 -45.0443 6.2304 0.8151
30.8074 -45.1401 6.7103 0.8023
39.7136 -45.3474 7.4013 0.7843
50.2553 -45.0780 8.2892 0.7618
51.7581 -27.6314 7.2040 0.7894
55.6711 -14.1905 7.0541 0.7933
55.7017 -0.4904 6.8396 0.7989
51.9451 5.8205 6.4180 0.8101
51.9323 12.2679 6.5520 0.8065
46.1856 16.9830 6.0421 0.8201
26.4907 17.8579 3.9227 0.8792
6.5207 5.6449 1.0590 0.9658
5.1298 5.6534 0.9373 0.9697
4.0110 5.6603 0.8518 0.9724
3.0591 5.6520 0.7891 0.9744
2.2369 5.6712 0.7485 0.9757
1.4814 5.6759 0.7203 0.9766
0.7711 5.6802 0.7038 0.9772
0.0826 5.6845 0.6980 0.9773
-0.6045 5.6887 0.7024 0.9772
-1.3105 5.6930 0.7173 0.9767
-2.0581 5.6976 0.7438 0.9759
-2.8755 5.7027 0.7842 0.9746
-3.8008 5.7083 0.8420 0.9727
-4.8905 5.7150 0.9236 0.9701
-7.9946 5.7341 1.2080 0.9611
-10.4789 5.7494 1.4676 0.9530
-30.0359 -25.4060 4.8303 0.8534
-32.0512 -34.5204 5.7838 0.8271
-25.0911 -34.5629 5.2441 0.8419
-14.9424 -36.6477 4.8594 0.8526
-10.6544 -38.9877 4.9626 0.8497
-13.0394 -88.4456 10.9771 0.6975
29.3087 -45.1308 6.6073 0.8050
27.9032 -33.3740 5.3414 0.8392
48.2757 -45.3401 8.1319 0.7657
51.1783 -37.6025 7.7977 0.7742
51.7278 -29.1569 7.2908 0.7872
55.6091 -15.5395 7.0895 0.7924
55.7874 -8.5514 6.9298 0.7966
55.6938 -1.7667 6.8418 0.7989
51.5741 10.9425 6.4735 0.8086
35.6426 17.2107 4.8598 0.8526
-5.1231 5.7165 0.6716 0.9696
-6.5316 5.7251 0.7599 0.9657
-7.8980 2.9595 0.7379 0.9667
-43.9997 -10.9275 3.9658 0.8336
-52.8406 -27.7927 5.2234 0.7868
-32.4212 -36.5639 4.2754 0.8218
-25.3088 -36.5975 3.8929 0.8364
-10.8077 -43.4376 3.9162 0.8355
-10.8175 -87.1686 7.6848 0.7028
13.9846 -57.7200 5.1959 0.7878
49.0018 -43.9536 5.7590 0.7677
51.3883 -35.9740 5.4881 0.7773
51.5686 -27.5302 5.1143 0.7908
55.7601 -7.2442 4.9194 0.7979
55.7089 -0.4905 4.8741 0.7996
43.9461 16.1595 4.0965 0.8286
33.6752 17.2228 3.3092 0.8591
4.0110 5.6603 0.6069 0.9725
0.7711 5.6802 0.5015 0.9772
-0.6045 5.6887 0.5005 0.9773
-1.3105 5.6930 0.5111 0.9768
-2.0581 5.6976 0.5300 0.9760
-3.8008 5.7083 0.6000 0.9728
-7.9946 5.7341 0.8607 0.9613
-33.9399 -36.5547 4.3641 0.8185
-26.2380 -36.1427 3.9074 0.8358
-11.8529 -80.3977 7.1099 0.7216
15.3377 -44.0322 4.0793 0.8293
51.1783 -37.6025 5.5562 0.7749
55.6628 -23.0681 5.2715 0.7851
55.6164 -15.5415 5.0522 0.7930
49.6558 4.4150 4.3615 0.8186
51.4740 10.9212 4.6036 0.8095
48.6391 16.6307 4.4972 0.8135
35.6426 17.2107 3.4628 0.8531
26.3849 16.9208 2.7423 0.8817
5.3695 5.6520 0.6821 0.9692
-5.1231 5.7165 0.4023 0.9697
-8.3977 5.7366 0.5330 0.9601
-5.4344 2.8217 0.3209 0.9758
-24.0287 5.8327 1.2959 0.9057
-29.9721 -0.0794 1.5708 0.8869
-30.6170 -34.5292 2.4185 0.8312
-23.9067 -34.5701 2.2028 0.8451
-10.3115 -41.4434 2.2382 0.8428
13.9432 -57.5491 3.1033 0.7888
17.6481 -47.1590 2.6389 0.8173
23.3637 -45.0443 2.6593 0.8161
51.6373 -36.1483 3.3034 0.7769
60.6174 -7.8753 3.2035 0.7828
23.4553 5.5408 1.2631 0.9080
33.6752 17.2228 1.9823 0.8594
26.3902 17.7902 1.6680 0.8803
5.1298 5.6534 0.4001 0.9699
0.0826 5.6845 0.2979 0.9775
-0.6045 5.6887 0.2998 0.9773
-2.0545 5.6875 0.3169 0.9761
-2.8663 5.6845 0.3336 0.9748
-3.7909 5.6936 0.3585 0.9730
-6.2354 5.7233 0.4436 0.9667
-7.9946 5.7341 0.5156 0.9614
-14.3952 5.7734 0.8128 0.9398
-25.0911 -34.5629 2.2383 0.8428
-10.2543 -37.5233 2.0386 0.8557
19.1951 -87.9857 4.7196 0.6972
15.8957 -45.6341 2.5325 0.8240
22.0656 -45.0364 2.6283 0.8180
29.3087 -45.1307 2.8202 0.8061
25.7862 -30.8419 2.1069 0.8513
29.0334 -27.2679 2.0874 0.8525
60.7335 -25.1695 3.4454 0.7685
60.6781 -16.9559 3.3018 0.7770
60.5781 -1.9216 3.1764 0.7845
50.0417 4.4493 2.6329 0.8177
51.5742 10.9425 2.7630 0.8096
35.6426 17.2107 2.0743 0.8534
6.8117 5.6292 0.4631 0.9652
-5.1231 5.7165 0.1340 0.9698
-6.5316 5.7251 0.1516 0.9658
-8.3977 5.7366 0.1775 0.9601
-24.0080 5.8276 0.4312 0.9059
-30.2686 -34.1363 0.7964 0.8332
-17.9818 -34.1522 0.6737 0.8569
-10.8175 -87.1686 1.5332 0.7037
22.9430 -94.6952 1.7007 0.6772
25.7947 -29.4539 0.6834 0.8550
71.2976 -27.6516 1.3348 0.7364
23.4553 5.5408 0.4207 0.9081
33.6752 17.2228 0.6602 0.8596
6.8197 5.9038 0.1574 0.9646
3.0591 5.6520 0.1122 0.9746
1.4814 5.6759 0.1024 0.9768
0.7711 5.6802 0.1001 0.9773
0.0826 5.6845 0.0992 0.9775
-2.8589 5.6698 0.1108 0.9749
-14.3952 5.7734 0.2707 0.9398
-21.7636 5.8138 0.3932 0.9138
-30.0467 -25.4151 0.6869 0.8543
-31.7064 -34.1491 0.8134 0.8299
-26.2380 -36.1427 0.7796 0.8364
-11.8687 -43.4311 0.7859 0.8352
-9.7969 -66.4519 1.1725 0.7644
66.6537 -27.6230 1.2594 0.7493
81.9774 -22.9079 1.4857 0.7114
26.0595 8.9103 0.4807 0.8957
26.3849 16.9208 0.5471 0.8821
6.9340 5.7303 0.1570 0.9647
5.3695 5.6520 0.1361 0.9693
-5.1231 5.7165 -0.1340 0.9698
-6.5316 5.7251 -0.1516 0.9658
-5.4343 2.8217 -0.1069 0.9758
-7.8939 2.9580 -0.1471 0.9668
-23.5220 5.7097 -0.4225 0.9077
-88.9097 10.5170 -1.5627 0.6990
-30.0278 -0.0795 -0.5241 0.8868
-43.9837 -10.9236 -0.7911 0.8342
-81.4880 -31.0281 -1.5220 0.7055
-66.3668 -34.9071 -1.3089 0.7408
-69.9004 -48.2949 -1.4830 0.7118
-15.3294 -22.1670 -0.4704 0.8978
-9.4267 -24.7252 -0.4619 0.8995
-7.1826 -28.8677 -0.5192 0.8878
22.6617 -93.5340 -1.6799 0.6804
21.7352 -41.9045 -0.8240 0.8279
25.7439 -37.7209 -0.7971 0.8330
39.0396 -27.3294 -0.8318 0.8264
43.1428 -23.0320 -0.8536 0.8223
43.6720 4.8935 -0.7671 0.8388
46.1856 16.9830 -0.8590 0.8213
33.6752 17.2228 -0.6602 0.8596
5.1298 5.6534 -0.1332 0.9699
4.0110 5.6603 -0.1211 0.9726
3.0591 5.6520 -0.1122 0.9746
2.2369 5.6712 -0.1064 0.9759
1.4814 5.6759 -0.1024 0.9768
0.7711 5.6802 -0.1001 0.9773
0.0826 5.6845 -0.0992 0.9775
-1.3046 5.6674 -0.1015 0.9770
-2.0443 5.6593 -0.1050 0.9762
-2.8516 5.6553 -0.1106 0.9750
-3.7480 5.6291 -0.1180 0.9733
-7.9946 5.7341 -0.1717 0.9614
-10.3958 5.7038 -0.2070 0.9537
-14.3952 5.7734 -0.2707 0.9398
-36.2456 5.1317 -0.6390 0.8638
-63.3528 1.2836 -1.1060 0.7761
-73.5735 -7.3919 -1.2907 0.7439
-55.8545 -12.5208 -0.9991 0.7953
-65.7103 -32.6627 -1.2809 0.7456
-69.3969 -45.6347 -1.4498 0.7173
-12.8396 -23.0870 -0.4611 0.8997
-9.9797 -24.4762 -0.4614 0.8997
31.5047 -90.4453 -1.6718 0.6817
21.0756 -43.0159 -0.8361 0.8256
66.6538 -27.6230 -1.2594 0.7493
26.3849 16.9208 -0.5471 0.8821
6.9340 5.7303 -0.1570 0.9647
5.3695 5.6520 -0.1361 0.9693
-6.5316 5.7251 -0.4552 0.9658
-8.3977 5.7366 -0.5330 0.9601
-5.4343 2.8217 -0.3209 0.9758
-36.0815 4.2680 -1.9041 0.8646
-30.0558 -0.0796 -1.5752 0.8866
-44.4894 -5.5017 -2.3493 0.8356
-44.6081 -16.9854 -2.5015 0.8260
-39.2709 -27.1327 -2.5015 0.8260
-33.5543 -29.7268 -2.3493 0.8356
-20.1864 -22.7659 -1.5946 0.8853
-12.1619 -23.0987 -1.3681 0.9007
-9.3496 -24.5228 -1.3754 0.9002
-7.1878 -28.8886 -1.5601 0.8876
-0.1469 -47.7322 -2.5015 0.8260
11.2396 -46.3903 -2.5015 0.8260
20.6404 -39.7938 -2.3493 0.8356
25.6906 -29.3350 -2.0436 0.8554
28.7957 -25.8292 -2.0273 0.8565
39.4180 -15.2876 -2.2157 0.8442
47.3346 -6.1496 -2.5015 0.8260
41.4881 4.6488 -2.1879 0.8460
20.6959 7.6101 -1.1556 0.9155
20.7434 10.6090 -1.2210 0.9109
3.0591 5.6520 -0.3368 0.9746
2.2369 5.6712 -0.3195 0.9759
1.4814 5.6759 -0.3074 0.9768
0.0826 5.6845 -0.2979 0.9775
-0.6045 5.6887 -0.2998 0.9773
-1.3046 5.6674 -0.3048 0.9770
-2.8443 5.6409 -0.3311 0.9750
-3.7270 5.5976 -0.3524 0.9734
-6.2354 5.7233 -0.4436 0.9667
-7.9946 5.7341 -0.5156 0.9614
-14.3952 5.7734 -0.8128 0.9398
-30.9529 4.3824 -1.6383 0.8823
-44.6037 -4.4813 -2.3493 0.8356
-39.8820 -26.2260 -2.5015 0.8260
-29.9663 -25.3471 -2.0569 0.8545
-21.2887 -22.9288 -1.6397 0.8822
-12.6631 -22.7697 -1.3654 0.9009
-9.9039 -24.2904 -1.3748 0.9003
-7.5103 -27.4825 -1.4931 0.8922
-6.2617 -42.4730 -2.2500 0.8420
-1.2401 -47.7163 -2.5015 0.8260
10.1741 -46.6355 -2.5015 0.8260
15.5726 -44.7066 -2.4810 0.8273
19.7235 -40.2561 -2.3493 0.8356
25.6821 -30.7174 -2.0984 0.8518
28.9211 -27.1624 -2.0794 0.8531
39.0518 -22.0120 -2.3493 0.8356
45.9712 -12.8463 -2.5015 0.8260
47.7084 -1.5134 -2.5015 0.8260
43.9600 9.3270 -2.3551 0.8353
20.6882 7.0737 -1.1458 0.9161
20.7333 10.0115 -1.2066 0.9119
20.7929 13.3346 -1.2945 0.9058
6.9340 5.7303 -0.4714 0.9646
-5.1231 5.7165 -0.6716 0.9696
-5.4342 2.8216 -0.5357 0.9757
-7.8912 2.9570 -0.7372 0.9667
-22.5136 5.4649 -2.0269 0.9112
-27.7498 -6.8918 -2.5015 0.8915
-26.7213 -10.1746 -2.5015 0.8915
-21.4019 -18.9607 -2.5015 0.8915
-15.1851 -21.9584 -2.3357 0.8983
-6.4837 -26.0587 -2.3493 0.8978
-0.0880 -28.5927 -2.5015 0.8915
6.7328 -27.7888 -2.5015 0.8915
20.0702 -18.0026 -2.3588 0.8974
23.4237 -16.3976 -2.5015 0.8915
25.2235 -13.4657 -2.5015 0.8915
28.3545 -3.6838 -2.5015 0.8915
26.6861 2.9902 -2.3493 0.8978
23.4553 5.5408 -2.1085 0.9078
21.0559 7.7425 -1.9628 0.9139
21.1251 10.8042 -2.0759 0.9091
21.2094 14.2977 -2.2378 0.9024
6.8197 5.9038 -0.7892 0.9644
5.1298 5.6534 -0.6679 0.9698
4.0110 5.6603 -0.6069 0.9725
0.0826 5.6845 -0.4974 0.9774
-1.3046 5.6674 -0.5088 0.9769
-2.0348 5.6331 -0.5240 0.9762
-4.8905 5.7150 -0.6581 0.9702
-6.2354 5.7233 -0.7405 0.9666
-7.9946 5.7341 -0.8607 0.9613
-10.3170 5.6606 -1.0296 0.9538
-27.9004 -6.2544 -2.5015 0.8915
-26.9473 -9.5599 -2.5015 0.8915
-25.6041 -12.7271 -2.5015 0.8915
-21.8306 -18.4655 -2.5015 0.8915
-18.2712 -19.6788 -2.3493 0.8978
-13.1841 -18.1610 -1.9634 0.9138
-12.5469 -22.5606 -2.2585 0.9015
-9.7940 -24.0206 -2.2695 0.9011
-3.9166 -26.5660 -2.3493 0.8978
-0.7429 -28.5831 -2.5015 0.8915
12.5802 -25.6766 -2.5015 0.8915
15.5542 -23.9510 -2.4985 0.8917
17.2243 -20.6013 -2.3493 0.8978
19.5739 -18.3836 -2.3493 0.8978
24.9084 -14.0399 -2.5015 0.8915
26.4143 -10.9468 -2.5015 0.8915
27.5378 -7.6952 -2.5015 0.8915
26.2684 5.5733 -2.3493 0.8978
21.0451 7.1957 -1.9459 0.9146
6.9340 5.7303 -0.7870 0.9645
5.3695 5.6520 -0.6821 0.9692
-5.1231 5.7165 -0.9425 0.9695
-6.5316 5.7251 -1.0665 0.9656
-8.3977 5.7366 -1.2487 0.9598
-7.8899 2.9565 -1.0345 0.9666
-18.5939 4.5134 -2.3493 0.9258
-20.2195 -2.5004 -2.5015 0.9212
-19.7728 -4.9107 -2.5015 0.9212
-18.0314 -9.4840 -2.5015 0.9212
-16.7619 -11.5809 -2.5015 0.9212
-15.2497 -13.5102 -2.5015 0.9212
-13.5167 -15.2439 -2.5015 0.9212
-11.5881 -16.7569 -2.5015 0.9212
-9.4706 -17.9873 -2.4960 0.9213
-7.2451 -19.0029 -2.4971 0.9213
-4.9191 -19.7707 -2.5015 0.9212
-2.5091 -20.2184 -2.5015 0.9212
2.3846 -20.2334 -2.5015 0.9212
7.1407 -19.0811 -2.5015 0.9212
11.4848 -16.8279 -2.5015 0.9212
17.9727 -9.5948 -2.5015 0.9212
20.2037 -2.6248 -2.5015 0.9212
19.0149 2.1306 -2.3493 0.9258
18.6214 4.3989 -2.3493 0.9258
5.1298 5.6534 -0.9373 0.9697
4.0110 5.6603 -0.8518 0.9724
3.0591 5.6520 -0.7891 0.9744
2.2369 5.6712 -0.7485 0.9757
1.4814 5.6759 -0.7203 0.9766
0.7711 5.6802 -0.7038 0.9772
-4.8905 5.7150 -0.9236 0.9701
-18.9450 2.6823 -2.3493 0.9258
-20.2714 -2.0366 -2.5015 0.9212
-19.2010 -6.8118 -2.5015 0.9212
-15.5551 -13.1573 -2.5015 0.9212
-13.8624 -14.9303 -2.5015 0.9212
-11.9689 -16.4871 -2.5015 0.9212
-7.6748 -18.8232 -2.4959 0.9213
-5.3707 -19.6528 -2.5015 0.9212
-2.9715 -20.1556 -2.5015 0.9212
-0.5293 -20.3666 -2.5015 0.9212
4.3426 -19.9053 -2.5015 0.9212
8.9639 -18.2955 -2.5015 0.9212
13.0681 -15.6302 -2.5015 0.9212
14.8507 -13.9476 -2.5015 0.9212
17.7482 -10.0040 -2.5015 0.9212
19.6218 -5.4831 -2.5015 0.9212
20.1383 -3.0869 -2.5015 0.9212
20.3632 -0.6459 -2.5015 0.9212
19.0587 1.6946 -2.3493 0.9258
5.3695 5.6520 -0.9572 0.9691
-7.8885 2.9559 -1.3342 0.9665
-14.4146 3.4990 -2.3493 0.9417
-15.6747 -1.9384 -2.5015 0.9380
-5.9827 -3.1467 -1.0707 0.9730
-12.9943 -8.9779 -2.5015 0.9380
-10.4786 -11.8175 -2.5015 0.9380
-3.8135 -15.3268 -2.5015 0.9380
-1.9451 -15.6739 -2.5015 0.9380
1.8486 -15.6856 -2.5015 0.9380
7.2721 -14.0204 -2.5015 0.9380
10.4056 -11.8818 -2.5015 0.9380
11.7573 -10.5461 -2.5015 0.9380
12.9388 -9.0577 -2.5015 0.9380
14.7255 -5.7110 -2.5015 0.9380
15.3048 -3.9012 -2.5015 0.9380
15.6625 -2.0348 -2.5015 0.9380
15.7935 -0.1390 -2.5015 0.9380
14.7409 1.6517 -2.3493 0.9417
14.4359 3.4102 -2.3493 0.9417
13.2062 6.7542 -2.3493 0.9417
12.3098 8.2983 -2.3513 0.9416
6.8197 5.9038 -1.4287 0.9641
5.1298 5.6534 -1.2091 0.9696
4.0110 5.6603 -1.0988 0.9723
2.2369 5.6712 -0.9656 0.9756
1.4814 5.6759 -0.9291 0.9765
0.0826 5.6845 -0.9004 0.9772
-0.6045 5.6887 -0.9061 0.9771
-1.3046 5.6674 -0.9211 0.9767
-2.0348 5.6331 -0.9486 0.9760
-2.8226 5.5977 -0.9929 0.9749
-4.8905 5.7150 -1.1913 0.9700
-6.2354 5.7233 -1.3405 0.9663
-14.6867 2.0794 -2.3493 0.9417
-15.7150 -1.5789 -2.5015 0.9380
-15.4117 -3.4548 -2.5015 0.9380
-13.1965 -8.6779 -2.5015 0.9380
-10.7465 -11.5744 -2.5015 0.9380
-5.9631 -14.6252 -2.5015 0.9380
-2.3036 -15.6252 -2.5015 0.9380
1.4889 -15.7238 -2.5015 0.9380
5.1954 -14.9152 -2.5015 0.9380
13.7590 -7.7554 -2.5015 0.9380
14.5908 -6.0468 -2.5015 0.9380
15.2114 -4.2507 -2.5015 0.9380
15.6118 -2.3930 -2.5015 0.9380
15.7862 -0.5008 -2.5015 0.9380
14.5102 3.0786 -2.3493 0.9417
14.0354 4.7990 -2.3493 0.9417
13.3575 6.4499 -2.3493 0.9417
12.4909 8.0105 -2.3502 0.9417
6.9340 5.7303 -1.4247 0.9642
-5.1231 5.7165 -1.4921 0.9692
-5.4341 2.8216 -1.1902 0.9754
-7.8859 2.9550 -1.6370 0.9663
-11.7453 2.8510 -2.3493 0.9519
-12.5685 1.4867 -2.4601 0.9497
-12.4899 -3.1019 -2.5015 0.9489
-5.8693 -2.2348 -1.2208 0.9747
-10.5880 -7.3154 -2.5015 0.9489
-5.9957 -11.3873 -2.5015 0.9489
-4.5847 -12.0250 -2.5015 0.9489
-3.1073 -12.4886 -2.5015 0.9489
-1.5849 -12.7714 -2.5015 0.9489
1.5063 -12.7809 -2.5015 0.9489
3.0304 -12.5075 -2.5015 0.9489
4.5105 -12.0530 -2.5015 0.9489
5.9255 -11.4240 -2.5015 0.9489
7.2546 -10.6297 -2.5015 0.9489
9.5801 -8.5931 -2.5015 0.9489
11.3528 -6.0608 -2.5015 0.9489
12.7621 -1.6580 -2.5015 0.9489
12.8688 -0.1133 -2.5015 0.9489
12.4660 1.3968 -2.4383 0.9502
11.7626 2.7787 -2.3493 0.9519
11.3437 4.1712 -2.3493 0.9519
10.7607 5.5034 -2.3493 0.9519
10.0218 6.7559 -2.3493 0.9519
4.0110 5.6603 -1.3485 0.9721
3.0591 5.6520 -1.2492 0.9742
2.2369 5.6712 -1.1850 0.9755
0.7711 5.6802 -1.1143 0.9769
-0.6045 5.6887 -1.1120 0.9770
-2.0233 5.6011 -1.1576 0.9760
-2.7991 5.5511 -1.2084 0.9750
-4.5378 5.3029 -1.3567 0.9720
-6.2354 5.7233 -1.6452 0.9661
-7.9946 5.7341 -1.9124 0.9607
-10.5962 5.8138 -2.3493 0.9519
-11.2178 4.4991 -2.3493 0.9519
-11.9670 1.6943 -2.3493 0.9519
-12.8667 0.2607 -2.5015 0.9489
-12.5577 -2.8151 -2.5015 0.9489
-5.4853 -2.7266 -1.1907 0.9753
-8.7565 -9.4310 -2.5015 0.9489
-1.8770 -12.7317 -2.5015 0.9489
-0.3344 -12.8650 -2.5015 0.9489
2.7431 -12.5736 -2.5015 0.9489
4.2333 -12.1531 -2.5015 0.9489
9.3807 -8.8103 -2.5015 0.9489
10.3710 -7.6199 -2.5015 0.9489
11.2110 -6.3192 -2.5015 0.9489
12.8629 -0.4080 -2.5015 0.9489
11.8232 2.5085 -2.3493 0.9519
6.9340 5.7303 -1.7485 0.9640
5.3695 5.6520 -1.5154 0.9687
-5.1231 5.7165 -1.7722 0.9690
-6.5316 5.7251 -2.0052 0.9650
-8.4027 5.7400 -2.3493 0.9591
-7.7902 2.9191 -1.9206 0.9664
-10.5159 -2.6117 -2.5015 0.9565
-5.6792 -2.1625 -1.4030 0.9754
-6.1630 -8.9120 -2.5015 0.9565
-5.0481 -9.5876 -2.5015 0.9565
-2.6162 -10.5148 -2.5015 0.9565
-1.3344 -10.7529 -2.5015 0.9565
-0.0333 -10.8353 -2.5015 0.9565
1.2682 -10.7609 -2.5015 0.9565
3.7977 -10.1481 -2.5015 0.9565
6.1080 -8.9497 -2.5015 0.9565
8.0660 -7.2350 -2.5015 0.9565
8.8765 -6.2140 -2.5015 0.9565
9.5586 -5.1029 -2.5015 0.9565
10.1022 -3.9180 -2.5015 0.9565
10.4997 -2.6763 -2.5015 0.9565
9.0600 4.6336 -2.3493 0.9591
6.8197 5.9038 -2.0825 0.9636
5.1298 5.6534 -1.7624 0.9691
4.0110 5.6603 -1.6016 0.9719
3.0591 5.6520 -1.4837 0.9740
2.2369 5.6712 -1.4075 0.9753
1.4814 5.6759 -1.3543 0.9762
0.7711 5.6802 -1.3234 0.9767
-0.6045 5.6887 -1.3207 0.9768
-1.2898 5.6032 -1.3274 0.9767
-2.0057 5.5524 -1.3629 0.9761
-2.7737 5.5008 -1.4223 0.9750
-4.4428 5.1918 -1.5776 0.9723
-8.2691 5.9310 -2.3493 0.9591
-7.7926 3.1254 -1.9384 0.9661
-10.8332 0.2195 -2.5015 0.9565
-10.5730 -2.3701 -2.5015 0.9565
-5.9919 -2.1257 -1.4678 0.9742
-5.0066 -3.2923 -1.3834 0.9757
-7.3726 -7.9405 -2.5015 0.9565
-6.3655 -8.7685 -2.5015 0.9565
-5.2664 -9.4695 -2.5015 0.9565
-2.8563 -10.4521 -2.5015 0.9565
-1.5804 -10.7195 -2.5015 0.9565
1.0214 -10.7871 -2.5015 0.9565
2.3095 -10.5864 -2.5015 0.9565
6.9501 -8.3128 -2.5015 0.9565
7.8982 -7.4179 -2.5015 0.9565
8.7319 -6.4156 -2.5015 0.9565
9.4392 -5.3205 -2.5015 0.9565
10.7103 -1.6417 -2.5015 0.9565
10.7246 0.9536 -2.4857 0.9568
9.1637 4.4249 -2.3493 0.9591
-4.5084 5.0306 -1.8100 0.9724
-6.5935 5.7794 -2.3493 0.9643
-7.2399 4.9457 -2.3493 0.9643
-5.3973 2.8024 -1.6295 0.9751
-7.7606 2.9080 -2.2206 0.9663
-9.2713 1.0967 -2.5015 0.9621
-9.3359 -0.0247 -2.5015 0.9621
-9.2653 -1.1458 -2.5015 0.9621
-4.8408 -2.5461 -1.4656 0.9776
-4.6748 -3.2299 -1.5225 0.9767
-6.9880 -6.1909 -2.5015 0.9621
-5.3101 -7.6787 -2.5015 0.9621
-2.2541 -9.0597 -2.5015 0.9621
-1.1498 -9.2648 -2.5015 0.9621
1.0927 -9.2717 -2.5015 0.9621
3.2721 -8.7437 -2.5015 0.9621
5.2627 -7.7112 -2.5015 0.9621
6.1508 -7.0233 -2.5015 0.9621
6.9497 -6.2338 -2.5015 0.9621
8.2358 -4.3967 -2.5015 0.9621
8.7042 -3.3758 -2.5015 0.9621
9.0466 -2.3060 -2.5015 0.9621
9.2581 -1.2028 -2.5015 0.9621
6.0049 -0.0529 -1.6091 0.9754
6.6290 5.7387 -2.3493 0.9643
5.1298 5.6534 -2.0455 0.9689
4.0110 5.6603 -1.8589 0.9717
2.2369 5.6712 -1.6335 0.9751
1.4814 5.6759 -1.5718 0.9760
0.7711 5.6802 -1.5360 0.9765
0.0826 5.6845 -1.5233 0.9767
-3.5565 5.3415 -1.7195 0.9738
-6.2334 5.7215 -2.2672 0.9656
-7.1247 5.1102 -2.3493 0.9643
-9.2329 1.3072 -2.4986 0.9621
-9.1098 -2.0421 -2.5015 0.9621
-4.6799 -3.0774 -1.5008 0.9771
-7.1280 -6.0292 -2.5015 0.9621
-4.5376 -8.1590 -2.5015 0.9621
-3.5248 -8.6449 -2.5015 0.9621
1.9899 -9.1214 -2.5015 0.9621
4.1076 -8.3837 -2.5015 0.9621
5.0847 -7.8297 -2.5015 0.9621
6.8051 -6.3913 -2.5015 0.9621
7.5235 -5.5278 -2.5015 0.9621
8.1329 -4.5842 -2.5015 0.9621
8.9914 -2.5126 -2.5015 0.9621
9.2281 -1.4145 -2.5015 0.9621
8.2963 2.8367 -2.3493 0.9643
6.7587 5.5853 -2.3493 0.9643
5.3695 5.6520 -2.0889 0.9682
