ply
format ascii 1.0
element vertex 1548
property float32 x
property float32 y
property float32 z
property float32 I
end_header
1.1856 5.6777 -0.1012 0.9771
0.4858 5.6820 -0.0995 0.9774
-0.8942 5.6905 -0.1005 0.9772
-1.6156 5.6949 -0.1033 0.9766
-4.2165 5.6852 -0.1235 0.9721
-5.3825 5.6777 -0.1366 0.9692
-6.8163 5.6431 -0.1545 0.9652
-11.8798 5.7440 -0.2303 0.9486
-64.7877 5.7589 -1.1353 0.7709
-84.5327 -12.9910 -1.4928 0.7102
-68.5867 -19.2079 -1.2432 0.7521
-66.3783 -27.5670 -1.2546 0.7501
-24.7801 -23.3336 -0.5941 0.8727
-10.0981 -29.1796 -0.5390 0.8838
23.4879 -41.9090 -0.8386 0.8251
22.8729 -31.2786 -0.6764 0.8564
41.9527 -27.3473 -0.8741 0.8184
56.9544 -28.0134 -1.1079 0.7758
20.3805 5.5597 -0.3687 0.9190
30.9211 17.1930 -0.6175 0.8680
23.0380 27.2617 -0.6230 0.8669
2.0060 5.6726 -0.1050 0.9762
1.2656 5.6772 -0.1015 0.9770
0.5630 5.6815 -0.0997 0.9774
-0.8156 5.6900 -0.1003 0.9773
-1.5328 5.6944 -0.1029 0.9767
-4.1027 5.6905 -0.1225 0.9723
-6.6312 5.6423 -0.1520 0.9658
-8.6746 5.7383 -0.1815 0.9592
-16.1834 5.7844 -0.3000 0.9336
-67.8028 -18.0063 -1.2245 0.7553
-65.1247 -26.0228 -1.2241 0.7554
-70.7382 -38.7106 -1.4075 0.7243
-25.8009 -23.6468 -0.6109 0.8693
-18.9731 -22.1472 -0.5090 0.8899
-15.3079 -22.9723 -0.4819 0.8954
-10.3095 -28.5395 -0.5297 0.8857
-9.7053 -91.6453 -1.6086 0.6916
13.0718 -95.7820 -1.6874 0.6793
14.3347 -36.2278 -0.6801 0.8557
22.8674 -32.1726 -0.6890 0.8539
24.7991 -27.2419 -0.6430 0.8630
31.6318 -27.2839 -0.7291 0.8461
76.9378 -28.0862 -1.4296 0.7206
65.3383 0.7641 -1.1406 0.7700
21.4923 5.5529 -0.3875 0.9150
43.2866 16.9592 -0.8115 0.8303
23.7826 16.7836 -0.5081 0.8901
2.9037 5.6607 -0.1110 0.9749
2.0923 5.6721 -0.1055 0.9761
0.6404 5.6810 -0.0998 0.9774
-0.7375 5.6895 -0.1001 0.9773
-1.4507 5.6939 -0.1026 0.9768
-3.9909 5.6958 -0.1214 0.9726
-6.4520 5.6415 -0.1496 0.9663
-73.2692 -50.9708 -1.5579 0.6997
-10.4740 -27.8158 -0.5188 0.8879
-9.3958 -38.4677 -0.6912 0.8535
-9.3718 -78.3892 -1.3780 0.7292
14.2060 -57.3726 -1.0317 0.7894
22.0176 -41.8953 -0.8261 0.8275
22.8617 -33.1005 -0.7022 0.8513
72.7124 -27.6603 -1.3579 0.7325
22.7234 5.5453 -0.4083 0.9107
44.2644 16.6576 -0.8255 0.8276
33.0490 17.2266 -0.6505 0.8615
23.4975 20.6772 -0.5463 0.8823
23.7536 26.6184 -0.6227 0.8670
3.4675 6.5410 -0.1292 0.9708
0.7180 5.6806 -0.0999 0.9774
-0.6595 5.6890 -0.1000 0.9773
-1.3691 5.6934 -0.1022 0.9768
-2.9483 5.7031 -0.1121 0.9746
-3.8810 5.7009 -0.1204 0.9728
-8.1817 5.7353 -0.1744 0.9608
-10.7611 5.7511 -0.2130 0.9524
-22.8456 5.8254 -0.4115 0.9100
-83.6612 10.8609 -1.4726 0.7135
-66.0621 0.5633 -1.1532 0.7677
-49.5924 -11.7487 -0.8896 0.8156
-84.4604 -31.1358 -1.5712 0.6976
-69.5226 -35.6443 -1.3637 0.7316
-30.3513 -26.3475 -0.7015 0.8515
-20.2257 -22.3599 -0.5263 0.8864
-16.1060 -22.8124 -0.4874 0.8943
-13.1099 -24.3329 -0.4825 0.8953
-10.6626 -27.1990 -0.5099 0.8897
-9.4264 -36.4541 -0.6572 0.8602
-9.7349 -73.0585 -1.2865 0.7446
19.4967 -83.5520 -1.4976 0.7095
18.1038 -49.6239 -0.9220 0.8095
21.2984 -41.8886 -0.8202 0.8286
23.4807 -27.2338 -0.6277 0.8660
29.9478 -27.2735 -0.7070 0.8504
38.4282 -27.3257 -0.8231 0.8281
39.2940 -21.3416 -0.7805 0.8362
46.1107 16.6462 -0.8557 0.8219
25.1852 16.7750 -0.5282 0.8860
24.0315 26.2099 -0.6207 0.8674
1.5085 5.6757 -0.1025 0.9768
0.1060 5.6843 -0.0992 0.9775
-0.5819 5.6886 -0.0998 0.9774
-3.7729 5.7060 -0.1194 0.9730
-6.1246 5.6537 -0.1455 0.9672
-7.9496 5.7338 -0.1711 0.9615
-14.0937 5.6901 -0.2653 0.9410
-35.7598 5.1334 -0.6306 0.8654
-84.4211 -29.8348 -1.5629 0.6989
-68.8223 -34.1215 -1.3408 0.7354
-72.7703 -47.7649 -1.5194 0.7059
-16.4327 -22.6217 -0.4880 0.8942
-13.3848 -24.0607 -0.4806 0.8957
-9.3231 -34.1486 -0.6179 0.8680
-9.4738 -64.4495 -1.1371 0.7706
19.9646 -91.0897 -1.6277 0.6886
22.8974 -27.2925 -0.6218 0.8672
29.1435 -27.2686 -0.6967 0.8524
38.1492 -21.3908 -0.7634 0.8395
49.2616 10.6230 -0.8796 0.8174
35.3137 17.2127 -0.6857 0.8546
25.9290 16.7704 -0.5390 0.8838
23.4906 19.5732 -0.5337 0.8849
24.0272 25.5063 -0.6116 0.8692
3.5954 6.3617 -0.1276 0.9712
2.3563 5.6705 -0.1072 0.9757
0.1815 5.6480 -0.0986 0.9776
-1.9488 5.6970 -0.1051 0.9762
-2.7555 5.7019 -0.1105 0.9750
-20.2489 31.5397 -0.6542 0.8608
-4.6955 5.6740 -0.1286 0.9710
-5.9692 5.6612 -0.1436 0.9676
-7.6835 5.7010 -0.1670 0.9624
-13.6189 5.7131 -0.2578 0.9426
-66.0512 2.3452 -1.1536 0.7677
-84.4453 -28.5691 -1.5561 0.7000
-72.4678 -46.1810 -1.4999 0.7091
-21.5802 -22.6016 -0.5455 0.8825
-13.8075 -24.0515 -0.4841 0.8950
-9.4182 -58.5725 -1.0355 0.7887
19.8897 -41.8755 -0.8092 0.8307
22.8432 -36.1138 -0.7459 0.8429
22.8927 -28.0464 -0.6319 0.8652
40.5872 -23.4826 -0.8185 0.8290
85.7261 6.7295 -1.5009 0.7089
26.7044 16.7657 -0.5504 0.8815
23.4873 19.0399 -0.5278 0.8861
5.2972 6.9904 -0.1531 0.9655
3.6581 6.2738 -0.1268 0.9714
1.6733 5.6747 -0.1033 0.9766
2.4933 54.6385 -0.9547 0.8035
-0.4272 5.6876 -0.0996 0.9774
-1.1274 5.6919 -0.1013 0.9771
-4.5675 5.6733 -0.1271 0.9713
-5.8178 5.6685 -0.1418 0.9680
-13.1308 5.7178 -0.2500 0.9443
-19.3151 5.7663 -0.3518 0.9225
-34.4458 5.8967 -0.6100 0.8695
-66.0457 3.2367 -1.1542 0.7676
-84.3806 -27.2850 -1.5479 0.7013
-67.9845 -31.4523 -1.3075 0.7411
-69.8586 -55.8543 -1.5612 0.6992
-11.1987 -25.4827 -0.4859 0.8946
18.6216 -97.4549 -1.7318 0.6724
27.6026 -27.2591 -0.6771 0.8562
35.2690 -27.2916 -0.7784 0.8366
39.8044 -23.7517 -0.8091 0.8307
85.7190 5.5677 -1.4994 0.7092
57.6630 10.8169 -1.0241 0.7908
17.4879 5.5249 -0.3201 0.9293
37.8390 17.1971 -0.7255 0.8468
27.5133 16.7607 -0.5623 0.8791
23.4841 18.5183 -0.5220 0.8872
1.7566 5.6742 -0.1037 0.9765
1.0313 5.6786 -0.1007 0.9772
0.3350 5.6642 -0.0990 0.9776
-0.3501 5.6871 -0.0995 0.9775
16.4473 5.4549 -0.9081 0.9329
17.6332 8.3189 -1.0218 0.9249
17.6869 11.1229 -1.0950 0.9197
17.8496 14.4920 -1.2050 0.9120
23.5200 24.3398 -1.7738 0.8732
1.6686 5.6747 -0.3100 0.9766
-1.1319 5.6919 -0.3041 0.9770
-1.8680 5.6965 -0.3142 0.9763
-3.5467 5.6821 -0.3510 0.9735
-5.8077 5.6500 -0.4246 0.9681
-7.3526 5.6019 -0.4844 0.9637
-9.7942 5.7452 -0.5951 0.9555
-44.7081 -3.2406 -2.3492 0.8356
-45.4032 -14.7193 -2.5014 0.8260
-43.3031 -20.0735 -2.5014 0.8260
-40.5743 -25.1363 -2.5014 0.8260
-14.0188 -23.7154 -1.4438 0.8955
-7.2150 -41.4949 -2.2073 0.8448
8.9935 -46.8746 -2.5014 0.8260
13.6799 -42.6869 -2.3492 0.8356
18.7150 -40.7316 -2.3492 0.8356
20.5911 -33.4892 -2.0603 0.8543
22.8770 -28.7668 -1.9262 0.8631
27.6930 -27.3071 -2.0382 0.8557
45.6525 -13.9270 -2.5014 0.8260
17.3294 5.4892 -0.9527 0.9298
17.6355 8.0311 -1.0156 0.9253
17.6793 10.7883 -1.0854 0.9204
23.5566 30.2785 -2.0105 0.8576
-0.3545 5.6871 -0.2986 0.9774
-1.0522 5.6914 -0.3033 0.9771
-1.7831 5.6959 -0.3128 0.9764
-3.4557 5.7062 -0.3496 0.9736
-4.4503 5.6742 -0.3779 0.9715
-7.1504 5.6018 -0.4760 0.9643
-9.4954 5.7433 -0.5816 0.9565
-12.6639 5.7072 -0.7280 0.9459
-18.5601 5.7991 -1.0191 0.9251
-30.2105 5.5682 -1.6099 0.8842
-44.7477 -2.6377 -2.3492 0.8356
-44.1056 -8.0007 -2.3492 0.8356
-45.5975 -14.1059 -2.5014 0.8260
-43.5698 -19.4879 -2.5014 0.8260
-40.9095 -24.5870 -2.5014 0.8260
-22.8504 -22.7095 -1.6884 0.8789
-17.3603 -22.0065 -1.4690 0.8938
-8.2735 -44.0552 -2.3492 0.8356
-3.1033 -47.6285 -2.5014 0.8260
2.6479 -47.6560 -2.5014 0.8260
8.3608 -46.9915 -2.5014 0.8260
13.1033 -42.8675 -2.3492 0.8356
22.7261 -38.1034 -2.3251 0.8372
37.5902 -23.0840 -2.3118 0.8380
45.4606 -14.5411 -2.5014 0.8260
47.6178 -3.2638 -2.5014 0.8260
38.8980 6.7856 -2.0693 0.8537
18.3330 5.5364 -1.0036 0.9262
17.6376 7.7467 -1.0096 0.9257
17.6720 10.4596 -1.0762 0.9210
23.5121 23.0541 -1.7257 0.8764
0.4087 5.6825 -0.2986 0.9774
-0.2775 5.6867 -0.2984 0.9775
-9.2098 5.7416 -0.5688 0.9575
-17.7013 5.7938 -0.9761 0.9281
-44.7885 -2.0347 -2.3497 0.8356
-44.2094 -7.4055 -2.3492 0.8356
-45.7835 -13.4900 -2.5014 0.8260
-43.8286 -18.8988 -2.5014 0.8260
-23.5559 -22.7877 -1.7176 0.8770
-11.7041 -24.8444 -1.4393 0.8958
-8.8667 -43.9397 -2.3492 0.8356
-3.7450 -47.5824 -2.5014 0.8260
7.7266 -47.1000 -2.5014 0.8260
12.6904 -43.6113 -2.3804 0.8337
22.4403 -38.8040 -2.3492 0.8356
22.9822 -30.5550 -2.0037 0.8580
24.2261 -25.2123 -1.8324 0.8693
33.2964 -27.1893 -2.2529 0.8418
31.7343 -15.0808 -1.8414 0.8687
46.7544 -9.5987 -2.5014 0.8260
47.5695 -3.9055 -2.5014 0.8260
17.6649 10.1363 -1.0674 0.9217
23.5083 22.4369 -1.7031 0.8779
2.7171 5.6683 -0.3294 0.9751
0.4858 5.6820 -0.2989 0.9774
-1.6156 5.6949 -0.3102 0.9766
-5.3652 5.6595 -0.4087 0.9692
-8.9365 5.7399 -0.5566 0.9583
-44.8461 -1.4318 -2.3515 0.8355
-45.9612 -12.8715 -2.5014 0.8260
-41.5574 -23.4753 -2.5014 0.8260
-24.7886 -23.3416 -1.7844 0.8725
-18.3213 -21.9792 -1.4996 0.8917
-12.0072 -24.6213 -1.4356 0.8961
-10.0095 -28.9236 -1.6040 0.8846
1.3622 -47.7101 -2.5014 0.8260
12.6510 -45.7672 -2.4885 0.8268
32.3883 -27.1837 -2.2160 0.8442
30.7729 -15.1358 -1.7973 0.8717
45.0521 -15.7613 -2.5014 0.8260
46.6207 -10.2281 -2.5014 0.8260
47.5125 -4.5463 -2.5014 0.8260
47.6987 1.2010 -2.5006 0.8260
19.0853 2.8015 -1.0109 0.9256
17.6415 7.1876 -0.9983 0.9265
23.0380 27.2617 -1.8706 0.8668
1.2656 5.6772 -0.3048 0.9770
-0.1240 5.6857 -0.2980 0.9775
-0.8156 5.6900 -0.3012 0.9772
-1.5328 5.6944 -0.3091 0.9767
-6.5942 5.6108 -0.4538 0.9659
-8.6746 5.7383 -0.5451 0.9592
-16.1834 5.7844 -0.9007 0.9335
-44.9606 4.6082 -2.3686 0.8344
-33.1512 -0.6112 -1.7377 0.8756
-44.3930 -6.2110 -2.3492 0.8356
-46.1305 -12.2508 -2.5014 0.8260
-44.3221 -17.7104 -2.5014 0.8260
-41.8701 -22.9129 -2.5014 0.8260
-38.8102 -27.7826 -2.5014 0.8260
-18.9081 -22.0713 -1.5231 0.8901
-12.3083 -24.3984 -1.4322 0.8963
-10.2282 -28.3144 -1.5777 0.8864
-6.6030 -28.7073 -1.5438 0.8887
-5.0265 -47.4641 -2.5014 0.8260
0.7190 -47.7241 -2.5014 0.8260
6.4540 -47.2911 -2.5014 0.8260
31.5094 -27.1783 -2.1808 0.8465
37.2182 -24.9824 -2.3492 0.8356
29.9636 -15.2428 -1.7618 0.8740
47.7263 0.5582 -2.5014 0.8260
21.4923 5.5529 -1.1634 0.9149
23.2629 26.7870 -1.8593 0.8675
3.9578 5.8535 -0.3703 0.9721
2.0923 5.6721 -0.3168 0.9761
-1.4507 5.6939 -0.3079 0.9767
-2.2105 5.6986 -0.3203 0.9758
-3.9909 5.6958 -0.3645 0.9725
-5.0817 5.6584 -0.3986 0.9700
-6.4265 5.6192 -0.4474 0.9664
-11.1235 5.7533 -0.6563 0.9511
-23.8687 5.7448 -1.2866 0.9063
-36.4075 4.2283 -1.9209 0.8635
-32.8896 -0.1629 -1.7237 0.8766
-44.4727 -5.6118 -2.3492 0.8356
-46.2592 -11.6196 -2.4997 0.8261
-39.1812 -27.2570 -2.5014 0.8260
-19.5087 -22.1606 -1.5473 0.8885
-15.6427 -22.8026 -1.4492 0.8952
-7.0034 -28.6729 -1.5469 0.8885
0.0757 -47.7295 -2.5014 0.8260
5.8160 -47.3738 -2.5014 0.8260
15.9291 -41.8996 -2.3492 0.8356
24.1261 -27.2312 -1.9067 0.8644
26.1247 -18.0516 -1.6642 0.8806
29.7805 -15.6585 -1.7633 0.8739
47.3727 -5.8254 -2.5014 0.8260
22.7234 5.5453 -1.2258 0.9106
18.2360 9.5054 -1.0777 0.9209
17.7107 12.1443 -1.1254 0.9176
23.1958 20.4117 -1.6193 0.8836
4.0166 5.7712 -0.3685 0.9722
3.4675 6.5410 -0.3880 0.9708
2.1794 5.6716 -0.3184 0.9760
-0.6595 5.6890 -0.3001 0.9773
-2.1224 5.6980 -0.3187 0.9759
-2.9483 5.7031 -0.3365 0.9746
-3.8810 5.7009 -0.3614 0.9728
-4.9450 5.6579 -0.3938 0.9704
-6.2634 5.6273 -0.4413 0.9668
-8.1817 5.7353 -0.5236 0.9608
-22.8457 5.8254 -1.2356 0.9099
-33.8634 4.3961 -1.7896 0.8722
-44.7834 -16.5091 -2.5014 0.8260
-42.4726 -21.7757 -2.5014 0.8260
-39.5451 -26.7262 -2.5014 0.8260
-29.5390 -25.6424 -2.0500 0.8550
-20.0704 -22.1882 -1.5680 0.8871
-15.9619 -22.6083 -1.4504 0.8951
-9.1084 -35.2243 -1.9068 0.8644
-6.2626 -46.9997 -2.4849 0.8270
-0.5678 -47.7261 -2.5014 0.8260
10.8462 -46.4808 -2.5014 0.8260
20.3162 -39.9570 -2.3492 0.8356
29.8319 -27.1680 -2.1146 0.8508
38.1811 -15.1165 -2.1521 0.8483
46.1691 -12.1046 -2.5014 0.8260
47.2898 -6.4636 -2.5014 0.8260
47.7240 -0.7287 -2.5014 0.8260
43.8448 10.0754 -2.3577 0.8351
20.2356 7.3052 -1.1275 0.9174
23.5282 25.6609 -1.8246 0.8698
3.5318 6.4508 -0.3854 0.9710
2.2674 5.6710 -0.3201 0.9758
0.1060 5.6843 -0.2980 0.9775
-3.7729 5.7060 -0.3585 0.9730
-6.1047 5.6352 -0.4354 0.9673
-7.9496 5.7338 -0.5137 0.9615
-14.0157 5.6586 -0.7921 0.9413
-33.6758 4.8343 -1.7830 0.8726
-44.6078 -4.4110 -2.3492 0.8356
-39.9018 -26.1907 -2.5014 0.8260
-34.2434 -28.9258 -2.3492 0.8356
-20.8113 -22.3931 -1.6021 0.8848
-13.2955 -23.9002 -1.4333 0.8962
-10.7408 -26.3476 -1.4911 0.8923
-1.2112 -47.7141 -2.5014 0.8260
4.5366 -47.5134 -2.5014 0.8260
10.2186 -46.6228 -2.5014 0.8260
14.7936 -42.3138 -2.3492 0.8356
19.7757 -40.2273 -2.3492 0.8356
27.3275 -25.5694 -1.9613 0.8608
38.1293 -21.3797 -2.2910 0.8394
46.0017 -12.7260 -2.5014 0.8260
47.1984 -7.1005 -2.5014 0.8260
47.7098 -1.3720 -2.5014 0.8260
43.9350 9.4744 -2.3555 0.8352
15.6744 5.4208 -0.8692 0.9357
23.5239 24.9721 -1.7980 0.8716
2.3563 5.6705 -0.3218 0.9757
1.5906 5.6752 -0.3089 0.9767
0.8740 5.6796 -0.3012 0.9772
-0.5044 5.6881 -0.2993 0.9774
-1.2075 5.6924 -0.3050 0.9770
-1.9488 5.6970 -0.3155 0.9762
-2.7555 5.7019 -0.3319 0.9750
-7.6835 5.7010 -0.5014 0.9624
-10.0893 5.7470 -0.6085 0.9546
-13.5456 5.6824 -0.7698 0.9429
-20.4667 5.8108 -1.1150 0.9183
-45.0084 1.5981 -2.3603 0.8349
-44.6632 -3.8092 -2.3492 0.8356
-43.8808 -9.1536 -2.3492 0.8356
-40.2512 -25.6505 -2.5014 0.8260
-34.6301 -28.4617 -2.3492 0.8356
-21.6253 -22.6488 -1.6411 0.8821
-13.6715 -23.8146 -1.4391 0.8958
-9.4799 -32.9670 -1.7977 0.8716
13.6669 -40.8501 -2.2575 0.8415
22.7393 -35.9496 -2.2293 0.8433
38.1822 -22.0912 -2.3118 0.8380
36.3918 -15.5557 -2.0741 0.8534
47.0984 -7.7362 -2.5014 0.8260
47.6870 -2.0151 -2.5014 0.8260
44.0169 8.8730 -2.3532 0.8354
17.6864 11.1040 -1.0944 0.9198
5.2972 6.9904 -0.4597 0.9655
1.6733 5.6747 -0.3101 0.9766
0.9525 5.6791 -0.3018 0.9772
1.5105 33.1001 -1.7365 0.8757
-0.4272 5.6876 -0.2989 0.9774
-1.1274 5.6919 -0.3041 0.9770
-1.8632 5.6964 -0.3141 0.9763
-2.6610 5.7013 -0.3297 0.9751
-4.5638 5.6689 -0.3814 0.9713
-9.7771 5.7451 -0.5943 0.9556
-13.0635 5.6884 -0.7467 0.9445
-31.0557 5.3163 -1.6512 0.8814
-45.0155 2.2061 -2.3620 0.8348
-44.7105 -3.2069 -2.3492 0.8356
-43.3183 -20.0408 -2.5014 0.8260
-2.4969 -47.6642 -2.5014 0.8260
18.6841 -40.7458 -2.3492 0.8356
20.5393 -33.4617 -2.0577 0.8545
27.6723 -27.3280 -2.0382 0.8557
37.8809 -22.6039 -2.3118 0.8380
33.9870 -15.0728 -1.9485 0.8616
45.6419 -13.9616 -2.5014 0.8260
46.9897 -8.3701 -2.5014 0.8260
44.7311 2.9054 -2.3492 0.8356
37.8220 7.0950 -2.0167 0.8572
17.3830 5.4918 -0.9554 0.9296
17.8406 14.0681 -1.1907 0.9130
23.5158 23.6521 -1.7479 0.8749
3.7201 6.1868 -0.3783 0.9715
2.5372 5.6694 -0.3255 0.9754
0.3350 5.6642 -0.2974 0.9775
19.0098 19.6724 -2.3934 0.8960
2.4412 5.6700 -0.5401 0.9755
1.6686 5.6747 -0.5175 0.9765
0.9481 5.6792 -0.5037 0.9771
0.6743 15.0276 -1.3161 0.9414
-1.1319 5.6919 -0.5077 0.9770
-1.8680 5.6965 -0.5245 0.9762
-2.6663 5.7014 -0.5507 0.9750
-4.5707 5.6686 -0.6371 0.9712
-7.2959 5.5587 -0.8025 0.9638
-19.4880 5.8018 -1.7789 0.9216
-28.5163 -2.0670 -2.5014 0.8915
-27.1976 -8.8172 -2.5014 0.8915
-25.9396 -12.0245 -2.5014 0.8915
-24.3049 -15.0572 -2.5014 0.8915
-22.3174 -17.8713 -2.5014 0.8915
-18.7886 -19.1830 -2.3492 0.8978
-16.3449 -21.3036 -2.3492 0.8978
-10.7844 -24.5906 -2.3492 0.8978
-1.4742 -28.5530 -2.5014 0.8915
1.9709 -28.5231 -2.5014 0.8915
5.3873 -28.0789 -2.5014 0.8915
11.9370 -25.9799 -2.5014 0.8915
15.5570 -19.5622 -2.1867 0.9045
19.1196 -18.8531 -2.3492 0.8978
22.3927 -17.3006 -2.4757 0.8926
24.5633 -14.6320 -2.5014 0.8915
26.1449 -11.5712 -2.5014 0.8915
28.1518 -4.9927 -2.5014 0.8915
28.5479 -1.5704 -2.5014 0.8915
26.7937 1.7607 -2.3492 0.8978
26.3874 4.9706 -2.3492 0.8978
18.1187 11.0564 -1.8570 0.9183
18.2166 14.3869 -2.0308 0.9110
2.5321 5.6694 -0.5432 0.9754
1.7519 5.6742 -0.5196 0.9764
1.0269 5.6787 -0.5049 0.9771
-0.3545 5.6871 -0.4985 0.9774
-1.0522 5.6914 -0.5064 0.9770
-2.5729 5.7008 -0.5472 0.9752
-3.4557 5.7062 -0.5836 0.9736
-4.4503 5.6742 -0.6309 0.9715
-5.6427 5.6396 -0.6980 0.9685
-12.5755 5.6674 -1.2068 0.9461
-18.5601 5.7991 -1.7012 0.9249
-26.4067 4.8671 -2.3492 0.8978
-26.8004 1.6556 -2.3492 0.8978
-27.3139 -8.4498 -2.5014 0.8915
-26.0993 -11.6737 -2.5014 0.8915
-24.5057 -14.7282 -2.5014 0.8915
-5.2771 -28.0999 -2.5014 0.8915
-1.8589 -28.5306 -2.5014 0.8915
5.0083 -28.1490 -2.5014 0.8915
8.3577 -27.3423 -2.5014 0.8915
11.5857 -26.1385 -2.5014 0.8915
13.7544 -23.0611 -2.3492 0.8978
28.5242 -1.9551 -2.5014 0.8915
28.4876 1.4866 -2.4957 0.8918
26.4520 4.6144 -2.3492 0.8978
18.1095 10.7185 -1.8411 0.9190
3.7779 6.1058 -0.6282 0.9716
1.8359 5.6737 -0.5217 0.9763
-0.2775 5.6867 -0.4981 0.9774
-0.9730 5.6910 -0.5051 0.9771
-6.9203 5.5737 -0.7774 0.9650
-9.2098 5.7416 -0.9495 0.9574
-26.3386 5.2226 -2.3492 0.8978
-26.7756 2.0167 -2.3492 0.8978
-11.8083 -3.4793 -1.0770 0.9518
-24.7020 -14.3965 -2.5014 0.8915
-22.7911 -17.2631 -2.5014 0.8915
-16.9133 -20.8553 -2.3492 0.8978
-5.6549 -28.0236 -2.5012 0.8916
1.1983 -28.4950 -2.4952 0.8918
11.2323 -26.2923 -2.5014 0.8915
13.4423 -23.2445 -2.3492 0.8978
21.2049 -17.3155 -2.3951 0.8959
24.1599 -15.2888 -2.5014 0.8915
25.8235 -12.2719 -2.5014 0.8915
27.1120 -9.0768 -2.5014 0.8915
28.0070 -5.7499 -2.5014 0.8915
28.5697 1.1050 -2.5014 0.8915
26.5118 4.2575 -2.3492 0.8978
19.3708 5.5659 -1.7633 0.9223
18.0337 7.6323 -1.7132 0.9244
18.1007 10.3864 -1.8258 0.9196
18.1919 13.5874 -1.9865 0.9129
3.8385 6.0208 -0.6247 0.9717
2.7171 5.6683 -0.5499 0.9751
1.9206 5.6732 -0.5240 0.9762
1.1856 5.6777 -0.5074 0.9770
0.4858 5.6820 -0.4989 0.9774
-0.8942 5.6905 -0.5040 0.9771
-2.3896 5.6997 -0.5407 0.9755
-5.3479 5.6412 -0.6801 0.9693
-8.9365 5.7399 -0.9292 0.9582
-8.3414 2.8553 -0.7714 0.9652
-28.2073 -0.9005 -2.4691 0.8929
-28.2593 -4.3429 -2.5014 0.8915
-26.4046 -10.9659 -2.5014 0.8915
-24.8939 -14.0622 -2.5014 0.8915
-23.0217 -16.9543 -2.5014 0.8915
-19.5488 -18.4077 -2.3492 0.8978
-17.1928 -20.6254 -2.3492 0.8978
-14.5872 -22.5436 -2.3492 0.8978
7.6175 -27.5576 -2.5014 0.8915
13.1277 -23.4235 -2.3492 0.8978
15.8498 -21.6745 -2.3492 0.8978
18.3417 -19.6108 -2.3492 0.8978
20.6391 -17.3225 -2.3574 0.8975
23.9516 -15.6131 -2.5014 0.8915
25.6557 -12.6189 -2.5014 0.8915
26.9872 -9.4414 -2.5014 0.8915
27.9269 -6.1269 -2.5014 0.8915
28.5820 0.7197 -2.5014 0.8915
19.0253 2.7927 -1.6823 0.9257
20.0087 18.5879 -2.3893 0.8961
3.8985 5.9367 -0.6214 0.9719
2.8114 5.6677 -0.5535 0.9749
1.2656 5.6772 -0.5089 0.9769
-1.5328 5.6944 -0.5159 0.9766
-3.1466 5.7043 -0.5700 0.9742
-4.1027 5.6905 -0.6138 0.9722
-5.2050 5.6409 -0.6715 0.9697
-6.5718 5.5917 -0.7549 0.9659
-8.6746 5.7383 -0.9100 0.9591
-11.4302 5.7180 -1.1182 0.9500
-26.1883 5.9307 -2.3492 0.8978
-26.7115 2.7378 -2.3492 0.8978
-28.3153 -3.9616 -2.5014 0.8915
-11.7312 -3.1154 -1.0619 0.9524
-26.5500 -10.6089 -2.5014 0.8915
-25.0812 -13.7253 -2.5014 0.8915
-23.2482 -16.6424 -2.5014 0.8915
-19.8741 -18.2148 -2.3586 0.8974
-12.0941 -23.9736 -2.3492 0.8978
-6.1104 -26.5654 -2.3849 0.8963
0.4307 -28.5878 -2.5014 0.8915
3.8661 -28.3285 -2.5014 0.8915
7.2453 -27.6578 -2.5014 0.8915
26.8575 -9.8044 -2.5014 0.8915
27.8418 -6.5028 -2.5014 0.8915
28.4218 -3.1068 -2.5014 0.8915
28.5891 0.3343 -2.5014 0.8915
21.4924 5.5529 -1.9421 0.9147
18.0839 9.7383 -1.7970 0.9208
18.4378 13.0118 -1.9743 0.9134
20.2486 18.3085 -2.3883 0.8962
17.9658 20.6874 -2.3972 0.8958
2.9037 5.6607 -0.5566 0.9748
2.0923 5.6721 -0.5289 0.9760
1.3461 5.6767 -0.5104 0.9768
-2.2105 5.6986 -0.5348 0.9758
-3.0468 5.7037 -0.5657 0.9744
-3.9909 5.6958 -0.6085 0.9725
-8.4232 5.7367 -0.8916 0.9599
-14.7715 5.5055 -1.3792 0.9387
-11.7403 -2.9490 -1.0590 0.9526
-25.2639 -13.3860 -2.5014 0.8915
-23.4704 -16.3276 -2.5014 0.8915
-6.3712 -26.0846 -2.3492 0.8978
-3.3940 -28.3889 -2.5014 0.8915
0.0453 -28.5910 -2.5014 0.8915
10.1601 -26.7250 -2.5014 0.8915
15.2597 -22.0939 -2.3492 0.8978
20.0944 -17.8104 -2.3492 0.8978
25.3062 -13.3060 -2.5014 0.8915
27.7516 -6.8776 -2.5014 0.8915
28.5910 -0.0511 -2.5014 0.8915
26.6622 3.1821 -2.3492 0.8978
22.7234 5.5453 -2.0464 0.9104
18.0154 6.7796 -1.6841 0.9256
18.3879 9.5846 -1.8142 0.9201
18.9709 13.0085 -2.0125 0.9118
20.4846 18.0259 -2.3873 0.8962
18.2359 20.4353 -2.3962 0.8959
4.0166 5.7712 -0.6152 0.9722
2.1794 5.6716 -0.5316 0.9759
1.4270 5.6762 -0.5121 0.9768
0.0293 5.6848 -0.4974 0.9774
-0.6595 5.6890 -0.5011 0.9773
-1.3691 5.6934 -0.5123 0.9768
-2.9483 5.7031 -0.5617 0.9746
-4.9392 5.6512 -0.6566 0.9703
-10.7611 5.7511 -1.0675 0.9522
-22.8456 5.8254 -2.0627 0.9097
-28.4118 -3.1968 -2.5014 0.8915
-11.7631 -2.7867 -1.0576 0.9526
-23.6884 -16.0096 -2.5014 0.8915
-21.4291 -18.6023 -2.4827 0.8923
-15.4868 -21.9353 -2.3492 0.8978
-12.7360 -23.6388 -2.3492 0.8978
-9.8002 -24.9991 -2.3492 0.8978
-6.7222 -25.9964 -2.3492 0.8978
-3.7763 -28.3406 -2.5014 0.8915
-0.3401 -28.5890 -2.5014 0.8915
6.4971 -27.8431 -2.5014 0.8915
12.8369 -25.2469 -2.4779 0.8925
19.8525 -18.0798 -2.3492 0.8978
25.1245 -13.6458 -2.5014 0.8915
27.6564 -7.2510 -2.5014 0.8915
28.5878 -0.4365 -2.5014 0.8915
18.1476 12.0875 -1.9077 0.9162
20.7165 17.7401 -2.3862 0.8963
18.5024 20.1796 -2.3953 0.8959
3.5318 6.4508 -0.6434 0.9709
1.5085 5.6757 -0.5138 0.9767
0.7959 5.6801 -0.5018 0.9772
0.1060 5.6843 -0.4974 0.9774
-2.0351 5.6975 -0.5293 0.9760
-2.8512 5.7025 -0.5578 0.9747
-4.8115 5.6572 -0.6497 0.9706
-7.9496 5.7338 -0.8575 0.9614
-13.8280 5.5828 -1.3047 0.9419
-11.7876 -2.6252 -1.0566 0.9527
-26.9572 -9.5268 -2.5014 0.8915
-25.6156 -12.7000 -2.5014 0.8915
-21.8157 -18.4281 -2.4984 0.8917
-18.2795 -19.6687 -2.3492 0.8978
-7.0720 -25.9034 -2.3492 0.8978
-4.1581 -28.2871 -2.5014 0.8915
-0.7255 -28.5819 -2.5014 0.8915
2.7175 -28.4616 -2.5014 0.8915
9.4359 -26.9891 -2.5014 0.8915
23.0706 -16.8779 -2.5009 0.8916
27.5561 -7.6231 -2.5014 0.8915
28.5793 -0.8219 -2.5014 0.8915
18.1678 6.2832 -1.6819 0.9257
18.1374 11.7310 -1.8898 0.9169
18.2423 15.2001 -2.0774 0.9091
18.7652 19.9204 -2.3943 0.8959
2.3563 5.6705 -0.5372 0.9756
1.5906 5.6752 -0.5156 0.9766
0.1815 5.6480 -0.4944 0.9776
-1.9488 5.6970 -0.5268 0.9761
-2.7555 5.7019 -0.5541 0.9749
-14.8621 23.1493 -2.4068 0.8954
-10.0893 5.7470 -1.0159 0.9544
-26.8345 0.9528 -2.3492 0.8978
-11.8695 -2.4760 -1.0608 0.9525
-27.0831 -9.1626 -2.5014 0.8915
-25.7845 -12.3536 -2.5014 0.8915
-16.0725 -21.5099 -2.3492 0.8978
-13.3686 -23.2869 -2.3492 0.8978
-1.1108 -28.5695 -2.5014 0.8915
2.3336 -28.4957 -2.5014 0.8915
5.7441 -28.0081 -2.5014 0.8915
12.2666 -25.8259 -2.5014 0.8915
14.3539 -22.6928 -2.3492 0.8978
19.3579 -18.6083 -2.3492 0.8978
22.7981 -17.1551 -2.4962 0.8918
24.7475 -14.3182 -2.5014 0.8915
27.4508 -7.9940 -2.5014 0.8915
28.2130 -4.6342 -2.5014 0.8915
28.5656 -1.2071 -2.5014 0.8915
26.3220 5.3060 -2.3492 0.8978
18.2288 14.7771 -2.0530 0.9101
5.2972 6.9904 -0.7673 0.9654
1.6733 5.6747 -0.5176 0.9765
0.9525 5.6791 -0.5038 0.9771
0.6858 15.0287 -1.3162 0.9414
-1.8632 5.6964 -0.5244 0.9762
-2.6610 5.7013 -0.5505 0.9751
-3.5430 5.6858 -0.5861 0.9735
-9.7771 5.7451 -0.9921 0.9555
-26.4664 4.5307 -2.3492 0.8978
-11.9623 -2.3276 -1.0662 0.9522
-13.6813 -23.1045 -2.3492 0.8978
-10.8030 -24.5824 -2.3492 0.8978
-7.7678 -25.7033 -2.3492 0.8978
-1.4957 -28.5519 -2.5014 0.8915
1.9493 -28.5246 -2.5014 0.8915
5.3661 -28.0830 -2.5014 0.8915
8.7049 -27.2337 -2.5014 0.8915
14.0467 -22.8842 -2.3492 0.8978
19.1053 -18.8676 -2.3492 0.8978
22.3582 -17.3010 -2.4733 0.8927
28.1480 -5.0140 -2.5014 0.8915
26.3911 4.9507 -2.3492 0.8978
16.9035 5.3403 -1.5509 0.9313
12.3814 5.6271 -1.1899 0.9469
19.2795 19.3913 -2.3923 0.8960
16.8661 21.6450 -2.4007 0.8957
3.7201 6.1868 -0.6316 0.9714
1.0313 5.6786 -0.5049 0.9771
0.3350 5.6642 -0.4964 0.9775
-0.3501 5.6871 -0.4985 0.9774
20.2186 1.6026 -2.4903 0.9215
18.7526 3.7949 -2.3492 0.9258
17.3141 8.1683 -2.3506 0.9257
8.9881 5.6524 -1.3037 0.9581
14.9559 12.1427 -2.3654 0.9253
13.4237 13.8915 -2.3719 0.9251
1.6686 5.6747 -0.7263 0.9764
0.9481 5.6792 -0.7070 0.9771
0.6713 14.9603 -1.8387 0.9414
-1.1319 5.6919 -0.7126 0.9769
-1.8680 5.6965 -0.7361 0.9761
-2.6663 5.7014 -0.7728 0.9750
-9.7942 5.7452 -1.3942 0.9553
-12.7592 5.5444 -1.7082 0.9455
-18.8608 3.2140 -2.3492 0.9258
-11.0253 -2.1539 -1.3793 0.9557
-10.7343 -3.4800 -1.3855 0.9555
-18.4830 -8.5679 -2.5014 0.9212
-15.9020 -12.7340 -2.5014 0.9212
-14.2550 -14.5542 -2.5014 0.9212
-12.4009 -16.1631 -2.5014 0.9212
-1.0504 -20.3451 -2.5014 0.9212
1.4043 -20.3238 -2.5014 0.9212
3.8387 -20.0073 -2.5014 0.9212
6.2173 -19.4004 -2.5014 0.9212
8.5056 -18.5117 -2.5014 0.9212
10.6704 -17.3543 -2.5014 0.9212
16.1212 -12.4553 -2.5014 0.9212
20.0592 -3.5575 -2.5014 0.9212
20.3415 -1.1190 -2.5014 0.9212
20.3034 1.3342 -2.4983 0.9213
17.5992 5.5747 -2.2667 0.9283
4.8195 6.1948 -0.9637 0.9689
2.5321 5.6694 -0.7624 0.9753
1.7519 5.6742 -0.7292 0.9764
0.3310 5.6683 -0.6972 0.9774
-0.3545 5.6871 -0.6996 0.9773
-1.0522 5.6914 -0.7107 0.9769
-1.7831 5.6959 -0.7328 0.9762
-2.5729 5.7008 -0.7680 0.9751
-3.4557 5.7062 -0.8191 0.9735
-5.6249 5.6218 -0.9765 0.9685
-9.4954 5.7433 -1.3626 0.9563
-12.4358 5.6044 -1.6748 0.9465
-19.1175 1.1810 -2.3518 0.9257
-20.3369 -1.1988 -2.5014 0.9212
-11.5826 -2.1011 -1.4454 0.9537
-17.3849 -10.4485 -2.4905 0.9215
-16.0723 -12.5184 -2.5014 0.9212
-14.4498 -14.3607 -2.5014 0.9212
-12.6176 -15.9945 -2.5014 0.9212
-8.4329 -18.5449 -2.5014 0.9212
-1.3246 -20.3291 -2.5014 0.9212
10.4355 -17.4965 -2.5014 0.9212
15.9519 -12.6715 -2.5014 0.9212
18.5164 -8.4953 -2.5014 0.9212
19.4038 -6.2065 -2.5014 0.9212
20.3246 -1.3931 -2.5014 0.9212
15.2678 11.7274 -2.3638 0.9253
3.7779 6.1058 -0.8816 0.9715
1.8359 5.6737 -0.7322 0.9763
1.1060 5.6782 -0.7103 0.9770
0.4087 5.6825 -0.6995 0.9773
-0.9730 5.6910 -0.7089 0.9770
-1.6990 5.6954 -0.7298 0.9763
-3.3511 5.7056 -0.8125 0.9737
-5.4792 5.6259 -0.9642 0.9688
-6.8808 5.5418 -1.0848 0.9650
-9.2098 5.7416 -1.3326 0.9572
-18.7673 3.7213 -2.3492 0.9258
-19.0786 1.4370 -2.3492 0.9258
-20.3512 -0.9245 -2.5014 0.9212
-12.2438 -2.0509 -1.5243 0.9512
-10.7015 -3.1532 -1.3698 0.9560
-18.7072 -8.0665 -2.5014 0.9212
-16.2395 -12.3006 -2.5014 0.9212
-14.6421 -14.1646 -2.5014 0.9212
-12.8321 -15.8229 -2.5014 0.9212
-10.8358 -17.2515 -2.5014 0.9212
-6.4024 -19.3400 -2.5014 0.9212
-4.0297 -19.9697 -2.5014 0.9212
0.8559 -20.3542 -2.5014 0.9212
5.6920 -19.5609 -2.5014 0.9212
8.0034 -18.7343 -2.5014 0.9212
10.1987 -17.6356 -2.5014 0.9212
12.2458 -16.2809 -2.5014 0.9212
14.1152 -14.6898 -2.5014 0.9212
17.2149 -10.8939 -2.5014 0.9212
18.4002 -8.7442 -2.5014 0.9212
19.9560 -4.0970 -2.5014 0.9212
20.3039 -1.6670 -2.5014 0.9212
20.3570 0.7873 -2.5014 0.9212
18.8907 3.0336 -2.3492 0.9258
18.3886 5.2837 -2.3492 0.9258
17.6196 7.4571 -2.3492 0.9258
16.6410 9.5488 -2.3557 0.9256
15.4194 11.5167 -2.3631 0.9254
13.9619 13.3256 -2.3698 0.9252
4.8203 5.8626 -0.9319 0.9699
2.7171 5.6683 -0.7718 0.9750
1.1856 5.6777 -0.7122 0.9769
0.4858 5.6820 -0.7002 0.9773
-0.8942 5.6905 -0.7073 0.9771
-2.3896 5.6997 -0.7588 0.9754
-3.2480 5.7049 -0.8061 0.9739
-4.2165 5.6852 -0.8691 0.9719
-6.7086 5.5539 -1.0694 0.9655
-11.8253 5.7177 -1.6128 0.9484
-8.3414 2.8553 -1.0825 0.9651
-18.7154 3.9739 -2.3492 0.9258
-19.0575 1.6940 -2.3492 0.9258
-20.3619 -0.6501 -2.5014 0.9212
-13.0846 -2.0108 -1.6254 0.9480
-16.4039 -12.0806 -2.5014 0.9212
-14.8317 -13.9659 -2.5014 0.9212
-13.0443 -15.6485 -2.5014 0.9212
-11.0674 -17.1038 -2.5014 0.9212
-6.6625 -19.2520 -2.5014 0.9212
-4.2985 -19.9136 -2.5014 0.9212
0.5814 -20.3639 -2.5014 0.9212
5.4278 -19.6359 -2.5014 0.9212
7.7501 -18.8405 -2.5014 0.9212
13.9159 -14.8787 -2.5014 0.9212
15.6045 -13.0969 -2.5014 0.9212
19.2294 -6.7274 -2.5014 0.9212
20.3658 0.5128 -2.5014 0.9212
18.9298 2.7786 -2.3492 0.9258
18.4582 5.0353 -2.3492 0.9258
7.7966 5.6612 -1.1830 0.9619
14.1360 13.1322 -2.3691 0.9252
4.8975 5.7954 -0.9316 0.9699
3.8985 5.9367 -0.8721 0.9718
2.8114 5.6677 -0.7768 0.9748
1.2656 5.6772 -0.7142 0.9768
0.5630 5.6815 -0.7010 0.9773
-0.8156 5.6900 -0.7058 0.9771
-1.5328 5.6944 -0.7241 0.9765
-2.2996 5.6991 -0.7546 0.9755
-4.1027 5.6905 -0.8614 0.9721
-5.2031 5.6389 -0.9421 0.9696
-11.4302 5.7180 -1.5693 0.9498
-19.0330 1.9508 -2.3492 0.9258
-20.3688 -0.3755 -2.5014 0.9212
-10.7046 -2.8428 -1.3599 0.9563
-18.9179 -7.5593 -2.5014 0.9212
-17.8713 -9.7798 -2.5014 0.9212
-15.0187 -13.7647 -2.5014 0.9212
-9.1758 -18.1888 -2.5014 0.9212
-6.9214 -19.1604 -2.5014 0.9212
-2.1454 -20.2590 -2.5014 0.9212
2.7547 -20.1851 -2.5014 0.9212
7.4955 -18.9432 -2.5014 0.9212
11.8025 -16.6051 -2.5014 0.9212
13.7141 -15.0650 -2.5014 0.9212
15.4265 -13.3061 -2.5014 0.9212
18.1578 -9.2370 -2.5014 0.9212
20.2516 -2.2137 -2.5014 0.9212
18.9656 2.5232 -2.3492 0.9258
18.5244 4.7861 -2.3492 0.9258
17.8142 6.9794 -2.3492 0.9258
16.8802 9.0901 -2.3540 0.9256
8.0097 5.6525 -1.2037 0.9613
3.9578 5.8535 -0.8676 0.9719
0.6404 5.6810 -0.7020 0.9772
-0.0473 5.6853 -0.6981 0.9773
-0.7375 5.6895 -0.7044 0.9771
-1.4507 5.6939 -0.7215 0.9766
-3.0468 5.7037 -0.7940 0.9743
-6.3783 5.5770 -1.0403 0.9664
-8.4232 5.7367 -1.2513 0.9598
-14.2950 5.3279 -1.8732 0.9404
-18.6015 4.4771 -2.3492 0.9258
-19.0049 2.2072 -2.3492 0.9258
-20.3720 -0.1009 -2.5014 0.9212
-10.7282 -2.6947 -1.3582 0.9564
-18.0015 -9.5381 -2.5014 0.9212
-16.7236 -11.6340 -2.5014 0.9212
-13.4614 -15.2912 -2.5014 0.9212
-9.4202 -18.0634 -2.5014 0.9212
-4.8339 -19.7904 -2.5014 0.9212
-2.4184 -20.2282 -2.5014 0.9212
2.4824 -20.2204 -2.5014 0.9212
9.4773 -18.0336 -2.5014 0.9212
11.5776 -16.7627 -2.5014 0.9212
13.5097 -15.2484 -2.5014 0.9212
16.7603 -11.5810 -2.5014 0.9212
19.7741 -4.9005 -2.5014 0.9212
20.2199 -2.4865 -2.5014 0.9212
18.9979 2.2674 -2.3492 0.9258
17.9067 6.7387 -2.3492 0.9258
4.0166 5.7712 -0.8633 0.9721
3.4675 6.5410 -0.9090 0.9706
2.1794 5.6716 -0.7460 0.9758
0.7180 5.6806 -0.7030 0.9772
0.0293 5.6848 -0.6980 0.9774
-1.3691 5.6934 -0.7190 0.9767
-2.1224 5.6980 -0.7466 0.9758
-3.8810 5.7009 -0.8468 0.9726
-4.9392 5.6512 -0.9216 0.9702
-8.1817 5.7353 -1.2268 0.9605
-18.5395 4.7274 -2.3492 0.9258
-20.3715 0.1737 -2.5014 0.9212
-10.7494 -2.5466 -1.3564 0.9565
-19.1148 -7.0465 -2.5014 0.9212
-18.1285 -9.2945 -2.5014 0.9212
-9.6628 -17.9348 -2.5014 0.9212
-5.1001 -19.7235 -2.5014 0.9212
-0.2424 -20.3708 -2.5014 0.9212
2.2096 -20.2521 -2.5014 0.9212
4.6294 -19.8393 -2.5014 0.9212
6.9821 -19.1384 -2.5014 0.9212
11.3505 -16.9172 -2.5014 0.9212
13.3029 -15.4292 -2.5014 0.9212
15.0621 -13.7171 -2.5014 0.9212
17.9022 -9.7232 -2.5014 0.9212
20.3699 -0.3110 -2.5014 0.9212
19.0267 2.0110 -2.3492 0.9258
17.9959 6.4966 -2.3492 0.9258
17.1065 8.6254 -2.3523 0.9257
14.6417 12.5382 -2.3669 0.9253
5.0344 7.0297 -1.0617 0.9658
3.5318 6.4508 -0.9030 0.9708
1.5085 5.6757 -0.7211 0.9766
-2.8512 5.7025 -0.7828 0.9746
-3.7729 5.7060 -0.8399 0.9728
-4.8115 5.6572 -0.9119 0.9705
-7.9496 5.7338 -1.2035 0.9613
-13.5657 5.4770 -1.7963 0.9427
-18.4740 4.9769 -2.3492 0.9258
-18.9385 2.7187 -2.3492 0.9258
-10.7895 -2.4029 -1.3572 0.9564
-10.8484 -3.8338 -1.4127 0.9547
-18.2521 -9.0492 -2.5014 0.9212
-15.5629 -13.1462 -2.5014 0.9212
-13.8687 -14.9228 -2.5014 0.9212
-9.9037 -17.8029 -2.5014 0.9212
-7.6905 -18.8649 -2.5014 0.9212
-5.3656 -19.6529 -2.5014 0.9212
-2.9628 -20.1557 -2.5014 0.9212
1.9364 -20.2800 -2.5014 0.9212
4.3616 -19.8999 -2.5014 0.9212
6.7234 -19.2308 -2.5014 0.9212
13.0938 -15.6071 -2.5014 0.9212
16.4421 -12.0286 -2.5014 0.9212
17.7695 -9.9636 -2.5014 0.9212
20.3638 -0.5856 -2.5014 0.9212
18.7028 4.0332 -2.3492 0.9258
17.2149 8.3909 -2.3514 0.9257
8.7393 5.6524 -1.2779 0.9589
14.8046 12.3357 -2.3661 0.9253
13.2494 14.0651 -2.3725 0.9251
5.1786 7.0288 -1.0720 0.9654
2.3563 5.6705 -0.7540 0.9756
1.5906 5.6752 -0.7237 0.9765
0.8740 5.6796 -0.7056 0.9771
0.1815 5.6480 -0.6938 0.9775
-0.5044 5.6881 -0.7011 0.9772
-1.9488 5.6970 -0.7393 0.9760
-10.4768 16.3187 -2.3811 0.9248
-4.6864 5.6631 -0.9026 0.9708
-5.9117 5.6066 -1.0004 0.9677
-10.0893 5.7470 -1.4257 0.9543
-13.1334 5.5095 -1.7487 0.9442
-18.9002 2.9738 -2.3492 0.9258
-20.3315 0.7219 -2.4980 0.9213
-10.7626 -3.6411 -1.3951 0.9552
-18.3724 -8.8024 -2.5014 0.9212
-17.0476 -10.8637 -2.4821 0.9218
-12.1942 -16.3196 -2.5014 0.9212
-10.1428 -17.6678 -2.5014 0.9212
-7.9441 -18.7595 -2.5014 0.9212
-5.6300 -19.5788 -2.5014 0.9212
-3.2342 -20.1139 -2.5014 0.9212
-0.7915 -20.3568 -2.5014 0.9212
1.6628 -20.3043 -2.5014 0.9212
10.8904 -17.2171 -2.5014 0.9212
12.8822 -15.7822 -2.5014 0.9212
14.6869 -14.1182 -2.5014 0.9212
16.2784 -12.2492 -2.5014 0.9212
18.7327 -8.0073 -2.5014 0.9212
20.1029 -3.3020 -2.5014 0.9212
20.2496 1.5896 -2.4940 0.9214
18.7554 3.7807 -2.3492 0.9258
18.1645 6.0092 -2.3492 0.9258
17.3199 8.1551 -2.3506 0.9258
5.2972 6.9904 -1.0769 0.9653
1.6733 5.6747 -0.7264 0.9764
-0.4272 5.6876 -0.7003 0.9773
-1.1274 5.6919 -0.7125 0.9769
-7.2300 5.5172 -1.1167 0.9640
-20.2189 0.9909 -2.4855 0.9217
-20.3200 -1.4575 -2.5014 0.9212
-14.2660 -14.5434 -2.5014 0.9212
-12.4131 -16.1537 -2.5014 0.9212
-10.3801 -17.5295 -2.5014 0.9212
-8.1963 -18.6507 -2.5014 0.9212
1.3890 -20.3248 -2.5014 0.9212
3.8235 -20.0102 -2.5014 0.9212
8.4916 -18.5181 -2.5014 0.9212
12.6682 -15.9544 -2.5014 0.9212
16.1118 -12.4675 -2.5014 0.9212
17.4944 -10.4391 -2.5014 0.9212
20.0565 -3.5726 -2.5014 0.9212
20.3406 -1.1343 -2.5014 0.9212
20.3065 1.3190 -2.4986 0.9213
18.8047 3.5275 -2.3492 0.9258
18.2439 5.7637 -2.3492 0.9258
17.4218 7.9179 -2.3497 0.9258
9.2708 5.6477 -1.3329 0.9572
13.6159 13.6948 -2.3712 0.9251
4.8195 6.1851 -0.9628 0.9689
1.7566 5.6742 -0.7293 0.9763
1.0313 5.6786 -0.7087 0.9770
-0.3502 5.6871 -0.6996 0.9773
11.5438 9.3724 -2.3551 0.9416
5.2562 6.9473 -1.3798 0.9653
3.6546 6.2787 -1.1506 0.9710
0.6670 14.8638 -2.3566 0.9415
-0.4315 5.6876 -0.9034 0.9772
-1.1319 5.6919 -0.9192 0.9768
-1.8680 5.6965 -0.9495 0.9760
-7.0733 5.3891 -1.4084 0.9646
-9.7942 5.7452 -1.7984 0.9551
-10.3773 -2.0273 -1.6747 0.9581
-12.3277 -9.8718 -2.5014 0.9380
-8.0366 -13.5955 -2.5014 0.9380
-6.3430 -14.4634 -2.5014 0.9380
1.0887 -15.7556 -2.5014 0.9380
2.9758 -15.5103 -2.5014 0.9380
8.2720 -13.4536 -2.5014 0.9380
9.8301 -12.3609 -2.5014 0.9380
12.4977 -9.6557 -2.5014 0.9380
13.5683 -8.0824 -2.5014 0.9380
15.5505 -2.7579 -2.5014 0.9380
14.8398 0.9752 -2.3555 0.9415
14.5759 2.7457 -2.3492 0.9417
12.6611 7.7261 -2.3492 0.9417
5.6296 5.6708 -1.2656 0.9682
4.8181 6.1929 -1.2427 0.9687
1.7519 5.6742 -0.9406 0.9762
0.3310 5.6683 -0.8993 0.9773
-0.3545 5.6871 -0.9025 0.9772
-5.5695 5.5664 -1.2472 0.9686
-6.9360 5.4338 -1.3955 0.9649
-9.4954 5.7433 -1.7576 0.9561
-12.4358 5.6044 -2.1604 0.9463
-9.7877 -3.0279 -1.6227 0.9594
-13.5365 -8.1356 -2.5014 0.9380
-12.4597 -9.7047 -2.5014 0.9380
-11.2019 -11.1329 -2.5014 0.9380
-9.7816 -12.3994 -2.5014 0.9380
-6.5374 -14.3766 -2.5014 0.9380
-4.7608 -15.0585 -2.5014 0.9380
-1.0268 -15.7598 -2.5014 0.9380
2.7665 -15.5490 -2.5014 0.9380
4.6166 -15.1033 -2.5014 0.9380
8.0899 -13.5638 -2.5014 0.9380
9.6626 -12.4923 -2.5014 0.9380
11.0950 -11.2394 -2.5014 0.9380
12.3664 -9.8233 -2.5014 0.9380
13.4581 -8.2646 -2.5014 0.9380
15.0424 -4.8115 -2.5014 0.9380
15.5119 -2.9673 -2.5014 0.9380
15.7562 -1.0800 -2.5014 0.9380
15.7717 0.8230 -2.5014 0.9380
14.6116 2.5489 -2.3492 0.9417
12.7641 7.5547 -2.3492 0.9417
5.7835 5.6709 -1.2829 0.9677
3.7779 6.1058 -1.1372 0.9713
2.6240 5.6688 -0.9894 0.9750
1.8359 5.6737 -0.9445 0.9761
0.4087 5.6825 -0.9023 0.9772
-0.2775 5.6867 -0.9018 0.9772
-0.9730 5.6910 -0.9144 0.9769
-1.6990 5.6954 -0.9413 0.9762
-2.4807 5.7002 -0.9846 0.9751
-6.7967 5.4742 -1.3822 0.9653
-9.2098 5.7416 -1.7189 0.9570
-12.1248 5.6621 -2.1194 0.9472
-14.0964 4.6139 -2.3492 0.9417
-14.5490 2.8849 -2.3492 0.9417
-15.7769 -0.7167 -2.5014 0.9380
-11.7900 -1.9749 -1.8934 0.9527
-9.7981 -2.8870 -1.6178 0.9595
-14.5024 -6.2534 -2.5014 0.9380
-13.6450 -7.9524 -2.5014 0.9380
-12.5894 -9.5358 -2.5014 0.9380
-11.3510 -10.9808 -2.5014 0.9380
-6.7306 -14.2872 -2.5014 0.9380
-4.9633 -14.9930 -2.5014 0.9380
-1.2392 -15.7445 -2.5014 0.9380
7.9063 -13.6717 -2.5014 0.9380
12.2328 -9.9891 -2.5014 0.9380
13.3455 -8.4452 -2.5014 0.9380
15.4705 -3.1761 -2.5014 0.9380
15.7402 -1.2923 -2.5014 0.9380
15.7814 0.6104 -2.5014 0.9380
14.6446 2.3517 -2.3492 0.9417
14.2554 4.0961 -2.3492 0.9417
11.9043 8.8912 -2.3533 0.9416
5.9418 5.6710 -1.3009 0.9673
4.8160 5.8573 -1.2010 0.9698
1.9206 5.6732 -0.9486 0.9760
-0.2007 5.6862 -0.9012 0.9772
-2.3896 5.6997 -0.9789 0.9753
-3.2480 5.7049 -1.0398 0.9738
-6.6278 5.4871 -1.3628 0.9658
-8.3413 2.8553 -1.3964 0.9649
-15.6930 1.3949 -2.4953 0.9382
-15.7851 -0.5040 -2.5014 0.9380
-12.8418 -1.9735 -2.0578 0.9487
-13.7509 -7.7677 -2.5014 0.9380
-12.7168 -9.3653 -2.5014 0.9380
-11.4980 -10.8268 -2.5014 0.9380
-10.1123 -12.1312 -2.5014 0.9380
-8.5798 -13.2594 -2.5014 0.9380
-6.9226 -14.1951 -2.5014 0.9380
-1.4513 -15.7263 -2.5014 0.9380
2.3463 -15.6179 -2.5014 0.9380
4.2078 -15.2223 -2.5014 0.9380
9.3223 -12.7483 -2.5014 0.9380
10.7880 -11.5344 -2.5014 0.9380
12.0971 -10.1531 -2.5014 0.9380
13.2304 -8.6244 -2.5014 0.9380
14.9072 -5.2153 -2.5014 0.9380
15.4263 -3.3844 -2.5014 0.9380
15.7882 0.3975 -2.5014 0.9380
13.7359 5.5963 -2.3492 0.9417
12.0199 8.7277 -2.3527 0.9416
4.8628 5.7543 -1.1932 0.9699
1.2656 5.6772 -0.9213 0.9767
0.5630 5.6815 -0.9043 0.9771
-0.1240 5.6857 -0.9007 0.9772
-2.2996 5.6991 -0.9734 0.9754
-3.1466 5.7043 -1.0318 0.9740
-6.4635 5.4996 -1.3441 0.9662
-8.6746 5.7383 -1.6473 0.9588
-13.9669 4.9922 -2.3492 0.9417
-15.0364 1.5412 -2.3940 0.9406
-15.7905 -0.2911 -2.5014 0.9380
-15.6408 -2.1883 -2.5014 0.9380
-13.8544 -7.5816 -2.5014 0.9380
-12.8419 -9.1930 -2.5014 0.9380
-8.7577 -13.1426 -2.5014 0.9380
-7.1133 -14.1005 -2.5014 0.9380
-3.5402 -15.3913 -2.5014 0.9380
0.2379 -15.7914 -2.5014 0.9380
2.1356 -15.6481 -2.5014 0.9380
7.5349 -13.8799 -2.5014 0.9380
9.1496 -12.8728 -2.5014 0.9380
10.6316 -11.6788 -2.5014 0.9380
13.1130 -8.8020 -2.5014 0.9380
14.0765 -7.1608 -2.5014 0.9380
14.8356 -5.4157 -2.5014 0.9380
15.3793 -3.5920 -2.5014 0.9380
15.6997 -1.7161 -2.5014 0.9380
15.7921 0.1847 -2.5014 0.9380
14.7027 1.9561 -2.3492 0.9417
14.3607 3.7103 -2.3492 0.9417
13.0591 7.0325 -2.3492 0.9417
6.2686 5.6680 -1.3385 0.9664
3.9578 5.8535 -1.1191 0.9718
1.3461 5.6767 -0.9240 0.9766
-0.0473 5.6853 -0.9005 0.9772
-0.7375 5.6895 -0.9087 0.9770
-2.2105 5.6986 -0.9681 0.9755
-5.0342 5.6055 -1.1933 0.9699
-14.7332 1.7111 -2.3492 0.9417
-15.6689 -1.9772 -2.5014 0.9380
-9.8855 -2.4831 -1.6144 0.9596
-12.9646 -9.0190 -2.5014 0.9380
-11.7857 -10.5129 -2.5014 0.9380
-3.7473 -15.3422 -2.5014 0.9380
-1.8748 -15.6815 -2.5014 0.9380
3.7959 -15.3302 -2.5014 0.9380
5.6123 -14.7624 -2.5014 0.9380
7.3471 -13.9802 -2.5014 0.9380
8.9753 -12.9950 -2.5014 0.9380
10.4731 -11.8211 -2.5014 0.9380
12.9931 -8.9779 -2.5014 0.9380
14.7612 -5.6153 -2.5014 0.9380
15.3294 -3.7990 -2.5014 0.9380
15.6751 -1.9276 -2.5014 0.9380
15.7932 -0.0282 -2.5014 0.9380
13.8818 5.2240 -2.3492 0.9417
12.2444 8.3961 -2.3515 0.9416
5.0526 5.6620 -1.2019 0.9697
4.0166 5.7712 -1.1136 0.9719
3.4675 6.5410 -1.1726 0.9705
1.4270 5.6762 -0.9270 0.9766
0.0293 5.6848 -0.9004 0.9772
-0.6595 5.6890 -0.9071 0.9771
-1.3691 5.6934 -0.9274 0.9766
-2.9483 5.7031 -1.0168 0.9743
-10.7611 5.7511 -1.9325 0.9518
-13.8272 5.3669 -2.3492 0.9417
-14.3723 3.6648 -2.3492 0.9417
-9.9171 -2.3494 -1.6142 0.9596
-9.7803 -3.6054 -1.6510 0.9587
-14.0537 -7.2054 -2.5014 0.9380
-13.0850 -8.8434 -2.5014 0.9380
-10.5945 -11.7124 -2.5014 0.9380
-9.1089 -12.9017 -2.5014 0.9380
-7.4909 -13.9036 -2.5014 0.9380
-5.7642 -14.7037 -2.5014 0.9380
-2.0860 -15.6548 -2.5014 0.9380
1.7129 -15.7000 -2.5014 0.9380
7.1580 -14.0779 -2.5014 0.9380
10.3128 -11.9612 -2.5014 0.9380
12.8709 -9.1523 -2.5014 0.9380
13.8783 -7.5377 -2.5014 0.9380
14.6842 -5.8137 -2.5014 0.9380
15.6477 -2.1387 -2.5014 0.9380
15.7913 -0.2411 -2.5014 0.9380
14.7894 1.5632 -2.3555 0.9415
14.4555 3.3218 -2.3492 0.9417
13.9510 5.0364 -2.3492 0.9417
13.2439 6.6778 -2.3492 0.9417
12.3532 8.2281 -2.3508 0.9417
6.6411 5.6870 -1.3848 0.9652
5.1918 5.6624 -1.2168 0.9694
5.0076 6.9922 -1.3622 0.9658
0.7959 5.6801 -0.9084 0.9770
0.1060 5.6843 -0.9005 0.9772
-2.0351 5.6975 -0.9582 0.9758
-5.9958 5.5348 -1.2924 0.9675
-7.3473 5.2994 -1.4348 0.9640
-15.7894 0.3476 -2.5014 0.9380
-15.7165 -1.5541 -2.5014 0.9380
-13.2031 -8.6662 -2.5014 0.9380
-12.0649 -10.1913 -2.5014 0.9380
-10.7514 -11.5685 -2.5014 0.9380
-9.2819 -12.7777 -2.5014 0.9380
-0.4008 -15.7881 -2.5014 0.9380
1.5011 -15.7217 -2.5014 0.9380
3.3812 -15.4270 -2.5014 0.9380
5.2122 -14.9083 -2.5014 0.9380
6.9675 -14.1731 -2.5014 0.9380
10.1507 -12.0991 -2.5014 0.9380
11.5323 -10.7904 -2.5014 0.9380
13.7754 -7.7241 -2.5014 0.9380
15.2215 -4.2109 -2.5014 0.9380
15.6174 -2.3495 -2.5014 0.9380
15.7867 -0.4540 -2.5014 0.9380
14.8092 1.3637 -2.3555 0.9415
14.4989 3.1266 -2.3492 0.9417
14.0176 4.8479 -2.3492 0.9417
13.3328 6.4987 -2.3492 0.9417
2.3563 5.6705 -0.9726 0.9754
1.5906 5.6752 -0.9335 0.9764
-0.5044 5.6881 -0.9044 0.9771
-1.9488 5.6970 -0.9536 0.9759
-2.7555 5.7019 -1.0030 0.9747
-8.0742 12.5765 -2.3671 0.9413
-5.8476 5.5458 -1.2765 0.9679
-10.0893 5.7470 -1.8391 0.9541
-13.6775 5.7377 -2.3492 0.9417
-14.6520 2.3054 -2.3492 0.9417
-10.0346 -2.0932 -1.6235 0.9593
-9.7831 -3.3097 -1.6358 0.9590
-14.2429 -6.8239 -2.5014 0.9380
-13.3187 -8.4875 -2.5014 0.9380
-10.9064 -11.4225 -2.5014 0.9380
-7.8630 -13.6966 -2.5014 0.9380
-6.1585 -14.5429 -2.5014 0.9380
-4.3646 -15.1781 -2.5014 0.9380
-2.5073 -15.5929 -2.5014 0.9380
-0.6136 -15.7813 -2.5014 0.9380
1.2890 -15.7405 -2.5014 0.9380
3.1729 -15.4712 -2.5014 0.9380
6.7759 -14.2658 -2.5014 0.9380
8.4426 -13.3472 -2.5014 0.9380
9.9866 -12.2349 -2.5014 0.9380
11.3857 -10.9448 -2.5014 0.9380
12.6195 -9.4959 -2.5014 0.9380
15.1633 -4.4157 -2.5014 0.9380
15.5843 -2.5598 -2.5014 0.9380
14.8262 1.1639 -2.3555 0.9415
14.0817 4.6585 -2.3492 0.9417
11.5507 9.3635 -2.3551 0.9416
5.4880 5.6708 -1.2499 0.9685
5.2640 6.9467 -1.3805 0.9653
3.6581 6.2738 -1.1502 0.9710
2.4462 5.6699 -0.9780 0.9753
1.6733 5.6747 -0.9370 0.9763
0.9525 5.6791 -0.9120 0.9769
-0.4272 5.6876 -0.9034 0.9772
-1.1274 5.6919 -0.9190 0.9768
-5.7030 5.5566 -1.2611 0.9683
-9.7771 5.7451 -1.7961 0.9551
-10.4246 -2.0284 -1.6821 0.9579
-9.7844 -3.1638 -1.6287 0.9592
-14.3336 -6.6313 -2.5014 0.9380
-12.3352 -9.8624 -2.5014 0.9380
-9.6230 -12.5228 -2.5014 0.9380
-6.3540 -14.4586 -2.5014 0.9380
-4.5688 -15.1179 -2.5014 0.9380
1.0768 -15.7564 -2.5014 0.9380
4.8084 -15.0434 -2.5014 0.9380
8.2618 -13.4598 -2.5014 0.9380
9.8208 -12.3684 -2.5014 0.9380
13.5622 -8.0927 -2.5014 0.9380
14.4371 -6.4027 -2.5014 0.9380
15.1024 -4.6197 -2.5014 0.9380
15.5484 -2.7696 -2.5014 0.9380
15.7687 -0.8794 -2.5014 0.9380
14.8405 0.9639 -2.3555 0.9415
14.5780 2.7347 -2.3492 0.9417
14.1432 4.4682 -2.3492 0.9417
12.6669 7.7165 -2.3492 0.9417
5.6381 5.6708 -1.2665 0.9681
2.5372 5.6694 -0.9838 0.9752
1.7566 5.6742 -0.9408 0.9762
1.0313 5.6786 -0.9141 0.9769
-0.3501 5.6871 -0.9025 0.9772
11.8454 2.3971 -2.3492 0.9519
10.9303 5.1566 -2.3492 0.9519
9.3825 7.6177 -2.3492 0.9519
5.2016 6.8752 -1.6758 0.9655
2.4412 5.6700 -1.1999 0.9752
0.9481 5.6792 -1.1192 0.9768
0.5455 12.1572 -2.3655 0.9516
-0.4315 5.6876 -1.1087 0.9770
-1.8680 5.6965 -1.1653 0.9759
-2.6663 5.7014 -1.2234 0.9747
-4.5016 5.5829 -1.3940 0.9712
-6.9058 5.2615 -1.6876 0.9652
-11.0843 4.8166 -2.3492 0.9519
-11.5831 3.4484 -2.3492 0.9519
-12.8536 0.6202 -2.5014 0.9489
-10.1020 -1.9735 -2.0007 0.9589
-11.6752 -5.4121 -2.5014 0.9489
-10.0449 -8.0437 -2.5014 0.9489
-6.5484 -11.0778 -2.5014 0.9489
-3.7134 -12.3211 -2.5014 0.9489
-2.2045 -12.6783 -2.5014 0.9489
-0.6635 -12.8514 -2.5014 0.9489
0.8871 -12.8379 -2.5014 0.9489
2.4248 -12.6380 -2.5014 0.9489
6.7402 -10.9622 -2.5014 0.9489
9.1631 -9.0354 -2.5014 0.9489
11.0557 -6.5857 -2.5014 0.9489
11.7676 -5.2081 -2.5014 0.9489
12.3086 -3.7549 -2.5014 0.9489
12.6708 -2.2472 -2.5014 0.9489
12.7842 0.8401 -2.4904 0.9491
10.9988 5.0088 -2.3492 0.9519
9.4844 7.4905 -2.3492 0.9519
2.5321 5.6694 -1.2069 0.9750
1.7519 5.6742 -1.1543 0.9761
1.0269 5.6787 -1.1217 0.9768
0.3310 5.6683 -1.1037 0.9771
-0.3545 5.6871 -1.1076 0.9770
-1.0522 5.6914 -1.1251 0.9767
-1.7831 5.6959 -1.1602 0.9760
-2.5729 5.7008 -1.2158 0.9748
-4.3856 5.5917 -1.3813 0.9715
-5.5081 5.5051 -1.5137 0.9688
-6.7732 5.3063 -1.6725 0.9655
-9.4954 5.7433 -2.1571 0.9558
-11.5356 3.6043 -2.3492 0.9519
-11.8854 2.1906 -2.3492 0.9519
-12.8441 0.7934 -2.5014 0.9489
-12.8463 -0.7572 -2.5014 0.9489
-11.0958 -2.0128 -2.1920 0.9551
-10.1524 -7.9075 -2.5014 0.9489
-7.9702 -10.1033 -2.5014 0.9489
-2.3752 -12.6475 -2.5014 0.9489
3.7617 -12.3065 -2.5014 0.9489
5.2146 -11.7647 -2.5014 0.9489
9.0404 -9.1581 -2.5014 0.9489
10.9659 -6.7341 -2.5014 0.9489
11.6963 -5.3663 -2.5014 0.9489
11.5695 3.4939 -2.3492 0.9519
11.0653 4.8601 -2.3492 0.9519
10.4004 6.1557 -2.3492 0.9519
9.5845 7.3620 -2.3492 0.9519
8.6388 8.4705 -2.3517 0.9519
4.8170 6.0223 -1.4990 0.9691
3.7779 6.1058 -1.3957 0.9712
2.6240 5.6688 -1.2142 0.9749
1.1060 5.6782 -1.1245 0.9767
-0.2775 5.6867 -1.1067 0.9771
-1.6990 5.6954 -1.1553 0.9761
-2.4807 5.7002 -1.2084 0.9750
-3.3511 5.7056 -1.2862 0.9734
-4.2767 5.6069 -1.3707 0.9717
-5.3720 5.5158 -1.4966 0.9691
-6.6428 5.3502 -1.6580 0.9658
-9.2098 5.7416 -2.1096 0.9567
-10.9504 5.1137 -2.3492 0.9519
-11.8548 2.3506 -2.3492 0.9519
-12.8322 0.9665 -2.5014 0.9489
-12.8553 -0.5840 -2.5014 0.9489
-9.2816 -2.7348 -1.8808 0.9613
-11.8168 -5.0954 -2.5014 0.9489
-11.1181 -6.4797 -2.5014 0.9489
-10.2581 -7.7700 -2.5014 0.9489
-8.1057 -9.9949 -2.5014 0.9489
-6.8447 -10.8972 -2.5014 0.9489
-2.5455 -12.6143 -2.5014 0.9489
0.5407 -12.8572 -2.5014 0.9489
3.5955 -12.3561 -2.5014 0.9489
5.0555 -11.8339 -2.5014 0.9489
6.4422 -11.1399 -2.5014 0.9489
7.7353 -10.2842 -2.5014 0.9489
8.9161 -9.2791 -2.5014 0.9489
9.9675 -8.1393 -2.5014 0.9489
10.8741 -6.8813 -2.5014 0.9489
11.6229 -5.5234 -2.5014 0.9489
12.6057 -2.5880 -2.5014 0.9489
11.9327 1.9162 -2.3492 0.9519
11.6156 3.3376 -2.3492 0.9519
11.1298 4.7104 -2.3492 0.9519
10.4824 6.0149 -2.3492 0.9519
1.9206 5.6732 -1.1642 0.9759
1.1856 5.6777 -1.1274 0.9766
-0.8942 5.6905 -1.1197 0.9768
-1.6156 5.6949 -1.1507 0.9762
-3.2480 5.7049 -1.2761 0.9736
-6.5145 5.3932 -1.6439 0.9661
-10.8805 5.2608 -2.3492 0.9519
-12.7192 -1.9547 -2.5014 0.9489
-10.3619 -7.6310 -2.5014 0.9489
-8.2397 -9.8847 -2.5014 0.9489
-2.7153 -12.5788 -2.5014 0.9489
6.2915 -11.2258 -2.5014 0.9489
8.7903 -9.3985 -2.5014 0.9489
11.5474 -5.6796 -2.5014 0.9489
12.5696 -2.7576 -2.5014 0.9489
12.8645 0.3239 -2.5014 0.9489
11.9574 1.7552 -2.3492 0.9519
11.6595 3.1807 -2.3492 0.9519
10.5626 5.8731 -2.3492 0.9519
9.7795 7.1009 -2.3492 0.9519
8.8606 8.2314 -2.3508 0.9519
4.8977 5.7957 -1.4750 0.9696
3.8985 5.9367 -1.3805 0.9715
2.8114 5.6677 -1.2298 0.9745
2.0060 5.6726 -1.1696 0.9758
1.2656 5.6772 -1.1306 0.9766
-0.1240 5.6857 -1.1055 0.9771
-1.5328 5.6944 -1.1463 0.9763
-3.1466 5.7043 -1.2663 0.9738
-5.1086 5.5365 -1.4643 0.9698
-6.3868 5.4343 -1.6300 0.9664
-8.6746 5.7383 -2.0217 0.9585
-8.2650 2.9542 -1.7061 0.9649
-12.8664 -0.2372 -2.5014 0.9489
-12.7444 -1.7831 -2.5014 0.9489
-9.3338 -2.4788 -1.8772 0.9614
-9.6867 -3.8706 -2.0277 0.9584
-11.2888 -6.1776 -2.5014 0.9489
-9.4869 -8.6948 -2.5014 0.9489
-4.3721 -12.1031 -2.5014 0.9489
-2.8846 -12.5411 -2.5014 0.9489
1.7401 -12.7504 -2.5014 0.9489
6.1396 -11.3095 -2.5014 0.9489
8.6628 -9.5161 -2.5014 0.9489
9.7445 -8.4051 -2.5014 0.9489
11.4698 -5.8348 -2.5014 0.9489
12.0883 -4.4128 -2.5014 0.9489
12.5313 -2.9268 -2.5014 0.9489
12.8677 0.1505 -2.5014 0.9489
11.7013 3.0232 -2.3492 0.9519
11.2527 4.4087 -2.3492 0.9519
10.6408 5.7301 -2.3492 0.9519
8.9690 8.1097 -2.3504 0.9519
2.9037 5.6607 -1.2366 0.9744
-0.0473 5.6853 -1.1051 0.9771
-4.9810 5.5463 -1.4490 0.9701
-6.2297 5.4471 -1.6086 0.9668
-7.4518 5.0751 -1.7525 0.9639
-11.3246 4.2208 -2.3492 0.9519
-12.8684 -0.0637 -2.5014 0.9489
-12.7673 -1.6110 -2.5014 0.9489
-11.3710 -6.0249 -2.5014 0.9489
-10.5638 -7.3489 -2.5014 0.9489
-9.6032 -8.5661 -2.5014 0.9489
-5.9504 -11.4102 -2.5014 0.9489
-4.5348 -12.0431 -2.5014 0.9489
-3.0534 -12.5010 -2.5014 0.9489
0.0204 -12.8685 -2.5014 0.9489
1.5681 -12.7727 -2.5014 0.9489
3.0930 -12.4913 -2.5014 0.9489
4.5730 -12.0286 -2.5014 0.9489
5.9866 -11.3913 -2.5014 0.9489
8.5337 -9.6320 -2.5014 0.9489
9.6303 -8.5357 -2.5014 0.9489
10.5870 -7.3154 -2.5014 0.9489
12.4907 -3.0955 -2.5014 0.9489
11.7410 2.8652 -2.3492 0.9519
10.7171 5.5862 -2.3492 0.9519
9.9673 6.8347 -2.3492 0.9519
4.0166 5.7712 -1.3667 0.9718
3.4675 6.5410 -1.4390 0.9703
0.0293 5.6848 -1.1050 0.9771
-1.3691 5.6934 -1.1382 0.9764
-2.1224 5.6980 -1.1819 0.9755
-3.8685 5.6826 -1.3362 0.9724
-4.8560 5.5560 -1.4343 0.9704
-6.0766 5.4596 -1.5879 0.9673
-10.6589 5.6965 -2.3492 0.9519
-11.7108 2.9861 -2.3492 0.9519
-12.8681 0.1097 -2.5014 0.9489
-12.7879 -1.4388 -2.5014 0.9489
-10.6619 -7.2058 -2.5014 0.9489
-8.6326 -9.5435 -2.5014 0.9489
