ply
format ascii 1.0
element vertex 1552
property float32 x
property float32 y
property float32 z
property float32 I
end_header
-6.3912 5.6135 -0.4458 0.9665
-8.3840 5.7365 -0.5324 0.9601
-11.0663 5.7530 -0.6536 0.9513
-14.9445 5.6042 -0.8365 0.9381
-23.6889 5.7500 -1.2775 0.9070
-32.7809 -0.1038 -1.7180 0.8770
-46.2367 -11.5335 -2.4974 0.8262
-44.5866 -17.0427 -2.5016 0.8260
-28.0471 -24.9505 -1.9673 0.8604
-12.6718 -24.2322 -1.4331 0.8963
-10.3448 -27.3850 -1.5342 0.8894
-8.6815 -35.3932 -1.9099 0.8642
11.4409 -46.3414 -2.5016 0.8260
24.1078 -27.2318 -1.9061 0.8644
30.6381 -27.1729 -2.1462 0.8487
26.2606 -18.1548 -1.6731 0.8800
39.7456 -15.1237 -2.2287 0.8434
46.3310 -11.4830 -2.5016 0.8260
47.7327 -0.0793 -2.5016 0.8260
22.6972 5.5455 -1.2245 0.9107
17.7796 6.6978 -0.9957 0.9267
18.2176 9.5055 -1.0769 0.9210
23.3359 20.5585 -1.6299 0.8829
4.0818 5.8740 -0.3749 0.9718
2.9871 5.6457 -0.3347 0.9747
2.1738 5.6716 -0.3183 0.9760
0.7122 5.6806 -0.3000 0.9773
-0.6662 5.6891 -0.3002 0.9773
-1.3765 5.6934 -0.3070 0.9768
-8.2112 5.7354 -0.5249 0.9607
-10.8070 5.7514 -0.6416 0.9521
-14.5663 5.6233 -0.8183 0.9394
-44.5369 -5.1064 -2.3494 0.8356
-45.9349 -10.9883 -2.4753 0.8276
-29.3816 -25.6339 -2.0435 0.8554
-15.8764 -22.6131 -1.4480 0.8952
-12.9015 -24.1019 -1.4327 0.8963
-10.4633 -26.9101 -1.5132 0.8908
-0.4249 -47.7309 -2.5016 0.8260
5.3227 -47.4351 -2.5016 0.8260
15.4993 -42.0640 -2.3494 0.8356
20.4492 -39.8929 -2.3494 0.8356
20.5804 -30.4519 -1.9262 0.8631
30.0446 -27.1693 -2.1229 0.8502
36.6268 -25.8474 -2.3494 0.8356
46.2180 -11.9297 -2.5016 0.8260
47.7298 -0.5401 -2.5016 0.8260
44.5610 4.8914 -2.3494 0.8356
43.8190 10.2588 -2.3586 0.8351
17.8202 6.5174 -0.9944 0.9268
23.6698 26.0481 -1.8445 0.8685
4.1243 5.8145 -0.3736 0.9719
3.5697 6.5920 -0.3929 0.9704
2.2367 5.6712 -0.3195 0.9759
-0.6105 5.6887 -0.2998 0.9773
-1.3184 5.6931 -0.3063 0.9769
-2.0682 5.6977 -0.3177 0.9760
-2.8885 5.7027 -0.3350 0.9747
-3.8102 5.6968 -0.3592 0.9729
-6.1603 5.6250 -0.4372 0.9671
-8.0432 5.7344 -0.5177 0.9612
-10.5571 5.7499 -0.6300 0.9530
-14.2040 5.6416 -0.8010 0.9406
-22.1095 5.8209 -1.1982 0.9125
-45.1960 -10.3513 -2.4300 0.8305
-39.7405 -26.4408 -2.5016 0.8260
-34.0627 -29.1435 -2.3494 0.8356
-20.4828 -22.3235 -1.5878 0.8857
-13.1814 -24.0636 -1.4379 0.8959
-8.9556 -33.6857 -1.8267 0.8697
-6.2200 -44.3950 -2.3494 0.8356
-0.8857 -47.7246 -2.5016 0.8260
4.8645 -47.4843 -2.5016 0.8260
15.0925 -42.2117 -2.3494 0.8356
22.8870 -34.5797 -2.1732 0.8470
27.5611 -25.4114 -1.9647 0.8606
29.9318 -16.4900 -1.7910 0.8721
37.5594 -15.1283 -2.1221 0.8503
46.1007 -12.3754 -2.5016 0.8260
47.7223 -1.0008 -2.5016 0.8260
44.6062 4.4609 -2.3494 0.8356
43.8863 9.8286 -2.3570 0.8352
17.7808 8.8451 -1.0408 0.9235
2.3000 5.6708 -0.3207 0.9758
1.5382 5.6755 -0.3082 0.9767
0.8238 5.6799 -0.3008 0.9773
-2.0061 5.6973 -0.3166 0.9761
-2.8195 5.7023 -0.3334 0.9748
-3.7335 5.7004 -0.3571 0.9731
-10.3160 5.7484 -0.6189 0.9538
-21.2540 5.8156 -1.1548 0.9155
-45.0066 1.1613 -2.3595 0.8350
-44.6272 -4.2456 -2.3494 0.8356
-45.0615 -15.7444 -2.5016 0.8260
-42.8391 -21.0532 -2.5016 0.8260
-39.9939 -26.0559 -2.5016 0.8260
-34.3425 -28.8133 -2.3494 0.8356
-16.3144 -22.3085 -1.4484 0.8952
-13.3451 -23.8137 -1.4306 0.8964
-10.7524 -26.1474 -1.4817 0.8929
-6.6484 -44.3329 -2.3494 0.8356
-1.3464 -47.7138 -2.5016 0.8260
10.0941 -46.6533 -2.5016 0.8260
19.6751 -40.2803 -2.3494 0.8356
23.0348 -27.5901 -1.8836 0.8659
36.1209 -26.5497 -2.3494 0.8356
38.4325 -21.6595 -2.3120 0.8380
45.9791 -12.8198 -2.5016 0.8260
47.1878 -7.1929 -2.5016 0.8260
47.7104 -1.4615 -2.5016 0.8260
44.6471 4.0301 -2.3494 0.8356
43.9493 9.3981 -2.3554 0.8353
17.7765 8.6299 -1.0356 0.9239
17.8382 11.4993 -1.1123 0.9185
23.6636 25.0520 -1.8060 0.8711
1.5971 5.6752 -0.3090 0.9767
0.1878 5.6838 -0.2980 0.9775
-0.4996 5.6880 -0.2992 0.9774
-1.9443 5.6969 -0.3155 0.9762
-2.7511 5.7019 -0.3318 0.9750
-5.9380 5.6361 -0.4291 0.9677
-10.0833 5.7470 -0.6082 0.9546
-33.7186 5.3065 -1.7889 0.8722
-45.2114 -15.3086 -2.5016 0.8260
-40.2436 -25.6686 -2.5016 0.8260
-9.1868 -32.0498 -1.7473 0.8750
-7.0760 -44.2667 -2.3494 0.8356
-1.8069 -47.6986 -2.5016 0.8260
19.2853 -40.4684 -2.3494 0.8356
23.0266 -28.1279 -1.9051 0.8645
45.8531 -13.2632 -2.5016 0.8260
44.6840 3.5988 -2.3494 0.8356
17.7723 8.4169 -1.0306 0.9243
17.8326 11.2535 -1.1051 0.9190
17.9948 14.6589 -1.2164 0.9112
23.6606 24.5693 -1.7876 0.8723
4.2352 5.6186 -0.3687 0.9722
3.7081 6.3979 -0.3875 0.9708
2.4282 5.6700 -0.3233 0.9756
1.6563 5.6748 -0.3098 0.9766
0.9360 5.6792 -0.3017 0.9772
0.2428 5.6835 -0.2981 0.9775
-0.4443 5.6877 -0.2990 0.9774
-1.1455 5.6920 -0.3043 0.9770
-1.8830 5.6965 -0.3144 0.9763
-2.6833 5.7015 -0.3302 0.9751
-9.8583 5.7456 -0.5980 0.9553
-19.7159 5.8061 -1.0771 0.9210
-31.7736 5.3153 -1.6883 0.8789
-43.9688 -8.7384 -2.3494 0.8356
-45.3570 -14.8715 -2.5016 0.8260
-43.2376 -20.2221 -2.5016 0.8260
-34.8924 -28.1449 -2.3494 0.8356
-9.2488 -31.1284 -1.7019 0.8780
3.4873 -47.6053 -2.5016 0.8260
9.1915 -46.8395 -2.5016 0.8260
13.8637 -42.6310 -2.3494 0.8356
18.8936 -40.6527 -2.3494 0.8356
22.8731 -36.8337 -2.2723 0.8406
23.0176 -28.6773 -1.9271 0.8630
27.8202 -27.1822 -2.0384 0.8557
36.5029 -15.9463 -2.0876 0.8525
45.7230 -13.7052 -2.5016 0.8260
47.6733 -2.3824 -2.5016 0.8260
44.7166 3.1673 -2.3494 0.8356
17.7692 8.2063 -1.0258 0.9246
17.9887 14.3672 -1.2065 0.9119
23.6577 24.0963 -1.7697 0.8735
5.3755 6.9900 -0.4621 0.9653
3.7535 6.3344 -0.3859 0.9709
2.4931 5.6696 -0.3246 0.9755
0.9923 5.6789 -0.3021 0.9772
-1.0884 5.6917 -0.3037 0.9771
-16.2918 26.5203 -1.6312 0.8828
-5.7238 5.6468 -0.4214 0.9683
-9.6409 5.7442 -0.5881 0.9560
-44.0510 -8.3136 -2.3494 0.8356
-45.4985 -14.4329 -2.5016 0.8260
-40.7316 -24.8869 -2.5016 0.8260
-22.4711 -22.6677 -1.6728 0.8800
-9.4036 -30.5656 -1.6760 0.8798
-7.9294 -44.1218 -2.3494 0.8356
-2.7276 -47.6548 -2.5016 0.8260
3.0277 -47.6367 -2.5016 0.8260
13.4515 -42.7629 -2.3494 0.8356
20.3354 -33.4638 -2.0522 0.8548
37.7892 -22.7633 -2.3120 0.8380
45.5885 -14.1460 -2.5016 0.8260
46.9597 -8.5566 -2.5016 0.8260
47.6481 -2.8426 -2.5016 0.8260
44.7451 2.7354 -2.3494 0.8356
44.1129 8.1049 -2.3506 0.8356
17.7708 7.9998 -1.0213 0.9249
17.9826 14.0802 -1.1970 0.9126
23.6549 23.6325 -1.7524 0.8746
23.6953 30.2041 -2.0119 0.8575
3.7984 6.2714 -0.3843 0.9711
2.5585 5.6692 -0.3260 0.9754
1.7757 5.6741 -0.3116 0.9765
1.0489 5.6785 -0.3026 0.9771
-1.7615 5.6958 -0.3125 0.9764
-2.5497 5.7007 -0.3273 0.9753
-3.4122 5.6766 -0.3471 0.9738
-4.4163 5.6684 -0.3766 0.9716
-7.1051 5.6018 -0.4742 0.9644
-12.5596 5.7047 -0.7229 0.9462
-18.3710 5.7979 -1.0096 0.9257
-29.8769 5.5929 -1.5930 0.8854
-44.7578 -2.5194 -2.3494 0.8356
-44.1292 -7.8879 -2.3494 0.8356
-45.6358 -13.9929 -2.5016 0.8260
-43.6200 -19.3835 -2.5016 0.8260
-11.7088 -19.1229 -1.1751 0.9141
-8.3551 -44.0432 -2.3494 0.8356
2.5676 -47.6637 -2.5016 0.8260
8.2853 -47.0083 -2.5016 0.8260
22.8631 -38.4552 -2.3446 0.8359
23.1249 -29.9788 -1.9842 0.8593
32.7821 -15.0812 -1.8911 0.8654
39.0372 6.7834 -2.0765 0.8532
18.3501 5.5298 -1.0044 0.9261
17.9767 13.7977 -1.1876 0.9132
23.6521 23.1779 -1.7355 0.8758
3.8430 6.2089 -0.3827 0.9712
1.8359 5.6737 -0.3125 0.9764
1.1056 5.6782 -0.3032 0.9771
3.4117 47.5318 -2.4974 0.8262
-0.2788 5.6867 -0.2984 0.9775
-0.9748 5.6910 -0.3026 0.9771
-1.7013 5.6954 -0.3115 0.9765
-3.3551 5.7056 -0.3469 0.9738
-4.3320 5.6724 -0.3741 0.9718
-6.9657 5.6017 -0.4685 0.9648
-9.2267 5.7417 -0.5695 0.9574
-17.7601 5.7941 -0.9790 0.9279
-28.7180 5.6635 -1.5340 0.8894
-44.2034 -7.4614 -2.3494 0.8356
-45.7687 -13.5516 -2.5016 0.8260
-38.0051 -28.8796 -2.5016 0.8260
-23.5052 -22.8126 -1.7166 0.8770
-14.5390 -23.2386 -1.4366 0.8960
2.1073 -47.6863 -2.5016 0.8260
7.8313 -47.0860 -2.5016 0.8260
17.7084 -41.1828 -2.3494 0.8356
22.5363 -38.7521 -2.3494 0.8356
37.3426 -23.4887 -2.3120 0.8380
31.9655 -15.0812 -1.8523 0.8680
45.3069 -15.0235 -2.5016 0.8260
46.7857 -9.4616 -2.5016 0.8260
47.5843 -3.7619 -2.5016 0.8260
19.1156 5.5598 -1.0433 0.9234
23.6493 22.7318 -1.7191 0.8769
23.6881 29.0228 -1.9633 0.8607
3.8872 6.1469 -0.3812 0.9713
2.6911 5.6684 -0.3288 0.9752
1.8965 5.6733 -0.3135 0.9763
-1.6415 5.6951 -0.3106 0.9765
-2.4184 5.6998 -0.3245 0.9755
-4.2488 5.6763 -0.3716 0.9720
-6.8295 5.6016 -0.4629 0.9652
-45.8974 -13.1093 -2.5016 0.8260
-43.9861 -18.5377 -2.5016 0.8260
-24.2424 -23.0778 -1.7541 0.8745
-14.7992 -23.1542 -1.4401 0.8958
-11.8392 -24.6303 -1.4322 0.8963
-9.8463 -28.9895 -1.6045 0.8846
-4.1065 -47.5558 -2.5016 0.8260
7.3762 -47.1594 -2.5016 0.8260
12.7998 -45.2274 -2.4634 0.8284
13.4759 -32.1922 -1.8290 0.8695
22.1611 -38.9679 -2.3494 0.8356
23.1175 -31.1967 -2.0349 0.8560
24.2370 -25.5834 -1.8469 0.8684
32.8210 -27.1863 -2.2335 0.8431
37.1140 -23.8482 -2.3120 0.8380
46.6921 -9.9129 -2.5016 0.8260
47.5458 -4.2212 -2.5016 0.8260
47.5866 1.5278 -2.4952 0.8264
-12.2135 -23.9152 -2.3494 0.8978
-6.1450 -26.1408 -2.3494 0.8978
-3.1457 -28.4195 -2.5016 0.8915
3.7365 -28.3479 -2.5016 0.8915
7.1210 -27.6921 -2.5016 0.8915
13.0341 -24.2617 -2.4095 0.8953
15.4633 -21.9543 -2.3494 0.8978
17.9931 -19.9337 -2.3494 0.8978
20.2614 -17.6233 -2.3494 0.8978
23.6756 -16.0321 -2.5016 0.8915
25.4330 -13.0662 -2.5016 0.8915
26.8207 -9.9103 -2.5016 0.8915
27.8185 -6.6103 -2.5016 0.8915
28.4118 -3.2142 -2.5016 0.8915
18.1653 7.0442 -1.7046 0.9248
18.2279 9.7360 -1.8080 0.9204
18.5676 13.0110 -1.9836 0.9130
20.3076 18.2418 -2.3882 0.8962
18.0313 20.6297 -2.3971 0.8958
2.9287 5.6670 -0.5581 0.9747
1.3634 5.6766 -0.5108 0.9768
0.6566 5.6809 -0.5003 0.9773
-0.0317 5.6852 -0.4974 0.9774
-1.4349 5.6938 -0.5137 0.9767
-2.1939 5.6985 -0.5342 0.9758
-5.0423 5.6406 -0.6619 0.9701
-6.3699 5.5947 -0.7417 0.9665
-8.3840 5.7365 -0.8888 0.9600
-11.0663 5.7530 -1.0912 0.9512
-23.6889 5.7500 -2.1327 0.9068
-26.6683 3.1475 -2.3494 0.8978
-28.3742 -3.5311 -2.5016 0.8915
-27.7430 -6.9204 -2.5016 0.8915
-26.7084 -10.2090 -2.5016 0.8915
-23.4952 -16.2954 -2.5016 0.8915
-12.4438 -23.7962 -2.3494 0.8978
-3.4199 -28.3878 -2.5016 0.8915
0.0215 -28.5930 -2.5016 0.8915
10.1445 -26.7330 -2.5016 0.8915
12.9979 -24.7648 -2.4469 0.8938
20.0903 -17.8181 -2.3494 0.8978
23.5197 -16.2600 -2.5016 0.8915
22.6972 5.5455 -2.0442 0.9104
18.9510 13.0086 -2.0110 0.9118
20.4763 18.0392 -2.3875 0.8962
18.2245 20.4489 -2.3964 0.8958
2.9871 5.6457 -0.5588 0.9747
2.1738 5.6716 -0.5314 0.9759
0.7122 5.6806 -0.5009 0.9773
0.0232 5.6848 -0.4974 0.9774
-0.6662 5.6891 -0.5011 0.9773
-1.3765 5.6934 -0.5125 0.9768
-2.9583 5.7032 -0.5621 0.9745
-3.8878 5.6932 -0.6031 0.9727
-4.9476 5.6435 -0.6566 0.9703
-10.8070 5.7514 -1.0710 0.9520
-14.3503 5.5399 -1.3458 0.9401
-28.4069 -3.2570 -2.5016 0.8915
-26.8057 -9.9506 -2.5016 0.8915
-16.1682 -17.9662 -2.1146 0.9075
9.8859 -26.8297 -2.5016 0.8915
12.9736 -25.3094 -2.4882 0.8921
19.9174 -18.0112 -2.3494 0.8978
23.3616 -16.4863 -2.5016 0.8915
27.6856 -7.1462 -2.5016 0.8915
28.3445 -3.7622 -2.5016 0.8915
28.5912 -0.3235 -2.5016 0.8915
26.6931 2.9300 -2.3494 0.8978
18.1570 6.6406 -1.6914 0.9253
20.6429 17.8350 -2.3867 0.8962
18.4159 20.2663 -2.3958 0.8959
4.1243 5.8145 -0.6237 0.9718
3.5697 6.5920 -0.6559 0.9703
0.7679 5.6803 -0.5015 0.9772
0.0780 5.6845 -0.4974 0.9774
-0.6106 5.6887 -0.5006 0.9773
-1.3184 5.6931 -0.5113 0.9768
-2.0682 5.6977 -0.5303 0.9760
-3.8102 5.6968 -0.5996 0.9729
-6.1401 5.6066 -0.7274 0.9672
-14.0066 5.5632 -1.3185 0.9413
-26.6026 3.6618 -2.3494 0.8978
-27.8714 -6.3834 -2.5016 0.8915
-25.5386 -12.8585 -2.5016 0.8915
-15.6416 -21.8276 -2.3494 0.8978
-12.9009 -23.5515 -2.3494 0.8978
-3.9673 -28.3165 -2.5016 0.8915
2.9139 -28.4442 -2.5016 0.8915
12.7748 -25.5256 -2.4973 0.8917
14.8210 -22.3929 -2.3494 0.8978
17.4083 -20.4464 -2.3494 0.8978
26.5225 -10.6828 -2.5016 0.8915
27.6154 -7.4131 -2.5016 0.8915
28.5868 -0.5995 -2.5016 0.8915
26.7201 2.6722 -2.3494 0.8978
26.2043 5.8686 -2.3494 0.8978
18.1530 6.4411 -1.6852 0.9256
18.2901 12.0421 -1.9159 0.9158
4.1633 5.7509 -0.6211 0.9719
3.6163 6.5267 -0.6528 0.9705
2.3000 5.6708 -0.5354 0.9757
0.8238 5.6799 -0.5021 0.9772
0.1329 5.6842 -0.4974 0.9774
-4.7653 5.6520 -0.6468 0.9708
-13.6765 5.5856 -1.2925 0.9424
-21.2540 5.8156 -1.9278 0.9153
-26.5660 3.9184 -2.3494 0.8978
-28.4645 -2.7080 -2.5016 0.8915
-27.9317 -6.1140 -2.5016 0.8915
-26.9929 -9.4313 -2.5016 0.8915
-23.9573 -15.6081 -2.5016 0.8915
-18.3451 -19.6103 -2.3494 0.8978
-15.8516 -21.6756 -2.3494 0.8978
-7.1497 -25.8841 -2.3494 0.8978
2.6392 -28.4710 -2.5016 0.8915
12.5470 -25.6872 -2.5011 0.8916
14.6041 -22.5349 -2.3494 0.8978
19.5659 -18.3924 -2.3494 0.8978
27.5425 -7.6794 -2.5016 0.8915
28.2665 -4.3087 -2.5016 0.8915
28.5797 -0.8755 -2.5016 0.8915
26.7447 2.4141 -2.3494 0.8978
26.2597 5.6154 -2.3494 0.8978
18.2638 6.2826 -1.6898 0.9254
18.2334 8.8517 -1.7733 0.9218
18.7929 19.8955 -2.3944 0.8959
2.3639 5.6704 -0.5375 0.9756
1.5971 5.6752 -0.5158 0.9766
0.8798 5.6796 -0.5028 0.9772
0.1878 5.6838 -0.4975 0.9774
-3.6576 5.7040 -0.5928 0.9732
-4.6762 5.6562 -0.6421 0.9710
-5.9189 5.6180 -0.7140 0.9678
-10.0833 5.7470 -1.0154 0.9545
-26.8365 0.9518 -2.3494 0.8978
-25.7822 -12.3630 -2.5016 0.8915
-22.0810 -18.1656 -2.5016 0.8915
-18.5336 -19.4322 -2.3494 0.8978
-16.0602 -21.5215 -2.3494 0.8978
-10.4522 -24.7357 -2.3494 0.8978
-7.3993 -25.8139 -2.3494 0.8978
2.3642 -28.4951 -2.5016 0.8915
5.7765 -28.0035 -2.5016 0.8915
14.3859 -22.6749 -2.3494 0.8978
17.0103 -20.7787 -2.3494 0.8978
19.3874 -18.5804 -2.3494 0.8978
22.8317 -17.1239 -2.4969 0.8917
27.4671 -7.9450 -2.5016 0.8915
28.2236 -4.5815 -2.5016 0.8915
28.5699 -1.1514 -2.5016 0.8915
26.7667 2.1558 -2.3494 0.8978
18.8429 6.2790 -1.7377 0.9233
4.2352 5.6186 -0.6156 0.9721
3.7081 6.3979 -0.6470 0.9707
0.9360 5.6792 -0.5036 0.9772
-1.1455 5.6920 -0.5080 0.9770
-3.5702 5.6879 -0.5875 0.9734
-4.5883 5.6603 -0.6375 0.9712
-7.5356 5.7087 -0.8271 0.9628
-19.7159 5.8061 -1.7982 0.9208
-28.5115 -2.1579 -2.5016 0.8915
-28.0446 -5.5736 -2.5016 0.8915
-25.9003 -12.1135 -2.5016 0.8915
-24.2542 -15.1426 -2.5016 0.8915
2.0890 -28.5166 -2.5016 0.8915
5.5059 -28.0579 -2.5016 0.8915
8.8427 -27.1913 -2.5016 0.8915
14.1663 -22.8127 -2.3494 0.8978
15.6984 -19.5584 -2.1942 0.9042
22.6070 -17.2988 -2.4905 0.8920
24.6339 -14.5167 -2.5016 0.8915
26.2020 -11.4464 -2.5016 0.8915
26.7863 1.8973 -2.3494 0.8978
16.4980 5.3212 -1.5166 0.9328
12.2499 5.6574 -1.1805 0.9473
18.2689 11.2836 -1.8786 0.9174
5.3755 6.9900 -0.7715 0.9652
2.4931 5.6696 -0.5419 0.9754
0.9923 5.6789 -0.5044 0.9771
0.2966 5.6602 -0.4959 0.9775
-0.3891 5.6874 -0.4987 0.9774
-1.0884 5.6917 -0.5070 0.9770
-1.8221 5.6962 -0.5232 0.9763
-7.1927 5.5591 -0.7953 0.9642
-12.7594 5.6475 -1.2208 0.9455
-26.4414 4.6862 -2.3494 0.8978
-26.8132 1.4697 -2.3494 0.8978
-28.0971 -5.3027 -2.5016 0.8915
-27.2547 -8.6456 -2.5016 0.8915
-26.0161 -11.8629 -2.5016 0.8915
-22.4277 -17.7359 -2.5016 0.8915
-16.4727 -21.2075 -2.3494 0.8978
-10.9279 -24.5293 -2.3494 0.8978
-7.8962 -25.6662 -2.3494 0.8978
-5.0576 -28.1422 -2.5016 0.8915
-1.6339 -28.5463 -2.5016 0.8915
5.2346 -28.1098 -2.5016 0.8915
8.5797 -27.2755 -2.5016 0.8915
19.0251 -18.9513 -2.3494 0.8978
22.1675 -17.3044 -2.4603 0.8932
24.4926 -14.7538 -2.5016 0.8915
26.0903 -11.6988 -2.5016 0.8915
28.1299 -5.1255 -2.5016 0.8915
26.8034 1.6386 -2.3494 0.8978
12.4947 5.6247 -1.1988 0.9465
18.2621 11.0374 -1.8669 0.9179
19.3441 19.3258 -2.3923 0.8960
1.7757 5.6741 -0.5202 0.9764
1.0488 5.6785 -0.5052 0.9771
-0.3339 5.6870 -0.4984 0.9774
-1.0315 5.6913 -0.5060 0.9770
-2.5497 5.7007 -0.5464 0.9752
-3.4122 5.6766 -0.5795 0.9738
-4.4163 5.6684 -0.6287 0.9716
-5.6019 5.6343 -0.6951 0.9686
-12.4757 5.6666 -1.1988 0.9465
-28.5479 -1.6069 -2.5016 0.8915
-26.1294 -11.6111 -2.5016 0.8915
-22.5979 -17.5185 -2.5016 0.8915
-11.6274 -18.9900 -1.9481 0.9145
-8.1437 -25.5888 -2.3494 0.8978
-1.9093 -28.5292 -2.5016 0.8915
1.5334 -28.4662 -2.4941 0.8918
4.9631 -28.1590 -2.5016 0.8915
8.3161 -27.3570 -2.5016 0.8915
11.5481 -26.1573 -2.5016 0.8915
13.7232 -23.0820 -2.3494 0.8978
16.4014 -21.2626 -2.3494 0.8978
24.3490 -14.9896 -2.5016 0.8915
27.2255 -8.7370 -2.5016 0.8915
28.5245 -1.9783 -2.5016 0.8915
17.7785 5.3575 -1.6245 0.9282
12.8228 5.6242 -1.2250 0.9453
19.5238 19.1324 -2.3915 0.8960
1.8359 5.6737 -0.5217 0.9763
1.0846 15.1110 -1.3254 0.9410
-0.2788 5.6867 -0.4981 0.9774
-0.9748 5.6910 -0.5051 0.9771
-1.7013 5.6954 -0.5200 0.9764
-4.3320 5.6724 -0.6244 0.9717
-5.4998 5.6395 -0.6892 0.9689
-9.2267 5.7417 -0.9508 0.9573
-12.2019 5.6850 -1.1777 0.9474
-17.7601 5.7941 -1.6344 0.9277
-28.1942 -4.7591 -2.5016 0.8915
-27.4165 -8.1177 -2.5016 0.8915
-26.2402 -11.3584 -2.5016 0.8915
-22.7660 -17.2995 -2.5016 0.8915
-16.8791 -20.8854 -2.3494 0.8978
-11.8664 -18.9669 -1.9574 0.9141
-11.3994 -24.3137 -2.3494 0.8978
1.2623 -28.5652 -2.5016 0.8915
4.6911 -28.2056 -2.5016 0.8915
8.0516 -27.4360 -2.5016 0.8915
13.4998 -23.2134 -2.3494 0.8978
16.1954 -21.4200 -2.3494 0.8978
18.6556 -19.3151 -2.3494 0.8978
21.3194 -17.3150 -2.4029 0.8956
27.1399 -8.9994 -2.5016 0.8915
28.5041 -2.2535 -2.5016 0.8915
18.2491 10.5539 -1.8444 0.9188
19.7017 18.9373 -2.3908 0.8961
17.3414 21.2468 -2.3994 0.8957
3.8872 6.1469 -0.6363 0.9712
1.1625 5.6778 -0.5071 0.9770
0.4625 5.6752 -0.4982 0.9774
-0.9182 5.6906 -0.5043 0.9771
-1.6415 5.6951 -0.5185 0.9765
-3.2811 5.7051 -0.5758 0.9739
-9.0292 5.7405 -0.9361 0.9579
-11.9377 5.7027 -1.1575 0.9483
-26.2946 5.4499 -2.3494 0.8978
-26.7594 2.2456 -2.3494 0.8978
-28.2389 -4.4867 -2.5016 0.8915
-27.4936 -7.8527 -2.5016 0.8915
-26.3487 -11.1045 -2.5016 0.8915
-19.4497 -18.5153 -2.3494 0.8978
-17.0800 -20.7215 -2.3494 0.8978
-14.4619 -22.6265 -2.3494 0.8978
-11.6337 -24.2026 -2.3494 0.8978
-5.8563 -27.9166 -2.4955 0.8918
11.0409 -26.3754 -2.5016 0.8915
13.2750 -23.3427 -2.3494 0.8978
25.7405 -12.4494 -2.5016 0.8915
27.0517 -9.2611 -2.5016 0.8915
27.9697 -5.9380 -2.5016 0.8915
28.4810 -2.5286 -2.5016 0.8915
28.5783 0.9175 -2.5016 0.8915
-9.2664 -18.1444 -2.5016 0.9212
-4.6622 -19.8330 -2.5016 0.9212
-2.2414 -20.2500 -2.5016 0.9212
2.6624 -20.1990 -2.5016 0.9212
5.0740 -19.7317 -2.5016 0.9212
7.4119 -18.9776 -2.5016 0.9212
11.7320 -16.6567 -2.5016 0.9212
15.3723 -13.3708 -2.5016 0.9212
18.1220 -9.3101 -2.5016 0.9212
19.1108 -7.0614 -2.5016 0.9212
19.8217 -4.7101 -2.5016 0.9212
20.2445 -2.2903 -2.5016 0.9212
18.9760 2.4546 -2.3494 0.9258
8.0665 5.6525 -1.2094 0.9611
5.0637 5.7935 -0.9448 0.9695
4.0391 5.9339 -0.8814 0.9715
2.9287 5.6670 -0.7832 0.9746
0.6566 5.6809 -0.7022 0.9772
-0.0317 5.6852 -0.6981 0.9773
-0.7220 5.6894 -0.7042 0.9772
-1.4349 5.6938 -0.7210 0.9766
-2.1939 5.6985 -0.7497 0.9757
-3.9664 5.6895 -0.8516 0.9724
-6.3439 5.5720 -1.0367 0.9665
-8.3840 5.7365 -1.2473 0.9599
-11.0663 5.7530 -1.5314 0.9510
-14.1961 5.3235 -1.8616 0.9407
-19.0308 -7.2743 -2.5016 0.9212
-16.7412 -11.6111 -2.5016 0.9212
-15.1813 -13.5052 -2.4949 0.9214
-13.4817 -15.2751 -2.5016 0.9212
-11.5454 -16.7866 -2.5016 0.9212
-7.1996 -19.0591 -2.5016 0.9212
0.0153 -20.3736 -2.5016 0.9212
2.4672 -20.2237 -2.5016 0.9212
7.2283 -19.0483 -2.5016 0.9212
11.5706 -16.7692 -2.5016 0.9212
15.2425 -13.5186 -2.5016 0.9212
19.0417 -7.2456 -2.5016 0.9212
20.3736 -0.0338 -2.5016 0.9212
18.9988 2.2713 -2.3494 0.9258
18.5873 4.5413 -2.3494 0.9258
17.9057 6.7453 -2.3494 0.9258
16.9927 8.8664 -2.3534 0.9257
8.2345 5.6525 -1.2264 0.9605
4.0818 5.8740 -0.8783 0.9716
2.9871 5.6457 -0.7843 0.9746
1.4214 5.6762 -0.7185 0.9767
0.7122 5.6806 -0.7029 0.9772
-0.6662 5.6891 -0.7033 0.9772
-2.1309 5.6981 -0.7470 0.9758
-2.9583 5.7032 -0.7889 0.9744
-3.8878 5.6932 -0.8465 0.9726
-8.2112 5.7354 -1.2298 0.9604
-10.8070 5.7514 -1.5031 0.9519
-13.9769 5.3958 -1.8396 0.9414
-18.5497 4.6926 -2.3494 0.9258
-18.9797 2.4260 -2.3494 0.9258
-20.2410 -2.3208 -2.5016 0.9212
-9.9582 -2.3821 -1.2572 0.9596
-18.1080 -9.3374 -2.5016 0.9212
-16.8525 -11.4489 -2.5016 0.9212
-15.2530 -13.3075 -2.4854 0.9217
-13.6286 -15.1442 -2.5016 0.9212
-11.7069 -16.6744 -2.5016 0.9212
-9.6150 -17.9621 -2.5016 0.9212
-7.3833 -18.9888 -2.5016 0.9212
9.2937 -18.1304 -2.5016 0.9212
13.3568 -15.3844 -2.5016 0.9212
15.1113 -13.6651 -2.5016 0.9212
16.6461 -11.7471 -2.5016 0.9212
20.1965 -2.6807 -2.5016 0.9212
20.3723 -0.2305 -2.5016 0.9212
19.0198 2.0878 -2.3494 0.9258
18.6303 4.3617 -2.3494 0.9258
8.4073 5.6524 -1.2439 0.9600
14.5891 12.6047 -2.3673 0.9252
5.2624 5.7912 -0.9608 0.9690
4.1243 5.8145 -0.8753 0.9717
3.5697 6.5920 -0.9205 0.9702
2.2367 5.6712 -0.7485 0.9757
-2.8885 5.7027 -0.7849 0.9746
-6.1192 5.5876 -1.0175 0.9672
-8.0432 5.7344 -1.2129 0.9610
-10.5571 5.7499 -1.4760 0.9527
-13.7379 5.4565 -1.8150 0.9422
-18.9554 2.6092 -2.3494 0.9258
-20.2625 -2.1252 -2.5016 0.9212
-18.1973 -9.1622 -2.5016 0.9212
-16.9623 -11.2857 -2.5016 0.9212
-13.7742 -15.0119 -2.5016 0.9212
-2.8269 -20.1766 -2.5016 0.9212
-0.3781 -20.3701 -2.5016 0.9212
2.0763 -20.2676 -2.5016 0.9212
6.8592 -19.1843 -2.5016 0.9212
14.9786 -13.8104 -2.5016 0.9212
17.8448 -9.8310 -2.5016 0.9212
20.1697 -2.8756 -2.5016 0.9212
19.0391 1.9040 -2.3494 0.9258
14.7067 12.4604 -2.3667 0.9253
2.3000 5.6708 -0.7514 0.9756
-0.5550 5.6884 -0.7018 0.9772
-1.2605 5.6927 -0.7159 0.9768
-2.8195 5.7023 -0.7811 0.9747
-4.7653 5.6520 -0.9077 0.9706
-6.0088 5.5941 -1.0080 0.9675
-7.8797 5.7334 -1.1965 0.9615
-10.3160 5.7484 -1.4500 0.9535
-13.4192 5.4805 -1.7798 0.9433
-18.4557 5.0499 -2.3494 0.9258
-18.9293 2.7920 -2.3494 0.9258
-20.3621 0.5254 -2.5010 0.9212
-20.2821 -1.9295 -2.5016 0.9212
-17.0705 -11.1214 -2.5016 0.9212
-15.6079 -13.0950 -2.5016 0.9212
-13.9184 -14.8783 -2.5016 0.9212
-12.0266 -16.4452 -2.5016 0.9212
-9.9600 -17.7731 -2.5016 0.9212
-7.7485 -18.8427 -2.5016 0.9212
-5.4245 -19.6382 -2.5016 0.9212
-0.5747 -20.3655 -2.5016 0.9212
13.0573 -15.6395 -2.5016 0.9212
18.8239 -7.7940 -2.5016 0.9212
20.1410 -3.0701 -2.5016 0.9212
20.3641 -0.6238 -2.5016 0.9212
19.0566 1.7202 -2.3494 0.9258
5.4680 5.7888 -0.9777 0.9684
3.6624 6.4621 -0.9120 0.9705
2.3639 5.6704 -0.7543 0.9755
1.5971 5.6752 -0.7239 0.9765
0.1878 5.6838 -0.6983 0.9773
-1.2029 5.6924 -0.7144 0.9768
-2.7511 5.7019 -0.7773 0.9748
-3.6576 5.7040 -0.8320 0.9731
-4.6762 5.6562 -0.9011 0.9709
-7.7206 5.7324 -1.1807 0.9620
-13.1125 5.5035 -1.7461 0.9443
-10.6550 3.0263 -1.3600 0.9563
-18.9014 2.9746 -2.3494 0.9258
-20.3301 0.7211 -2.4978 0.9213
-20.2998 -1.7336 -2.5016 0.9212
-12.1848 -16.3284 -2.5016 0.9212
-10.1311 -17.6761 -2.5016 0.9212
-7.9301 -18.7670 -2.5016 0.9212
-5.6138 -19.5849 -2.5016 0.9212
1.6846 -20.3039 -2.5016 0.9212
4.1160 -19.9535 -2.5016 0.9212
8.7647 -18.3920 -2.5016 0.9212
10.9146 -17.2034 -2.5016 0.9212
12.9057 -15.7648 -2.5016 0.9212
14.7092 -14.0970 -2.5016 0.9212
17.6516 -10.1737 -2.5016 0.9212
18.7478 -7.9754 -2.5016 0.9212
19.5713 -5.6611 -2.5016 0.9212
20.3571 -0.8204 -2.5016 0.9212
18.1527 6.0490 -2.3494 0.9258
17.3040 8.1951 -2.3509 0.9257
8.9570 5.6524 -1.3005 0.9582
13.4014 13.9161 -2.3722 0.9251
4.2352 5.6186 -0.8639 0.9720
2.4282 5.6700 -0.7573 0.9754
0.9360 5.6792 -0.7067 0.9771
-0.4443 5.6877 -0.7005 0.9773
-1.1455 5.6920 -0.7129 0.9769
-2.6833 5.7015 -0.7737 0.9749
-4.5883 5.6603 -0.8947 0.9711
-5.7927 5.6055 -0.9898 0.9680
-7.2424 5.4867 -1.1156 0.9640
-18.8718 3.1570 -2.3494 0.9258
-20.2963 0.9161 -2.4946 0.9214
-20.3156 -1.5376 -2.5016 0.9212
-10.8203 -2.1504 -1.3545 0.9565
-9.8534 -3.2307 -1.2732 0.9591
-17.1870 -10.7304 -2.4878 0.9216
-14.2031 -14.6068 -2.5016 0.9212
-10.3013 -17.5775 -2.5016 0.9212
-5.8027 -19.5298 -2.5016 0.9212
1.4885 -20.3192 -2.5016 0.9212
3.9232 -19.9924 -2.5016 0.9212
6.3008 -19.3749 -2.5016 0.9212
8.5867 -18.4758 -2.5016 0.9212
10.7480 -17.3080 -2.5016 0.9212
12.7529 -15.8887 -2.5016 0.9212
16.1801 -12.3810 -2.5016 0.9212
18.6700 -8.1560 -2.5016 0.9212
19.5158 -5.8497 -2.5016 0.9212
20.3483 -1.0169 -2.5016 0.9212
20.2835 1.4367 -2.4967 0.9213
0.9923 5.6789 -0.7078 0.9770
0.2966 5.6602 -0.6959 0.9774
-0.3891 5.6874 -0.7000 0.9773
-1.0884 5.6917 -0.7115 0.9769
-1.8221 5.6962 -0.7343 0.9762
-2.6162 5.7011 -0.7702 0.9750
-10.1548 16.5302 -2.3820 0.9248
-18.8405 3.3390 -2.3494 0.9258
-19.6140 1.0751 -2.4119 0.9239
-20.3295 -1.3413 -2.5016 0.9212
-11.2140 -2.1164 -1.4012 0.9551
-9.8512 -3.1250 -1.2690 0.9592
-18.5374 -8.4528 -2.5016 0.9212
-15.9806 -12.6375 -2.5016 0.9212
-5.9909 -19.4729 -2.5016 0.9212
-3.6038 -20.0524 -2.5016 0.9212
1.2923 -20.3326 -2.5016 0.9212
3.7300 -20.0293 -2.5016 0.9212
6.1134 -19.4348 -2.5016 0.9212
8.4080 -18.5578 -2.5016 0.9212
14.4343 -14.3783 -2.5016 0.9212
16.0598 -12.5366 -2.5016 0.9212
17.4519 -10.5126 -2.5016 0.9212
20.0436 -3.6521 -2.5016 0.9212
18.8191 3.4577 -2.3494 0.9258
18.2662 5.6974 -2.3494 0.9258
9.3480 5.6498 -1.3411 0.9569
3.7984 6.2714 -0.9003 0.9709
2.5585 5.6692 -0.7637 0.9752
1.0488 5.6785 -0.7090 0.9770
-0.3339 5.6870 -0.6995 0.9773
-1.7615 5.6958 -0.7320 0.9763
-2.5497 5.7007 -0.7668 0.9751
-3.4122 5.6766 -0.8132 0.9737
-4.4163 5.6684 -0.8823 0.9715
-5.5843 5.6166 -0.9725 0.9686
-7.0082 5.5254 -1.0958 0.9647
-12.3253 5.5982 -1.6621 0.9469
-18.2469 5.7587 -2.3494 0.9258
-18.8074 3.5207 -2.3494 0.9258
-19.0944 1.2317 -2.3494 0.9258
-20.3414 -1.1450 -2.5016 0.9212
-11.6969 -2.0908 -1.4590 0.9532
-9.8487 -3.0198 -1.2648 0.9593
-17.4871 -10.4541 -2.5016 0.9212
-16.1019 -12.4826 -2.5016 0.9212
-8.4702 -18.5295 -2.5016 0.9212
-1.3605 -20.3282 -2.5016 0.9212
3.5364 -20.0644 -2.5016 0.9212
5.9255 -19.4929 -2.5016 0.9212
8.2285 -18.6381 -2.5016 0.9212
10.4118 -17.5123 -2.5016 0.9212
12.4438 -16.1319 -2.5016 0.9212
14.2948 -14.5170 -2.5016 0.9212
15.9380 -12.6911 -2.5016 0.9212
18.5089 -8.5150 -2.5016 0.9212
20.0075 -3.8454 -2.5016 0.9212
20.3248 -1.4096 -2.5016 0.9212
20.3467 1.0469 -2.5016 0.9212
18.3203 5.5208 -2.3494 0.9258
17.5227 7.6856 -2.3494 0.9258
9.5875 5.6689 -1.3676 0.9561
15.2731 11.7226 -2.3640 0.9253
13.7900 13.5136 -2.3707 0.9251
2.6245 5.6688 -0.7670 0.9751
1.8359 5.6737 -0.7322 0.9763
1.1056 5.6782 -0.7103 0.9770
1.0666 14.8597 -1.8292 0.9417
-0.2788 5.6867 -0.6991 0.9773
-0.9748 5.6910 -0.7089 0.9770
-1.7013 5.6954 -0.7298 0.9763
-2.4838 5.7002 -0.7635 0.9753
-4.3320 5.6724 -0.8764 0.9716
-5.4827 5.6219 -0.9642 0.9688
-9.2267 5.7417 -1.3343 0.9571
-12.1039 5.6393 -1.6396 0.9476
-18.7725 3.7022 -2.3494 0.9258
-19.0816 1.4160 -2.3494 0.9258
-20.3516 -0.9486 -2.5016 0.9212
-20.0895 -3.3911 -2.5016 0.9212
-9.8498 -2.9164 -1.2613 0.9594
-18.6972 -8.0933 -2.5016 0.9212
-17.5872 -10.2847 -2.5016 0.9212
-14.6201 -14.1893 -2.5016 0.9212
-12.8062 -15.8457 -2.5016 0.9212
-8.6487 -18.4468 -2.5016 0.9212
-6.3658 -19.3536 -2.5016 0.9212
-3.9902 -19.9791 -2.5016 0.9212
0.8994 -20.3538 -2.5016 0.9212
3.3426 -20.0976 -2.5016 0.9212
10.2423 -17.6120 -2.5016 0.9212
19.3382 -6.4124 -2.5016 0.9212
20.3103 -1.6057 -2.5016 0.9212
20.3559 0.8504 -2.5016 0.9212
18.3727 5.3437 -2.3494 0.9258
17.5961 7.5160 -2.3494 0.9258
15.3819 11.5719 -2.3634 0.9254
4.9581 6.0747 -0.9628 0.9689
3.8872 6.1469 -0.8930 0.9711
1.8965 5.6733 -0.7345 0.9762
1.1625 5.6778 -0.7116 0.9769
-0.2238 5.6863 -0.6987 0.9773
-0.9182 5.6906 -0.7078 0.9770
-1.6415 5.6951 -0.7277 0.9764
-3.2811 5.7051 -0.8081 0.9738
-4.2488 5.6763 -0.8706 0.9718
-5.3790 5.6232 -0.9555 0.9691
-18.7359 3.8833 -2.3494 0.9258
-19.0671 1.6001 -2.3494 0.9258
-20.3598 -0.7521 -2.5016 0.9212
-9.8668 -2.8182 -1.2599 0.9595
-12.9586 -15.7214 -2.5016 0.9212
-10.9722 -17.1667 -2.5016 0.9212
-8.8264 -18.3624 -2.5016 0.9212
-4.1829 -19.9396 -2.5016 0.9212
0.7030 -20.3615 -2.5016 0.9212
5.5480 -19.6037 -2.5016 0.9212
12.1299 -16.3692 -2.5016 0.9212
14.0119 -14.7903 -2.5016 0.9212
17.1402 -11.0137 -2.5016 0.9212
19.9295 -4.2311 -2.5016 0.9212
20.2938 -1.8017 -2.5016 0.9212
20.3632 0.6538 -2.5016 0.9212
-7.1836 -14.0661 -2.5016 0.9380
-5.4385 -14.8284 -2.5016 0.9380
-3.6143 -15.3752 -2.5016 0.9380
-1.7376 -15.6984 -2.5016 0.9380
0.1644 -15.7934 -2.5016 0.9380
5.7459 -14.7120 -2.5016 0.9380
9.0950 -12.9128 -2.5016 0.9380
14.0487 -7.2175 -2.5016 0.9380
14.7108 1.9029 -2.3494 0.9417
6.3133 5.6711 -1.3441 0.9662
2.1114 5.6720 -0.9586 0.9758
-0.7220 5.6894 -0.9083 0.9770
-1.4349 5.6938 -0.9300 0.9765
-3.9555 5.6740 -1.0955 0.9724
-5.0061 5.6001 -1.1897 0.9700
-6.2698 5.5068 -1.3217 0.9668
-11.0663 5.7530 -1.9754 0.9507
-14.7311 1.7386 -2.3494 0.9417
-15.7942 -0.0500 -2.5016 0.9380
-13.9673 -7.3738 -2.5016 0.9380
-10.4515 -11.8417 -2.5016 0.9380
-8.9503 -13.0135 -2.5016 0.9380
-7.3190 -13.9961 -2.5016 0.9380
-5.5814 -14.7752 -2.5016 0.9380
-1.8891 -15.6809 -2.5016 0.9380
0.0119 -15.7943 -2.5016 0.9380
1.9127 -15.6780 -2.5016 0.9380
8.9699 -13.0000 -2.5016 0.9380
11.8165 -10.4800 -2.5016 0.9380
13.9784 -7.3528 -2.5016 0.9380
14.7617 -5.6170 -2.5016 0.9380
15.3304 -3.7996 -2.5016 0.9380
15.6763 -1.9269 -2.5016 0.9380
14.4095 3.5206 -2.3494 0.9417
13.8810 5.2292 -2.3494 0.9417
13.1508 6.8618 -2.3494 0.9417
6.4566 5.6882 -1.3629 0.9658
4.0818 5.8740 -1.1329 0.9714
2.9871 5.6457 -1.0116 0.9745
2.1738 5.6716 -0.9620 0.9757
1.4214 5.6762 -0.9268 0.9766
0.7122 5.6806 -0.9068 0.9771
0.0232 5.6848 -0.9004 0.9772
-1.3765 5.6934 -0.9277 0.9766
-2.1309 5.6981 -0.9635 0.9757
-2.9583 5.7032 -1.0176 0.9743
-3.8783 5.6792 -1.0892 0.9725
-4.9154 5.6067 -1.1810 0.9703
-6.1584 5.5152 -1.3094 0.9671
-13.8380 5.3421 -2.3494 0.9417
-14.3803 3.6379 -2.3494 0.9417
-9.3742 -2.2424 -1.5266 0.9617
-14.0378 -7.2387 -2.5016 0.9380
-11.9015 -10.3834 -2.5016 0.9380
-9.0755 -12.9265 -2.5016 0.9380
-7.4538 -13.9248 -2.5016 0.9380
-5.7238 -14.7207 -2.5016 0.9380
3.6375 -15.3697 -2.5016 0.9380
5.4608 -14.8202 -2.5016 0.9380
7.2048 -14.0553 -2.5016 0.9380
10.3546 -11.9265 -2.5016 0.9380
11.7147 -10.5936 -2.5016 0.9380
12.9045 -9.1067 -2.5016 0.9380
13.9068 -7.4874 -2.5016 0.9380
14.7068 -5.7593 -2.5016 0.9380
15.2930 -3.9474 -2.5016 0.9380
15.6570 -2.0782 -2.5016 0.9380
15.7933 -0.1787 -2.5016 0.9380
14.8120 1.6259 -2.3601 0.9414
14.4428 3.3813 -2.3494 0.9417
13.2164 6.7345 -2.3494 0.9417
12.3195 8.2827 -2.3512 0.9417
5.1453 5.6623 -1.2118 0.9695
2.2367 5.6712 -0.9656 0.9756
0.0780 5.6845 -0.9004 0.9772
-0.6105 5.6887 -0.9062 0.9771
-1.3184 5.6931 -0.9256 0.9766
-2.0682 5.6977 -0.9600 0.9758
-4.8259 5.6131 -1.1724 0.9705
-13.7857 5.4755 -2.3494 0.9417
-14.6948 2.0227 -2.3494 0.9417
-15.7922 0.2550 -2.5016 0.9380
-15.7081 -1.6475 -2.5016 0.9380
-9.4068 -2.1545 -1.5285 0.9617
-9.2074 -3.3171 -1.5501 0.9611
-12.0011 -10.2680 -2.5016 0.9380
-10.6782 -11.6377 -2.5016 0.9380
-2.1915 -15.6415 -2.5016 0.9380
1.6096 -15.7120 -2.5016 0.9380
5.3175 -14.8722 -2.5016 0.9380
7.0687 -14.1242 -2.5016 0.9380
10.2390 -12.0259 -2.5016 0.9380
13.8338 -7.6213 -2.5016 0.9380
14.6505 -5.9010 -2.5016 0.9380
15.2542 -4.0949 -2.5016 0.9380
15.6362 -2.2292 -2.5016 0.9380
15.7908 -0.3312 -2.5016 0.9380
14.7991 1.4800 -2.3556 0.9415
13.9794 4.9602 -2.3494 0.9417
13.2808 6.6066 -2.3494 0.9417
4.1633 5.7509 -1.1245 0.9717
3.6163 6.5267 -1.1818 0.9702
2.3000 5.6708 -0.9692 0.9755
0.8238 5.6799 -0.9090 0.9770
0.1329 5.6842 -0.9005 0.9772
-0.5550 5.6884 -0.9052 0.9771
-1.2605 5.6927 -0.9235 0.9767
-2.0061 5.6973 -0.9567 0.9758
-2.8195 5.7023 -1.0075 0.9746
-3.7263 5.6895 -1.0772 0.9728
-4.7378 5.6193 -1.1641 0.9707
-7.2691 5.2891 -1.4238 0.9642
-13.7322 5.6083 -2.3494 0.9417
-14.6746 2.1645 -2.3494 0.9417
-15.7233 -1.4958 -2.5016 0.9380
-9.5558 -2.0917 -1.5493 0.9612
-9.2081 -3.2173 -1.5449 0.9613
-14.1750 -6.9663 -2.5016 0.9380
-13.2336 -8.6216 -2.5016 0.9380
-12.0997 -10.1517 -2.5016 0.9380
-10.7900 -11.5341 -2.5016 0.9380
-9.3234 -12.7489 -2.5016 0.9380
-7.7213 -13.7783 -2.5016 0.9380
-4.2052 -15.2242 -2.5016 0.9380
-2.3424 -15.6196 -2.5016 0.9380
-0.4455 -15.7880 -2.5016 0.9380
5.1736 -14.9229 -2.5016 0.9380
6.9320 -14.1918 -2.5016 0.9380
10.1224 -12.1242 -2.5016 0.9380
12.7263 -9.3541 -2.5016 0.9380
13.7596 -7.7545 -2.5016 0.9380
14.5929 -6.0422 -2.5016 0.9380
15.2140 -4.2420 -2.5016 0.9380
15.6139 -2.3801 -2.5016 0.9380
15.7869 -0.4836 -2.5016 0.9380
14.8127 1.3371 -2.3556 0.9415
13.3440 6.4781 -2.3494 0.9417
12.4723 8.0402 -2.3503 0.9417
11.4405 9.5048 -2.3558 0.9415
5.3490 5.6629 -1.2338 0.9689
3.6624 6.4621 -1.1764 0.9704
2.3639 5.6704 -0.9730 0.9754
1.5971 5.6752 -0.9338 0.9764
-1.9443 5.6969 -0.9534 0.9759
-2.7511 5.7019 -1.0027 0.9747
-3.6524 5.6960 -1.0717 0.9730
-4.6508 5.6255 -1.1561 0.9709
-10.0833 5.7470 -1.8382 0.9541
-13.6774 5.7406 -2.3494 0.9417
-14.6530 2.3060 -2.3494 0.9417
-15.7844 0.5598 -2.5016 0.9380
-9.1957 -3.1137 -1.5377 0.9614
-14.2416 -6.8291 -2.5016 0.9380
-12.1972 -10.0344 -2.5016 0.9380
-10.9009 -11.4294 -2.5016 0.9380
-9.4461 -12.6582 -2.5016 0.9380
-7.8539 -13.7031 -2.5016 0.9380
-0.5979 -15.7829 -2.5016 0.9380
1.3060 -15.7402 -2.5016 0.9380
8.4613 -13.3366 -2.5016 0.9380
13.6841 -7.8870 -2.5016 0.9380
14.5339 -6.1827 -2.5016 0.9380
15.1723 -4.3886 -2.5016 0.9380
15.5902 -2.5307 -2.5016 0.9380
14.8249 1.1940 -2.3556 0.9415
14.5347 2.9616 -2.3494 0.9417
14.0726 4.6894 -2.3494 0.9417
5.4537 5.6632 -1.2453 0.9687
4.2352 5.6186 -1.1144 0.9719
1.6563 5.6748 -0.9363 0.9763
0.9360 5.6792 -0.9116 0.9770
0.2428 5.6835 -0.9010 0.9772
-0.4443 5.6877 -0.9036 0.9772
-2.6833 5.7015 -0.9980 0.9748
-9.8583 5.7456 -1.8072 0.9548
-13.6214 5.8724 -2.3494 0.9417
-14.6300 2.4474 -2.3494 0.9417
-15.7782 0.7121 -2.5016 0.9380
-9.1806 -3.0101 -1.5302 0.9616
-14.3069 -6.6913 -2.5016 0.9380
-11.0107 -11.3236 -2.5016 0.9380
-6.2878 -14.4887 -2.5016 0.9380
-4.4984 -15.1401 -2.5016 0.9380
-2.6435 -15.5715 -2.5016 0.9380
-0.7503 -15.7765 -2.5016 0.9380
3.0414 -15.4987 -2.5016 0.9380
6.6567 -14.3230 -2.5016 0.9380
11.2970 -11.0379 -2.5016 0.9380
13.6073 -8.0187 -2.5016 0.9380
15.1292 -4.5349 -2.5016 0.9380
15.7746 -0.7883 -2.5016 0.9380
14.8357 1.0508 -2.3556 0.9415
14.5626 2.8211 -2.3494 0.9417
14.1172 4.5533 -2.3494 0.9417
11.6177 9.2789 -2.3549 0.9416
5.5676 5.6708 -1.2587 0.9683
3.7535 6.3344 -1.1662 0.9706
1.7158 5.6744 -0.9389 0.9763
-1.0884 5.6917 -0.9178 0.9768
-1.8221 5.6962 -0.9472 0.9761
-2.6162 5.7011 -0.9935 0.9749
-9.6409 5.7442 -1.7775 0.9556
-12.9850 5.7473 -2.2491 0.9441
-14.6057 2.5885 -2.3494 0.9417
-10.6885 -2.0172 -1.7228 0.9569
-9.1774 -2.9112 -1.5249 0.9618
-14.3708 -6.5528 -2.5016 0.9380
-11.1195 -11.2168 -2.5016 0.9380
-9.6887 -12.4735 -2.5016 0.9380
-4.6443 -15.0960 -2.5016 0.9380
-2.7937 -15.5452 -2.5016 0.9380
2.8916 -15.5273 -2.5016 0.9380
4.7393 -15.0665 -2.5016 0.9380
6.5182 -14.3866 -2.5016 0.9380
12.4501 -9.7188 -2.5016 0.9380
13.5293 -8.1497 -2.5016 0.9380
14.4118 -6.4622 -2.5016 0.9380
15.5384 -2.8312 -2.5016 0.9380
15.7663 -0.9406 -2.5016 0.9380
15.7649 0.9638 -2.5016 0.9380
14.5891 2.6805 -2.3494 0.9417
13.5260 6.0889 -2.3494 0.9417
11.7047 9.1646 -2.3545 0.9416
5.4385 6.9323 -1.3955 0.9649
3.7984 6.2714 -1.1613 0.9707
2.5585 5.6692 -0.9851 0.9751
0.3525 5.6785 -0.9011 0.9772
-3.4122 5.6766 -1.0490 0.9735
-14.5801 2.7294 -2.3494 0.9417
-15.7615 1.0167 -2.5016 0.9380
-9.2059 -2.8227 -1.5251 0.9618
-13.5565 -8.1043 -2.5016 0.9380
-12.4827 -9.6769 -2.5016 0.9380
-11.2272 -11.1089 -2.5016 0.9380
-8.2475 -13.4699 -2.5016 0.9380
-6.5664 -14.3646 -2.5016 0.9380
4.5937 -15.1115 -2.5016 0.9380
8.0715 -13.5761 -2.5016 0.9380
11.0818 -11.2540 -2.5016 0.9380
12.3557 -9.8385 -2.5016 0.9380
14.3487 -6.6010 -2.5016 0.9380
15.0389 -4.8261 -2.5016 0.9380
15.5104 -2.9811 -2.5016 0.9380
15.7564 -1.0928 -2.5016 0.9380
15.7734 0.8116 -2.5016 0.9380
14.2025 4.2799 -2.3494 0.9417
13.5841 5.9581 -2.3494 0.9417
12.7683 7.5497 -2.3494 0.9417
4.9573 6.1949 -1.2567 0.9684
3.8430 6.2089 -1.1565 0.9709
1.8359 5.6737 -0.9445 0.9761
1.1056 5.6782 -0.9162 0.9768
1.0740 14.9637 -2.3761 0.9411
-0.2788 5.6867 -0.9018 0.9772
-0.9748 5.6910 -0.9145 0.9769
-1.7013 5.6954 -0.9415 0.9762
-3.3551 5.7056 -1.0483 0.9736
-4.3143 5.6492 -1.1258 0.9716
-5.4313 5.5692 -1.2321 0.9690
-9.2267 5.7417 -1.7212 0.9569
-14.1018 4.6006 -2.3494 0.9417
-15.7358 1.1677 -2.4992 0.9381
-13.6342 -7.9730 -2.5016 0.9380
-11.3340 -11.0000 -2.5016 0.9380
-8.3771 -13.3897 -2.5016 0.9380
-1.2068 -15.7481 -2.5016 0.9380
0.6973 -15.7789 -2.5016 0.9380
6.2391 -14.5097 -2.5016 0.9380
7.9401 -13.6533 -2.5016 0.9380
9.5256 -12.5985 -2.5016 0.9380
12.2601 -9.9573 -2.5016 0.9380
13.3694 -8.4094 -2.5016 0.9380
14.9916 -4.9711 -2.5016 0.9380
15.4809 -3.1307 -2.5016 0.9380
15.7451 -1.2448 -2.5016 0.9380
15.7805 0.6592 -2.5016 0.9380
13.6410 5.8267 -2.3494 0.9417
12.8406 7.4260 -2.3494 0.9417
5.8998 5.6709 -1.2961 0.9674
4.9565 6.0728 -1.2415 0.9688
1.8965 5.6733 -0.9474 0.9761
0.4625 5.6752 -0.9018 0.9772
-2.4184 5.6998 -0.9807 0.9752
-3.2811 5.7051 -1.0424 0.9737
-4.2328 5.6549 -1.1188 0.9718
-9.0292 5.7405 -1.6946 0.9576
-11.8885 5.6793 -2.0868 0.9480
-14.5545 -6.1339 -2.5016 0.9380
-12.6671 -9.4341 -2.5016 0.9380
-11.4397 -10.8901 -2.5016 0.9380
-6.8425 -14.2351 -2.5016 0.9380
0.5450 -15.7849 -2.5016 0.9380
2.4407 -15.6045 -2.5016 0.9380
10.8624 -11.4659 -2.5016 0.9380
14.2186 -6.8768 -2.5016 0.9380
15.7324 -1.3967 -2.5016 0.9380
-2.9450 -12.5280 -2.5016 0.9489
3.2051 -12.4639 -2.5016 0.9489
6.0906 -11.3370 -2.5016 0.9489
8.6232 -9.5532 -2.5016 0.9489
9.7102 -8.4459 -2.5016 0.9489
11.4471 -5.8809 -2.5016 0.9489
12.5208 -2.9752 -2.5016 0.9489
12.8690 0.1029 -2.5016 0.9489
12.1350 1.5697 -2.3785 0.9514
11.2688 4.3698 -2.3494 0.9519
10.6610 5.6943 -2.3494 0.9519
9.8982 6.9360 -2.3494 0.9519
0.6566 5.6809 -1.1116 0.9770
-0.0317 5.6852 -1.1051 0.9771
-0.7220 5.6894 -1.1148 0.9769
-1.4349 5.6938 -1.1414 0.9764
-2.1939 5.6985 -1.1869 0.9754
-3.9344 5.6437 -1.3373 0.9724
-4.9534 5.5412 -1.4447 0.9702
-6.1965 5.4425 -1.6031 0.9670
-8.3840 5.7365 -1.9746 0.9594
-12.7493 1.5047 -2.4954 0.9490
-12.8694 -0.0408 -2.5016 0.9489
-8.3852 -3.2051 -1.7449 0.9641
-11.3808 -6.0083 -2.5016 0.9489
-9.6154 -8.5538 -2.5016 0.9489
-8.5160 -9.6488 -2.5016 0.9489
-5.9637 -11.4042 -2.5016 0.9489
-3.0658 -12.4989 -2.5016 0.9489
-1.5392 -12.7771 -2.5016 0.9489
0.0097 -12.8695 -2.5016 0.9489
3.0846 -12.4943 -2.5016 0.9489
5.9808 -11.3953 -2.5016 0.9489
11.3898 -5.9912 -2.5016 0.9489
12.4915 -3.0960 -2.5016 0.9489
12.7733 -1.5701 -2.5016 0.9489
12.8694 -0.0214 -2.5016 0.9489
12.3719 1.4791 -2.4220 0.9505
11.7411 2.8686 -2.3494 0.9519
10.7155 5.5911 -2.3494 0.9519
5.1638 5.7940 -1.5086 0.9689
1.4214 5.6762 -1.1374 0.9764
0.7122 5.6806 -1.1128 0.9769
-1.3765 5.6934 -1.1386 0.9764
-2.9583 5.7032 -1.2488 0.9742
-3.8630 5.6569 -1.3315 0.9725
-4.8640 5.5480 -1.4342 0.9704
-6.0871 5.4513 -1.5883 0.9673
-7.2929 5.0941 -1.7292 0.9644
-11.2754 4.3529 -2.3494 0.9519
-12.5329 1.6020 -2.4560 0.9498
-12.8692 0.0835 -2.5016 0.9489
-12.7857 -1.4660 -2.5016 0.9489
-8.3870 -3.1134 -1.7390 0.9642
-11.4383 -5.8982 -2.5016 0.9489
-10.6453 -7.2319 -2.5016 0.9489
-8.6088 -9.5662 -2.5016 0.9489
-4.6638 -11.9946 -2.5016 0.9489
-1.6625 -12.7616 -2.5016 0.9489
-0.1146 -12.8689 -2.5016 0.9489
2.9639 -12.5235 -2.5016 0.9489
8.4371 -9.7179 -2.5016 0.9489
9.5454 -8.6318 -2.5016 0.9489
10.5148 -7.4203 -2.5016 0.9489
11.3315 -6.1009 -2.5016 0.9489
11.9834 -4.6928 -2.5016 0.9489
12.7576 -1.6933 -2.5016 0.9489
12.8686 -0.1456 -2.5016 0.9489
12.4857 1.3705 -2.4416 0.9501
11.7682 2.7551 -2.3494 0.9519
11.3511 4.1514 -2.3494 0.9519
9.1474 7.9032 -2.3498 0.9519
5.2644 5.7934 -1.5216 0.9686
3.5697 6.5920 -1.4572 0.9699
1.4797 5.6759 -1.1402 0.9764
0.0780 5.6845 -1.1051 0.9771
-1.3184 5.6931 -1.1359 0.9765
-3.7923 5.6700 -1.3259 0.9726
-4.7758 5.5548 -1.4240 0.9706
-5.9796 5.4600 -1.5740 0.9675
-10.6143 5.7810 -2.3494 0.9519
-11.2329 4.4615 -2.3494 0.9519
-11.9736 1.6481 -2.3494 0.9519
-12.8678 0.2077 -2.5016 0.9489
-12.7993 -1.3425 -2.5016 0.9489
-11.4947 -5.7875 -2.5016 0.9489
-10.7146 -7.1288 -2.5016 0.9489
-9.7787 -8.3665 -2.5016 0.9489
-7.4962 -10.4608 -2.5016 0.9489
-6.1827 -11.2870 -2.5016 0.9489
-4.7794 -11.9491 -2.5016 0.9489
2.8428 -12.5515 -2.5016 0.9489
4.3328 -12.1182 -2.5016 0.9489
8.3429 -9.7989 -2.5016 0.9489
9.4616 -8.7236 -2.5016 0.9489
11.2720 -6.2100 -2.5016 0.9489
11.9375 -4.8082 -2.5016 0.9489
12.8666 -0.2698 -2.5016 0.9489
12.5694 1.2570 -2.4554 0.9498
11.7943 2.6414 -2.3494 0.9519
11.3907 4.0417 -2.3494 0.9519
10.8214 5.3832 -2.3494 0.9519
9.2220 7.8134 -2.3495 0.9519
5.3669 5.7928 -1.5350 0.9683
4.1633 5.7509 -1.3800 0.9715
3.6163 6.5267 -1.4504 0.9701
2.3000 5.6708 -1.1895 0.9754
0.8238 5.6799 -1.1156 0.9769
-3.7221 5.6831 -1.3205 0.9727
-7.0943 5.1619 -1.7054 0.9649
-11.1893 4.5697 -2.3494 0.9519
-11.9571 1.7637 -2.3494 0.9519
-12.8652 0.3319 -2.5016 0.9489
-12.8116 -1.2188 -2.5016 0.9489
-8.3906 -2.9317 -1.7277 0.9644
-8.7919 -9.3982 -2.5016 0.9489
-7.5969 -10.3880 -2.5016 0.9489
-4.8945 -11.9024 -2.5016 0.9489
-3.4265 -12.4049 -2.5016 0.9489
-1.9086 -12.7271 -2.5016 0.9489
1.1879 -12.8145 -2.5016 0.9489
5.6483 -11.5637 -2.5016 0.9489
6.9990 -10.7998 -2.5016 0.9489
8.2479 -9.8790 -2.5016 0.9489
9.3769 -8.8146 -2.5016 0.9489
11.2116 -6.3185 -2.5016 0.9489
12.3966 -3.4564 -2.5016 0.9489
12.8634 -0.3941 -2.5016 0.9489
12.6529 1.1421 -2.4695 0.9495
11.8192 2.5274 -2.3494 0.9519
11.4292 3.9315 -2.3494 0.9519
10.8729 5.2785 -2.3494 0.9519
5.4712 5.7921 -1.5487 0.9681
3.6624 6.4621 -1.4438 0.9702
-2.7511 5.7019 -1.2306 0.9745
-3.6524 5.6960 -1.3153 0.9728
-4.6032 5.5679 -1.4043 0.9710
-5.7702 5.4769 -1.5464 0.9681
-6.9969 5.1951 -1.6940 0.9651
-10.0523 5.7293 -2.2490 0.9539
-11.9395 1.8790 -2.3494 0.9519
-8.4058 -2.8462 -1.7250 0.9645
-9.9385 -8.1762 -2.5016 0.9489
-8.8822 -9.3128 -2.5016 0.9489
-7.6968 -10.3142 -2.5016 0.9489
-5.0092 -11.8546 -2.5016 0.9489
-3.5461 -12.3713 -2.5016 0.9489
2.6000 -12.6041 -2.5016 0.9489
4.0980 -12.1996 -2.5016 0.9489
5.5364 -11.6177 -2.5016 0.9489
8.1522 -9.9582 -2.5016 0.9489
9.2914 -8.9046 -2.5016 0.9489
11.1500 -6.4265 -2.5016 0.9489
12.7032 -2.0621 -2.5016 0.9489
12.8590 -0.5182 -2.5016 0.9489
4.2352 5.6186 -1.3677 0.9717
3.7081 6.3979 -1.4374 0.9703
1.6563 5.6748 -1.1491 0.9762
0.9360 5.6792 -1.1188 0.9768
0.2428 5.6835 -1.1058 0.9771
-1.1455 5.6920 -1.1286 0.9766
-1.8830 5.6965 -1.1662 0.9758
-3.5702 5.6879 -1.3054 0.9730
-5.6682 5.4850 -1.5332 0.9684
-6.9007 5.2277 -1.6828 0.9653
-9.8583 5.7456 -2.2180 0.9546
-11.9208 1.9942 -2.3494 0.9519
-8.4206 -2.7609 -1.7225 0.9645
-11.6575 -5.4522 -2.5016 0.9489
-7.7960 -10.2394 -2.5016 0.9489
-6.5070 -11.1032 -2.5016 0.9489
-5.1234 -11.8056 -2.5016 0.9489
3.9800 -12.2386 -2.5016 0.9489
6.7892 -10.9330 -2.5016 0.9489
9.2050 -8.9939 -2.5016 0.9489
12.3276 -3.6951 -2.5016 0.9489
12.6827 -2.1846 -2.5016 0.9489
12.8534 -0.6423 -2.5016 0.9489
12.7652 0.9042 -2.4875 0.9492
11.8658 2.2987 -2.3494 0.9519
11.5029 3.7101 -2.3494 0.9519
10.9728 5.0675 -2.3494 0.9519
8.4790 8.6361 -2.3525 0.9519
2.4931 5.6696 -1.2039 0.9751
1.7158 5.6744 -1.1523 0.9761
0.2966 5.6602 -1.1017 0.9772
-0.3891 5.6874 -1.1081 0.9770
-1.0884 5.6917 -1.1264 0.9767
-1.8221 5.6962 -1.1625 0.9759
-4.4351 5.5806 -1.3856 0.9714
-6.8056 5.2599 -1.6719 0.9656
-11.0522 4.8919 -2.3494 0.9519
-11.5606 3.5262 -2.3494 0.9519
-12.8415 -0.8473 -2.5016 0.9489
-10.5179 -1.9850 -2.0806 0.9573
-8.4352 -2.6758 -1.7201 0.9646
-10.0946 -7.9828 -2.5016 0.9489
-9.0604 -9.1396 -2.5016 0.9489
-6.6139 -11.0399 -2.5016 0.9489
-5.2372 -11.7556 -2.5016 0.9489
-2.2764 -12.6665 -2.5016 0.9489
0.8163 -12.8435 -2.5016 0.9489
3.8617 -12.2764 -2.5016 0.9489
6.6833 -10.9980 -2.5016 0.9489
7.9584 -10.1137 -2.5016 0.9489
9.1177 -9.0824 -2.5016 0.9489
10.1445 -7.9190 -2.5016 0.9489
11.0239 -6.6405 -2.5016 0.9489
11.7430 -5.2655 -2.5016 0.9489
12.6610 -2.3069 -2.5016 0.9489
12.8028 0.7827 -2.4932 0.9491
10.3440 6.2518 -2.3494 0.9519
8.5608 8.5528 -2.3522 0.9519
5.3927 6.8740 -1.6983 0.9650
3.7984 6.2714 -1.4252 0.9706
2.5585 5.6692 -1.2090 0.9750
0.3525 5.6785 -1.1059 0.9771
-2.5497 5.7007 -1.2139 0.9749
-9.4305 5.7429 -2.1463 0.9560
-11.0045 4.9983 -2.3494 0.9519
-11.5261 3.6376 -2.3494 0.9519
-12.8428 0.8284 -2.5016 0.9489
-11.2230 -2.0061 -2.2161 0.9546
-8.4500 -2.5909 -1.7180 0.9646
-11.0461 -6.6035 -2.5016 0.9489
-10.1710 -7.8849 -2.5016 0.9489
-7.9923 -10.0869 -2.5016 0.9489
-6.7202 -10.9755 -2.5016 0.9489
-3.9029 -12.2634 -2.5016 0.9489
-2.3986 -12.6439 -2.5016 0.9489
0.6923 -12.8508 -2.5016 0.9489
2.2338 -12.6741 -2.5016 0.9489
5.1977 -11.7732 -2.5016 0.9489
6.5768 -11.0620 -2.5016 0.9489
10.9593 -6.7467 -2.5016 0.9489
11.6916 -5.3787 -2.5016 0.9489
12.2539 -3.9324 -2.5016 0.9489
12.8386 -0.8904 -2.5016 0.9489
11.5724 3.4873 -2.3494 0.9519
8.6418 8.4686 -2.3519 0.9519
4.9573 6.1949 -1.5423 0.9682
1.1056 5.6782 -1.1245 0.9767
-0.2788 5.6867 -1.1067 0.9771
-0.9748 5.6910 -1.1223 0.9767
-2.4838 5.7002 -1.2086 0.9750
-3.3551 5.7056 -1.2866 0.9734
-6.6189 5.3229 -1.6510 0.9660
-10.9557 5.1044 -2.3494 0.9519
-8.3022 2.7085 -1.6975 0.9650
-11.8581 2.3386 -2.3494 0.9519
-11.7313 -1.9802 -2.3126 0.9527
-8.4345 -3.6510 -1.7865 0.9632
-9.2351 -8.9630 -2.5016 0.9489
-6.8258 -10.9101 -2.5016 0.9489
-5.4632 -11.6523 -2.5016 0.9489
-2.5205 -12.6202 -2.5016 0.9489
2.1114 -12.6951 -2.5016 0.9489
3.6239 -12.3487 -2.5016 0.9489
5.0838 -11.8228 -2.5016 0.9489
6.4697 -11.1250 -2.5016 0.9489
7.7616 -10.2655 -2.5016 0.9489
8.9407 -9.2567 -2.5016 0.9489
11.6391 -5.4913 -2.5016 0.9489
12.6141 -2.5510 -2.5016 0.9489
12.8294 -1.0143 -2.5016 0.9489
12.8582 0.5371 -2.5016 0.9489
11.6055 3.3755 -2.3494 0.9519
11.1149 4.7477 -2.3494 0.9519
9.6585 7.2661 -2.3494 0.9519
4.9565 6.0728 -1.5237 0.9686
3.8872 6.1469 -1.4137 0.9708
2.6911 5.6684 -1.2197 0.9748
1.1625 5.6778 -1.1266 0.9767
-0.2238 5.6863 -1.1062 0.9771
-1.6415 5.6951 -1.1521 0.9761
-4.1909 5.5988 -1.3594 0.9719
-5.2765 5.5160 -1.4838 0.9694
-6.5271 5.3536 -1.6409 0.9662
-9.0292 5.7405 -2.0798 0.9573
-10.9060 5.2099 -2.3494 0.9519
-8.1444 2.7443 -1.6706 0.9656
-11.8349 2.4529 -2.3494 0.9519
-12.7100 -2.0194 -2.5016 0.9489
-8.4781 -2.4215 -1.7139 0.9647
-8.3928 -3.5371 -1.7704 0.9636
-11.1716 -6.3890 -2.5016 0.9489
-10.3214 -7.6871 -2.5016 0.9489
-9.3212 -8.8734 -2.5016 0.9489
-6.9308 -10.8437 -2.5016 0.9489
-5.5754 -11.5990 -2.5016 0.9489
-4.1389 -12.1857 -2.5016 0.9489
-2.6422 -12.5953 -2.5016 0.9489
-1.1072 -12.8217 -2.5016 0.9489
0.4440 -12.8618 -2.5016 0.9489
6.3620 -11.1869 -2.5016 0.9489
7.6621 -10.3400 -2.5016 0.9489
8.8509 -9.3426 -2.5016 0.9489
9.9110 -8.2095 -2.5016 0.9489
10.8269 -6.9570 -2.5016 0.9489
11.5856 -5.6034 -2.5016 0.9489
12.1757 -4.1683 -2.5016 0.9489
12.5889 -2.6727 -2.5016 0.9489
12.8190 -1.1381 -2.5016 0.9489
12.8628 0.4130 -2.5016 0.9489
-3.7310 -10.1729 -2.5016 0.9565
-2.4796 -10.5479 -2.5016 0.9565
0.1128 -10.8349 -2.5016 0.9565
5.1280 -9.5452 -2.5016 0.9565
6.2395 -8.8587 -2.5016 0.9565
7.2603 -8.0433 -2.5016 0.9565
9.6380 -4.9515 -2.5016 0.9565
10.1638 -3.7555 -2.5016 0.9565
10.7668 -1.2180 -2.5016 0.9565
10.8351 0.0866 -2.5016 0.9565
10.5010 1.3583 -2.4445 0.9575
9.8617 2.5106 -2.3494 0.9591
9.4878 3.6792 -2.3494 0.9591
8.9761 4.7943 -2.3494 0.9591
7.5704 6.8003 -2.3494 0.9591
4.0391 5.9339 -1.6572 0.9710
1.3634 5.6766 -1.3478 0.9763
0.6566 5.6809 -1.3203 0.9768
-0.7220 5.6894 -1.3240 0.9767
-1.4349 5.6938 -1.3556 0.9762
-3.0288 5.7036 -1.4909 0.9738
-3.9344 5.6437 -1.5883 0.9722
-8.3985 5.7464 -2.3494 0.9591
-8.0915 3.0343 -1.9951 0.9651
-10.7522 1.2690 -2.4996 0.9565
-10.8354 -0.0343 -2.5016 0.9565
-8.1826 -3.1277 -2.0224 0.9647
-8.9036 -6.1752 -2.5016 0.9565
-8.0957 -7.2019 -2.5016 0.9565
-7.1701 -8.1239 -2.5016 0.9565
-6.1403 -8.9278 -2.5016 0.9565
-3.8290 -10.1364 -2.5016 0.9565
-1.2960 -10.7577 -2.5016 0.9565
1.3122 -10.7557 -2.5016 0.9565
2.5971 -10.5196 -2.5016 0.9565
3.8443 -10.1306 -2.5016 0.9565
7.1823 -8.1131 -2.5016 0.9565
10.1271 -3.8535 -2.5016 0.9565
10.8355 -0.0180 -2.5016 0.9565
10.5638 1.2629 -2.4562 0.9573
9.8855 2.4153 -2.3494 0.9591
8.3898 5.7591 -2.3494 0.9591
7.6357 6.7269 -2.3494 0.9591
2.9871 5.6457 -1.4746 0.9741
2.1738 5.6716 -1.4023 0.9754
1.4214 5.6762 -1.3509 0.9763
0.7122 5.6806 -1.3217 0.9768
-2.1309 5.6981 -1.4045 0.9753
-2.9583 5.7032 -1.4833 0.9740
-5.9900 5.3644 -1.8564 0.9675
-9.4934 3.6649 -2.3494 0.9591
-10.7650 -1.2343 -2.5016 0.9565
-8.1734 -3.0341 -2.0128 0.9648
-8.9628 -6.0890 -2.5016 0.9565
-8.1649 -7.1234 -2.5016 0.9565
-2.6827 -10.4981 -2.5016 0.9565
-0.0965 -10.8351 -2.5016 0.9565
1.2083 -10.7679 -2.5016 0.9565
6.0673 -8.9775 -2.5016 0.9565
7.1037 -8.1820 -2.5016 0.9565
8.8530 -6.2475 -2.5016 0.9565
10.4916 -2.7081 -2.5016 0.9565
10.7413 -1.4257 -2.5016 0.9565
10.6263 1.1664 -2.4680 0.9571
9.0670 4.6201 -2.3494 0.9591
8.4450 5.6778 -2.3494 0.9591
4.1243 5.8145 -1.6458 0.9712
3.5697 6.5920 -1.7307 0.9697
2.2367 5.6712 -1.4075 0.9753
-1.3184 5.6931 -1.3491 0.9763
-2.0682 5.6977 -1.3994 0.9754
-3.7923 5.6700 -1.5748 0.9724
-5.9061 5.3930 -1.8465 0.9677
-8.9367 4.8674 -2.3494 0.9591
-9.4575 3.7564 -2.3494 0.9591
