ply
format ascii 1.0
element vertex 1550
property float32 x
property float32 y
property float32 z
property float32 I
end_header
80.7123 -27.9070 -1.4907 0.7106
41.1229 6.2095 -0.7259 0.8467
23.5259 13.2192 -0.4710 0.8977
23.3956 27.9575 -0.6363 0.8643
4.0443 6.2256 -0.1296 0.9707
2.7759 5.6679 -0.1102 0.9751
0.5282 5.6412 -0.0989 0.9776
-0.1554 5.6859 -0.0993 0.9775
-0.8485 5.6902 -0.1004 0.9772
-1.5681 5.6946 -0.1031 0.9766
-3.1833 5.6899 -0.1138 0.9743
-4.1415 5.6710 -0.1226 0.9723
-6.7176 5.6426 -0.1531 0.9655
-11.6568 5.7357 -0.2268 0.9494
-8.0147 2.8043 -0.1482 0.9666
-26.0852 5.7207 -0.4661 0.8987
-45.2444 -1.1533 -0.7900 0.8344
-18.6298 -22.0961 -0.5045 0.8908
-15.1720 -23.1673 -0.4834 0.8951
-6.0842 5.6174 -0.4340 0.9674
-33.3228 4.7667 -1.7641 0.8739
-44.5067 -9.9519 -2.3901 0.8330
-44.9855 -15.9471 -2.5013 0.8260
-34.2043 -28.9704 -2.3491 0.8357
-20.8855 -22.5376 -1.6103 0.8842
-16.1158 -22.2581 -1.4402 0.8958
-13.2052 -23.8316 -1.4279 0.8966
-10.4744 -25.8259 -1.4606 0.8944
-8.9803 -33.1414 -1.7995 0.8715
-6.4292 -44.3609 -2.3491 0.8357
19.8803 -40.1746 -2.3491 0.8357
23.2492 -27.5524 -1.8893 0.8655
36.2582 -26.3545 -2.3491 0.8357
38.4824 -21.4163 -2.3081 0.8383
37.0666 -15.1130 -2.0978 0.8519
46.0441 -12.5678 -2.5013 0.8260
47.2223 -6.9329 -2.5013 0.8260
47.7135 -1.1970 -2.5013 0.8260
44.6197 4.2790 -2.3491 0.8357
17.9890 6.3024 -0.9989 0.9265
18.0649 11.7933 -1.1306 0.9172
23.8810 25.5801 -1.8340 0.8692
3.1667 5.6655 -0.3401 0.9743
2.3243 5.6707 -0.3212 0.9758
0.1531 5.6840 -0.2980 0.9775
-1.2398 5.6926 -0.3053 0.9769
-1.9842 5.6972 -0.3162 0.9761
-4.7379 5.6571 -0.3867 0.9709
-5.9993 5.6216 -0.4309 0.9676
-10.2391 5.7479 -0.6154 0.9541
-20.9952 5.8140 -1.1417 0.9164
-45.0141 1.2955 -2.3601 0.8350
-44.6351 -4.1142 -2.3491 0.8357
-43.9387 -9.4849 -2.3558 0.8352
-42.8940 -20.9312 -2.5013 0.8260
-21.2857 -22.6321 -1.6283 0.8830
-13.4190 -23.8013 -1.4320 0.8963
-10.6029 -25.5987 -1.4521 0.8950
-8.9410 -32.0569 -1.7442 0.8752
-6.7564 -44.3122 -2.3491 0.8357
-1.4612 -47.7061 -2.5013 0.8260
9.9849 -46.6724 -2.5013 0.8260
14.0536 -40.8367 -2.2634 0.8411
19.5831 -40.3203 -2.3491 0.8357
23.0936 -35.8061 -2.2330 0.8431
36.0627 -26.6215 -2.3491 0.8357
45.9501 -12.9073 -2.5013 0.8260
47.1698 -7.2812 -2.5013 0.8260
47.7034 -1.5492 -2.5013 0.8260
44.6500 3.9495 -2.3491 0.8357
43.9561 9.3190 -2.3548 0.8353
15.8087 5.4078 -0.8756 0.9353
18.0604 11.6012 -1.1250 0.9176
18.2222 15.0906 -1.2399 0.9096
23.8787 25.2021 -1.8195 0.8702
4.3234 5.8342 -0.3806 0.9713
2.3732 5.6704 -0.3221 0.9757
0.8874 5.6795 -0.3013 0.9772
0.1951 5.6838 -0.2980 0.9775
-1.1958 5.6923 -0.3048 0.9770
-1.9371 5.6969 -0.3153 0.9762
-5.9157 5.6258 -0.4278 0.9678
-7.7056 5.7323 -0.5033 0.9623
-10.0625 5.7468 -0.6073 0.9546
-13.4711 5.6672 -0.7659 0.9431
-43.8838 -9.1346 -2.3491 0.8357
-40.2524 -25.6468 -2.5013 0.8260
-21.4183 -22.4389 -1.6257 0.8832
-16.4935 -22.0860 -1.4446 0.8955
-13.6818 -23.8540 -1.4412 0.8957
-10.6938 -25.2886 -1.4389 0.8959
-6.6429 -41.5094 -2.2031 0.8450
3.9421 -47.5654 -2.5013 0.8260
9.6402 -46.7448 -2.5013 0.8260
23.0900 -36.3875 -2.2585 0.8415
23.2282 -28.3668 -1.9215 0.8634
28.3481 -27.1588 -2.0574 0.8545
38.2235 -22.0175 -2.3118 0.8380
47.1148 -7.6292 -2.5013 0.8260
44.6780 3.6198 -2.3491 0.8357
44.0008 8.9896 -2.3536 0.8354
16.2572 5.4276 -0.8982 0.9337
23.8764 24.8301 -1.8053 0.8711
4.3561 5.7884 -0.3797 0.9714
2.4224 5.6701 -0.3231 0.9756
0.9304 5.6793 -0.3016 0.9772
0.2371 5.6835 -0.2981 0.9775
-1.8902 5.6966 -0.3146 0.9762
-4.5971 5.6565 -0.3820 0.9712
-5.8332 5.6299 -0.4249 0.9680
-7.5870 5.7316 -0.4983 0.9626
-13.2265 5.6796 -0.7544 0.9440
-44.6910 -3.4549 -2.3491 0.8357
-34.8374 -28.2060 -2.3491 0.8357
-13.7541 -23.5752 -1.4304 0.8964
-10.7996 -25.0224 -1.4283 0.8966
-9.0762 -30.7788 -1.6817 0.8794
-2.1652 -47.6794 -2.5013 0.8260
3.5909 -47.5932 -2.5013 0.8260
9.2948 -46.8147 -2.5013 0.8260
18.9859 -40.6049 -2.3491 0.8357
36.7194 -15.9285 -2.0976 0.8519
47.0572 -7.9767 -2.5013 0.8260
44.7035 3.2900 -2.3491 0.8357
16.7296 5.4484 -0.9221 0.9320
17.9917 8.3721 -1.0400 0.9236
18.0518 11.2227 -1.1140 0.9184
4.3805 5.7323 -0.3781 0.9715
2.4719 5.6698 -0.3242 0.9755
1.6961 5.6746 -0.3104 0.9766
0.9734 5.6790 -0.3020 0.9772
-1.8435 5.6963 -0.3138 0.9763
-4.5279 5.6562 -0.3797 0.9714
-5.7518 5.6339 -0.4220 0.9683
-7.4708 5.7309 -0.4935 0.9630
-9.7227 5.7447 -0.5918 0.9558
-19.1671 5.7676 -1.0490 0.9230
-44.7153 -3.1250 -2.3491 0.8357
-44.0138 -8.4858 -2.3491 0.8357
-45.4367 -14.6122 -2.5013 0.8260
-43.3469 -19.9764 -2.5013 0.8260
-40.6266 -25.0498 -2.5013 0.8260
-22.2690 -22.6511 -1.6647 0.8805
-2.5170 -47.6621 -2.5013 0.8260
18.6856 -40.7440 -2.3491 0.8357
23.2387 -29.2500 -1.9578 0.8610
35.1894 -27.2009 -2.3309 0.8368
34.0907 -15.0881 -1.9538 0.8613
45.6531 -13.9215 -2.5013 0.8260
47.6574 -2.6050 -2.5013 0.8260
17.2278 5.4703 -0.9473 0.9302
17.9886 8.2096 -1.0363 0.9239
23.8719 24.1029 -1.7779 0.8729
1.0166 5.6787 -0.3023 0.9772
0.3212 5.6830 -0.2983 0.9775
-0.3658 5.6872 -0.2987 0.9774
-2.5891 5.7009 -0.3281 0.9752
-3.4719 5.7013 -0.3498 0.9736
-4.4596 5.6560 -0.3775 0.9716
-7.3241 5.7048 -0.4865 0.9635
-9.5592 5.7437 -0.5845 0.9563
-12.7198 5.6858 -0.7302 0.9457
-18.7725 5.8004 -1.0297 0.9243
-30.2233 5.4681 -1.6097 0.8842
-45.0276 2.6281 -2.3638 0.8347
-44.7372 -2.7948 -2.3491 0.8357
-44.0752 -8.1607 -2.3491 0.8357
-45.5433 -14.2764 -2.5013 0.8260
-40.8104 -24.7492 -2.5013 0.8260
-22.6159 -22.6669 -1.6781 0.8796
2.8880 -47.6411 -2.5013 0.8260
8.6029 -46.9468 -2.5013 0.8260
18.3844 -40.8808 -2.3491 0.8357
23.0788 -38.2149 -2.3396 0.8363
23.3400 -29.8270 -1.9849 0.8592
34.6534 -27.1976 -2.3087 0.8382
37.7267 -22.8584 -2.3118 0.8380
46.9344 -8.6703 -2.5013 0.8260
47.6368 -2.9568 -2.5013 0.8260
44.7471 2.6297 -2.3491 0.8357
38.6570 7.0099 -2.0590 0.8544
17.7424 5.4899 -0.9733 0.9283
17.9855 8.0484 -1.0327 0.9241
18.2032 14.1902 -1.2096 0.9117
4.4361 5.6307 -0.3757 0.9717
3.9058 6.4197 -0.3938 0.9703
1.0598 5.6785 -0.3027 0.9771
-1.0212 5.6912 -0.3030 0.9771
-1.7509 5.6957 -0.3123 0.9764
-2.5383 5.7006 -0.3270 0.9753
-7.0834 5.6018 -0.4733 0.9645
-29.6676 5.5940 -1.5822 0.8861
-45.0246 2.9615 -2.3647 0.8347
-44.7550 -2.4645 -2.3491 0.8357
-45.6475 -13.9399 -2.5013 0.8260
-43.6371 -19.3343 -2.5013 0.8260
-32.5923 -25.2143 -2.1596 0.8478
-17.4372 -21.9660 -1.4698 0.8937
-14.2828 -23.2813 -1.4314 0.8964
-11.4216 -24.9313 -1.4372 0.8960
-8.3867 -44.0328 -2.3491 0.8357
2.5363 -47.6611 -2.5013 0.8260
8.2561 -47.0090 -2.5013 0.8260
13.0534 -43.0286 -2.3565 0.8352
22.8887 -38.5401 -2.3491 0.8357
24.8011 -25.2061 -1.8532 0.8679
34.1277 -27.1944 -2.2869 0.8396
44.7653 2.2994 -2.3491 0.8357
39.2516 6.8191 -2.0879 0.8525
18.3051 5.5163 -1.0019 0.9263
23.8676 23.3975 -1.7516 0.8747
5.5900 6.9886 -0.4690 0.9648
1.1032 5.6782 -0.3031 0.9771
-0.2816 5.6867 -0.2984 0.9775
-0.9778 5.6910 -0.3026 0.9771
-1.7049 5.6955 -0.3116 0.9765
-4.3297 5.6611 -0.3735 0.9719
-5.5142 5.6458 -0.4136 0.9689
-9.2441 5.7418 -0.5703 0.9573
-12.2765 5.7066 -0.7095 0.9472
-17.8168 5.7945 -0.9819 0.9277
-45.0191 3.2950 -2.3657 0.8346
-44.7908 -2.1350 -2.3500 0.8356
-43.7786 -19.0117 -2.5013 0.8260
-37.9649 -28.9254 -2.5013 0.8260
-23.5079 -22.8752 -1.7190 0.8769
-17.6320 -21.8778 -1.4726 0.8936
-14.4729 -23.2052 -1.4333 0.8962
-3.5718 -47.5947 -2.5013 0.8260
2.1845 -47.6785 -2.5013 0.8260
7.9088 -47.0687 -2.5013 0.8260
13.0333 -44.1321 -2.4116 0.8317
24.4533 -25.2226 -1.8411 0.8687
33.6117 -27.1912 -2.2658 0.8410
37.3852 -23.4127 -2.3118 0.8380
32.1353 -15.0822 -1.8604 0.8675
45.3336 -14.9289 -2.5013 0.8260
47.5880 -3.6596 -2.5013 0.8260
44.7811 1.9690 -2.3491 0.8357
39.2498 6.5206 -2.0852 0.8527
18.8979 5.5431 -1.0321 0.9241
17.9803 7.7296 -1.0257 0.9246
23.9048 29.4381 -1.9874 0.8591
1.8799 5.6734 -0.3132 0.9763
1.1467 5.6779 -0.3036 0.9771
0.4475 5.6822 -0.2987 0.9774
-0.9346 5.6907 -0.3022 0.9772
-2.4379 5.7000 -0.3249 0.9755
-15.3741 26.5521 -1.6080 0.8844
-4.2661 5.6641 -0.3716 0.9720
-5.4370 5.6496 -0.4109 0.9691
-9.0922 5.7408 -0.5635 0.9578
-17.3714 5.7917 -0.9597 0.9293
-45.0111 3.6285 -2.3666 0.8345
-44.2451 -7.1828 -2.3491 0.8357
-45.8483 -13.2646 -2.5013 0.8260
-43.9178 -18.6879 -2.5013 0.8260
-38.1774 -28.6444 -2.5013 0.8260
-24.1238 -23.1304 -1.7515 0.8747
-17.9800 -21.9757 -1.4881 0.8925
-11.7251 -24.6270 -1.4295 0.8965
13.0122 -45.2886 -2.4695 0.8280
13.6975 -32.3555 -1.8414 0.8687
22.3173 -38.8736 -2.3491 0.8357
37.2561 -23.7167 -2.3146 0.8379
31.4797 -15.0590 -1.8288 0.8696
45.2222 -15.2630 -2.5013 0.8260
39.2479 6.2230 -2.0826 0.8529
17.9814 7.5732 -1.0225 0.9248
18.1898 13.5432 -1.1885 0.9132
23.8633 22.7122 -1.7265 0.8764
4.0100 6.2736 -0.3902 0.9706
2.7244 5.6682 -0.3296 0.9751
1.9264 5.6731 -0.3140 0.9763
1.1904 5.6777 -0.3040 0.9770
-0.1975 5.6862 -0.2982 0.9775
-0.8915 5.6904 -0.3019 0.9772
-1.6135 5.6949 -0.3102 0.9766
-3.2414 5.6945 -0.3434 0.9741
-4.2031 5.6670 -0.3698 0.9721
-6.7696 5.6016 -0.4605 0.9654
-11.8577 5.7263 -0.6901 0.9486
-26.2384 5.5517 -1.4055 0.8981
-44.8550 -1.4747 -2.3520 0.8355
-44.2969 -6.8560 -2.3491 0.8357
-44.0545 -18.3633 -2.5013 0.8260
-41.5231 -23.5338 -2.5013 0.8260
-38.3878 -28.3617 -2.5013 0.8260
-24.6999 -23.3353 -1.7808 0.8728
-18.3621 -22.1079 -1.5061 0.8913
-11.8965 -24.5190 -1.4283 0.8966
-9.8089 -28.5395 -1.5816 0.8861
-4.2739 -47.5368 -2.5013 0.8260
17.1696 -41.4057 -2.3491 0.8357
21.1521 -28.7404 -1.8702 0.8668
24.4487 -25.9742 -1.8694 0.8669
37.6341 -24.3495 -2.3491 0.8357
31.1574 -15.1884 -1.8166 0.8704
47.5288 -4.3616 -2.5013 0.8260
39.2461 5.9261 -2.0801 0.8530
18.0277 10.1297 -1.0837 0.9205
4.0443 6.2256 -0.3891 0.9707
1.9732 5.6729 -0.3148 0.9762
-2.3387 5.6994 -0.3229 0.9756
-3.1833 5.6899 -0.3417 0.9742
-4.1408 5.6700 -0.3680 0.9723
-11.6568 5.7357 -0.6809 0.9493
-25.6211 5.6189 -1.3747 0.9003
-44.1888 -18.0377 -2.5013 0.8260
-25.3057 -23.5567 -1.8119 0.8707
-6.0644 5.5991 -0.7221 0.9674
-7.9500 5.7338 -0.8576 0.9614
-10.4206 5.7490 -1.0412 0.9533
-13.7962 5.5658 -1.3015 0.9420
-21.6287 5.8179 -1.9595 0.9140
-26.5803 3.8022 -2.3491 0.8978
-26.8447 0.5744 -2.3491 0.8978
-28.4496 -2.8343 -2.5013 0.8915
-27.9015 -6.2389 -2.5013 0.8915
-26.9474 -9.5527 -2.5013 0.8915
-25.6013 -12.7276 -2.5013 0.8915
-23.8827 -15.7173 -2.5013 0.8915
-21.8003 -18.4645 -2.4995 0.8916
-18.2508 -19.6945 -2.3491 0.8978
-4.1007 -28.2949 -2.5013 0.8915
2.7818 -28.4548 -2.5013 0.8915
6.1874 -27.9129 -2.5013 0.8915
14.7195 -22.4567 -2.3491 0.8978
17.3161 -20.5212 -2.3491 0.8978
19.6608 -18.2871 -2.3491 0.8978
24.9823 -13.9032 -2.5013 0.8915
26.7282 2.5632 -2.3491 0.8978
19.4458 9.5781 -1.8965 0.9166
18.5128 12.0857 -1.9342 0.9151
20.8705 17.5451 -2.3854 0.8963
18.6778 20.0066 -2.3946 0.8959
4.2906 5.8801 -0.6368 0.9712
3.1667 5.6655 -0.5678 0.9743
2.3243 5.6707 -0.5362 0.9757
0.1531 5.6840 -0.4975 0.9774
-0.5349 5.6883 -0.4999 0.9773
-1.9842 5.6972 -0.5278 0.9761
-2.7955 5.7022 -0.5556 0.9748
-5.9799 5.6034 -0.7170 0.9676
-10.2391 5.7479 -1.0273 0.9539
-13.5486 5.5825 -1.2820 0.9429
-20.9952 5.8140 -1.9060 0.9162
-26.5515 3.9983 -2.3491 0.8978
-26.8397 0.7725 -2.3491 0.8978
-27.9468 -6.0328 -2.5013 0.8915
-23.9980 -15.5406 -2.5013 0.8915
-15.9070 -21.6318 -2.3491 0.8978
-10.2750 -24.8071 -2.3491 0.8978
-4.3095 -28.2638 -2.5013 0.8915
14.5534 -22.5647 -2.3491 0.8978
17.1642 -20.6484 -2.3491 0.8978
22.9838 -16.9667 -2.4994 0.8916
26.3941 -10.9894 -2.5013 0.8915
26.7464 2.3658 -2.3491 0.8978
26.2670 5.5688 -2.3491 0.8978
18.4178 6.3003 -1.7030 0.9248
19.8089 9.5759 -1.9249 0.9154
18.6134 15.4146 -2.1144 0.9075
4.3234 5.8342 -0.6353 0.9713
0.8874 5.6795 -0.5029 0.9772
-0.4926 5.6880 -0.4995 0.9773
-1.1958 5.6923 -0.5089 0.9769
-1.9371 5.6969 -0.5264 0.9761
-2.7434 5.7018 -0.5536 0.9749
-3.6423 5.6933 -0.5913 0.9732
-5.8967 5.6077 -0.7119 0.9679
-10.0625 5.7468 -1.0138 0.9545
-13.3083 5.5987 -1.2632 0.9437
-10.4451 2.9756 -0.9502 0.9573
-26.5212 4.1941 -2.3491 0.8978
-26.8333 0.9706 -2.3491 0.8978
-28.4884 -2.4140 -2.5013 0.8915
-27.9905 -5.8263 -2.5013 0.8915
-22.0871 -18.1543 -2.5013 0.8915
-18.5396 -19.4230 -2.3491 0.8978
-16.0662 -21.5138 -2.3491 0.8978
-13.3592 -23.2916 -2.3491 0.8978
-7.4043 -25.8098 -2.3491 0.8978
-1.0862 -28.5698 -2.5013 0.8915
2.3614 -28.4928 -2.5013 0.8915
5.7747 -28.0012 -2.5013 0.8915
12.3006 -25.8091 -2.5013 0.8915
14.3864 -22.6715 -2.3491 0.8978
16.0022 -19.5423 -2.2098 0.9036
19.3887 -18.5753 -2.3491 0.8978
28.2229 -4.5700 -2.5013 0.8915
26.3074 5.3747 -2.3491 0.8978
18.4254 8.7399 -1.7842 0.9214
18.5018 11.6926 -1.9148 0.9159
4.3561 5.7884 -0.6338 0.9713
3.7997 6.5685 -0.6639 0.9700
0.2371 5.6835 -0.4977 0.9774
-3.5851 5.6960 -0.5888 0.9733
-4.5908 5.6488 -0.6368 0.9712
-9.8904 5.7458 -1.0007 0.9551
-13.0749 5.6145 -1.2449 0.9445
-26.4896 4.3898 -2.3491 0.8978
-28.5054 -2.2037 -2.5013 0.8915
-28.0328 -5.6196 -2.5013 0.8915
-27.1523 -8.9537 -2.5013 0.8915
-25.8768 -12.1576 -2.5013 0.8915
-24.2248 -15.1846 -2.5013 0.8915
-22.2205 -17.9907 -2.5013 0.8915
-16.2246 -21.3946 -2.3491 0.8978
-13.5308 -23.1924 -2.3491 0.8978
-7.5946 -25.7544 -2.3491 0.8978
-4.7262 -28.1971 -2.5013 0.8915
2.1510 -28.5094 -2.5013 0.8915
5.5678 -28.0431 -2.5013 0.8915
14.2187 -22.7771 -2.3491 0.8978
15.8486 -19.6487 -2.2085 0.9036
24.6684 -14.4529 -2.5013 0.8915
26.2290 -11.3779 -2.5013 0.8915
28.1884 -4.7782 -2.5013 0.8915
12.2312 5.6916 -1.1803 0.9473
18.4964 11.4991 -1.9055 0.9163
19.1033 19.5750 -2.3930 0.8960
4.3805 5.7323 -0.6312 0.9714
0.9734 5.6790 -0.5041 0.9771
0.2791 5.6833 -0.4978 0.9774
-0.4080 5.6875 -0.4989 0.9774
-1.1083 5.6918 -0.5073 0.9770
-1.8435 5.6963 -0.5238 0.9762
-4.5245 5.6520 -0.6334 0.9713
-12.8481 5.6298 -1.2272 0.9452
-19.1671 5.7676 -1.7512 0.9228
-26.4564 4.5852 -2.3491 0.8978
-26.8160 1.3665 -2.3491 0.8978
-28.5209 -1.9932 -2.5013 0.8915
-22.3526 -17.8263 -2.5013 0.8915
-18.8242 -19.1472 -2.3491 0.8978
-11.3955 -19.2054 -1.9538 0.9142
-7.7845 -25.6976 -2.3491 0.8978
15.7144 -19.7793 -2.2101 0.9035
19.1124 -18.8595 -2.3491 0.8978
26.1443 -11.5711 -2.5013 0.8915
28.1523 -4.9862 -2.5013 0.8915
28.5479 -1.5605 -2.5013 0.8915
26.8707 1.7783 -2.3560 0.8975
16.7434 5.3165 -1.5369 0.9319
18.4911 11.3074 -1.8963 0.9167
18.5913 14.7147 -2.0743 0.9092
19.2429 19.4291 -2.3924 0.8960
5.4526 7.0271 -0.7782 0.9649
3.8707 6.4689 -0.6595 0.9702
2.5217 5.6695 -0.5429 0.9754
1.7418 5.6743 -0.5193 0.9764
1.0166 5.6787 -0.5047 0.9771
-1.0647 5.6915 -0.5066 0.9770
-1.7971 5.6960 -0.5226 0.9763
-2.5891 5.7009 -0.5478 0.9752
-3.4719 5.7013 -0.5840 0.9736
-5.6537 5.6202 -0.6974 0.9685
-7.3241 5.7048 -0.8122 0.9634
-12.6277 5.6447 -1.2101 0.9460
-18.7725 5.8004 -1.7190 0.9241
-26.8052 1.5645 -2.3491 0.8978
-28.5349 -1.7826 -2.5013 0.8915
-28.1127 -5.2052 -2.5013 0.8915
-27.2815 -8.5519 -2.5013 0.8915
-26.0534 -11.7743 -2.5013 0.8915
-24.4464 -14.8253 -2.5013 0.8915
-22.4836 -17.6608 -2.5013 0.8915
-18.9650 -19.0078 -2.3491 0.8978
-16.5387 -21.1528 -2.3491 0.8978
-5.1419 -28.1243 -2.5013 0.8915
-1.7185 -28.5388 -2.5013 0.8915
1.7249 -28.4556 -2.4941 0.8918
5.1533 -28.1222 -2.5013 0.8915
8.5015 -27.2972 -2.5013 0.8915
13.8808 -22.9845 -2.3491 0.8978
18.9727 -19.0001 -2.3491 0.8978
22.0516 -17.3071 -2.4525 0.8935
24.4523 -14.8155 -2.5013 0.8915
27.2849 -8.5410 -2.5013 0.8915
28.1148 -5.1938 -2.5013 0.8915
26.4200 4.7909 -2.3491 0.8978
17.2263 5.3302 -1.5776 0.9302
12.5691 5.6246 -1.2047 0.9462
18.4859 11.1177 -1.8873 0.9170
19.3814 19.2822 -2.3919 0.8960
4.4361 5.6307 -0.6271 0.9716
2.5719 5.6692 -0.5446 0.9753
1.7876 5.6740 -0.5205 0.9764
1.0599 5.6785 -0.5054 0.9771
-0.3237 5.6870 -0.4983 0.9774
-3.4131 5.6989 -0.5812 0.9737
-7.0301 5.5596 -0.7841 0.9647
-9.3997 5.7427 -0.9637 0.9567
-26.3859 4.9752 -2.3491 0.8978
-26.7929 1.7623 -2.3491 0.8978
-27.3439 -8.3503 -2.5013 0.8915
-26.1396 -11.5817 -2.5013 0.8915
-8.1629 -25.5799 -2.3491 0.8978
1.5193 -28.5501 -2.5013 0.8915
4.9456 -28.1595 -2.5013 0.8915
8.2998 -27.3592 -2.5013 0.8915
13.7108 -23.0864 -2.3491 0.8978
16.3906 -21.2677 -2.3491 0.8978
21.7248 -17.3112 -2.4303 0.8945
24.3423 -14.9956 -2.5013 0.8915
25.9706 -11.9558 -2.5013 0.8915
27.2212 -8.7421 -2.5013 0.8915
28.5217 -1.9817 -2.5013 0.8915
28.4922 1.4635 -2.4960 0.8918
26.4546 4.5959 -2.3491 0.8978
18.4809 10.9296 -1.8785 0.9174
18.5773 14.2627 -2.0491 0.9102
2.6224 5.6688 -0.5465 0.9752
1.1032 5.6782 -0.5061 0.9770
-1.7049 5.6955 -0.5201 0.9764
-26.3484 5.1698 -2.3491 0.8978
-26.7792 1.9600 -2.3491 0.8978
-27.4048 -8.1483 -2.5013 0.8915
-26.2244 -11.3885 -2.5013 0.8915
-19.2436 -18.7257 -2.3491 0.8978
-16.8491 -20.9064 -2.3491 0.8978
-14.2095 -22.7829 -2.3491 0.8978
-11.3632 -24.3279 -2.3491 0.8978
-5.5467 -27.9961 -2.4970 0.8917
4.7375 -28.1952 -2.5013 0.8915
8.0977 -27.4198 -2.5013 0.8915
11.3401 -26.2454 -2.5013 0.8915
13.5401 -23.1869 -2.3491 0.8978
21.4038 -17.3152 -2.4086 0.8953
24.2310 -15.1748 -2.5013 0.8915
25.8817 -12.1472 -2.5013 0.8915
27.1559 -8.9428 -2.5013 0.8915
28.0350 -5.6083 -2.5013 0.8915
28.5426 1.2550 -2.4996 0.8916
18.3090 5.3704 -1.6693 0.9262
18.5705 14.0408 -2.0368 0.9108
17.2878 21.2895 -2.3993 0.8957
1.8799 5.6734 -0.5229 0.9763
0.4475 5.6822 -0.4987 0.9774
-2.4379 5.7000 -0.5424 0.9754
-13.7986 23.8312 -2.4092 0.8953
-6.8215 5.5602 -0.7699 0.9653
-12.0013 5.6868 -1.1619 0.9481
-26.7640 2.1576 -2.3491 0.8978
-28.4853 -1.1471 -2.4942 0.8918
-28.2210 -4.5814 -2.5013 0.8915
-22.8691 -17.1587 -2.5013 0.8915
-19.3813 -18.5831 -2.3491 0.8978
-14.3773 -22.6773 -2.3491 0.8978
-11.5424 -24.2433 -2.3491 0.8978
-8.5396 -25.4567 -2.3491 0.8978
-5.7370 -27.8750 -2.4899 0.8920
1.0977 -28.5694 -2.5013 0.8915
11.1459 -26.3284 -2.5013 0.8915
13.4049 -23.3494 -2.3555 0.8975
16.0749 -21.5073 -2.3491 0.8978
21.0884 -17.3191 -2.3875 0.8962
24.1183 -15.3533 -2.5013 0.8915
26.5196 4.2048 -2.3491 0.8978
18.5638 13.8216 -2.0249 0.9113
19.7898 18.8352 -2.3902 0.8961
17.4409 21.1570 -2.3989 0.8957
2.7244 5.6682 -0.5502 0.9751
1.9264 5.6731 -0.5242 0.9762
1.1904 5.6777 -0.5075 0.9770
-0.1975 5.6862 -0.4978 0.9774
-1.6135 5.6949 -0.5179 0.9765
-2.3881 5.6997 -0.5407 0.9755
-5.3444 5.6360 -0.6795 0.9693
-11.8034 5.7000 -1.1468 0.9487
-26.7474 2.3550 -2.3491 0.8978
-27.9134 -0.9177 -2.4434 0.8939
-27.5220 -7.7429 -2.5013 0.8915
-19.5179 -18.4396 -2.3491 0.8978
-17.1558 -20.6554 -2.3491 0.8978
-14.5443 -22.5706 -2.3491 0.8978
-11.7210 -24.1575 -2.3491 0.8978
-8.7274 -25.3929 -2.3491 0.8978
-5.7437 -26.9007 -2.4066 0.8954
-2.5602 -28.4756 -2.5013 0.8915
7.6921 -27.5363 -2.5013 0.8915
15.9157 -21.6254 -2.3491 0.8978
18.4036 -19.5519 -2.3491 0.8978
20.7785 -17.3229 -2.3668 0.8971
24.0043 -15.5309 -2.5013 0.8915
28.5783 0.8340 -2.5013 0.8915
19.3646 2.9240 -1.7134 0.9244
20.0530 5.5617 -1.8206 0.9198
18.4662 10.3761 -1.8532 0.9185
4.0443 6.2256 -0.6495 0.9706
0.5282 5.6412 -0.4957 0.9775
-0.8485 5.6902 -0.5033 0.9772
-1.5681 5.6946 -0.5168 0.9766
-2.3387 5.6994 -0.5390 0.9756
-4.1408 5.6700 -0.6143 0.9722
-5.2695 5.6399 -0.6753 0.9695
-11.6106 5.7130 -1.1321 0.9494
-8.0146 2.8043 -0.7429 0.9665
-27.2379 -0.6943 -2.3838 0.8964
-28.2856 -4.1644 -2.5013 0.8915
-27.5785 -7.5395 -2.5013 0.8915
-26.4701 -10.8050 -2.5013 0.8915
-19.6534 -18.2951 -2.3491 0.8978
-17.3079 -20.5281 -2.3491 0.8978
-14.7105 -22.4626 -2.3491 0.8978
-6.0445 5.5808 -1.0101 0.9674
-10.4206 5.7490 -1.4613 0.9532
-20.2715 -2.0195 -2.5013 0.9212
-19.8809 -4.4454 -2.5013 0.9212
-17.0173 -11.1992 -2.5013 0.9212
-11.9472 -16.5007 -2.5013 0.9212
-5.3280 -19.6627 -2.5013 0.9212
-2.9219 -20.1612 -2.5013 0.9212
1.9821 -20.2751 -2.5013 0.9212
9.0352 -18.2586 -2.5013 0.9212
14.9167 -13.8745 -2.5013 0.9212
16.4787 -11.9777 -2.5013 0.9212
18.8641 -7.6914 -2.5013 0.9212
19.6529 -5.3643 -2.5013 0.9212
5.4049 5.7895 -0.9725 0.9686
4.2906 5.8801 -0.8938 0.9711
3.1667 5.6655 -0.7969 0.9742
1.5604 5.6754 -0.7227 0.9766
0.8446 5.6798 -0.7051 0.9771
-0.5349 5.6883 -0.7015 0.9772
-1.2398 5.6926 -0.7153 0.9768
-1.9842 5.6972 -0.7407 0.9760
-5.9605 5.5852 -1.0029 0.9676
-10.2392 5.7479 -1.4418 0.9538
-13.2953 5.4781 -1.7656 0.9437
-18.4383 5.1060 -2.3491 0.9258
-20.2858 -1.8698 -2.5013 0.9212
-8.1628 -2.8260 -1.0606 0.9658
-17.0995 -11.0733 -2.5013 0.9212
-15.6420 -13.0514 -2.5013 0.9212
-13.9569 -14.8397 -2.5013 0.9212
-12.0687 -16.4121 -2.5013 0.9212
-10.0050 -17.7458 -2.5013 0.9212
1.8324 -20.2892 -2.5013 0.9212
6.6292 -19.2630 -2.5013 0.9212
11.0417 -17.1199 -2.5013 0.9212
13.0225 -15.6660 -2.5013 0.9212
16.3898 -12.0990 -2.5013 0.9212
17.7273 -10.0377 -2.5013 0.9212
18.8068 -7.8304 -2.5013 0.9212
20.1334 -3.1078 -2.5013 0.9212
19.0578 1.6858 -2.3491 0.9258
18.1024 6.1925 -2.3491 0.9258
17.2401 8.3341 -2.3512 0.9257
8.7996 5.6524 -1.2842 0.9587
14.8404 12.2900 -2.3659 0.9253
4.3234 5.8342 -0.8916 0.9712
3.2067 5.6389 -0.7965 0.9742
0.1951 5.6838 -0.6983 0.9773
-0.4926 5.6880 -0.7010 0.9773
-1.1958 5.6923 -0.7142 0.9768
-1.9371 5.6969 -0.7388 0.9760
-3.6423 5.6933 -0.8299 0.9731
-5.8776 5.5896 -0.9959 0.9678
-13.0631 5.4956 -1.7401 0.9445
-10.4432 2.9751 -1.3332 0.9572
-20.3214 0.7350 -2.4968 0.9213
-18.3738 -8.7986 -2.5013 0.9212
-17.1808 -10.9467 -2.5013 0.9212
-14.0660 -14.7363 -2.5013 0.9212
-12.1895 -16.3226 -2.5013 0.9212
-7.9344 -18.7632 -2.5013 0.9212
-5.6177 -19.5820 -2.5013 0.9212
-3.2192 -20.1158 -2.5013 0.9212
-0.7739 -20.3571 -2.5013 0.9212
6.4869 -19.3114 -2.5013 0.9212
14.7103 -14.0932 -2.5013 0.9212
18.7485 -7.9690 -2.5013 0.9212
20.1099 -3.2563 -2.5013 0.9212
18.7450 3.8297 -2.3491 0.9258
17.2976 8.2050 -2.3507 0.9257
14.9281 12.1779 -2.3655 0.9253
5.5653 5.7876 -0.9859 0.9682
4.3561 5.7884 -0.8895 0.9712
3.7997 6.5685 -0.9317 0.9699
2.4224 5.6701 -0.7571 0.9755
1.6507 5.6748 -0.7257 0.9765
0.9304 5.6793 -0.7066 0.9771
-1.1520 5.6921 -0.7131 0.9769
-2.6916 5.7015 -0.7741 0.9749
-4.5908 5.6488 -0.8938 0.9711
-9.8904 5.7458 -1.4044 0.9549
-12.8374 5.5125 -1.7154 0.9453
-20.2956 0.8841 -2.4943 0.9214
-18.4382 -8.6628 -2.5013 0.9212
-15.8329 -12.8191 -2.5013 0.9212
-14.1744 -14.6321 -2.5013 0.9212
-12.3096 -16.2322 -2.5013 0.9212
-10.2658 -17.5961 -2.5013 0.9212
-3.3676 -20.0916 -2.5013 0.9212
-0.9242 -20.3508 -2.5013 0.9212
3.9673 -19.9818 -2.5013 0.9212
6.3442 -19.3588 -2.5013 0.9212
8.6287 -18.4541 -2.5013 0.9212
16.2094 -12.3396 -2.5013 0.9212
17.5771 -10.2983 -2.5013 0.9212
18.6892 -8.1072 -2.5013 0.9212
20.0853 -3.4046 -2.5013 0.9212
20.2698 1.4918 -2.4956 0.9214
18.7728 3.6912 -2.3491 0.9258
18.1918 5.9246 -2.3491 0.9258
5.6472 5.7866 -0.9928 0.9679
4.3805 5.7323 -0.8858 0.9713
3.8353 6.5185 -0.9286 0.9700
1.6961 5.6746 -0.7272 0.9764
0.9734 5.6790 -0.7075 0.9770
0.2791 5.6833 -0.6987 0.9773
-0.4080 5.6875 -0.7001 0.9773
-2.6402 5.7012 -0.7714 0.9750
-4.5245 5.6520 -0.8889 0.9712
-18.3208 5.5130 -2.3491 0.9258
-19.7970 1.0088 -2.4339 0.9232
-20.3223 -1.4203 -2.5013 0.9212
-20.0034 -3.8567 -2.5013 0.9212
-17.2282 -10.6227 -2.4851 0.9217
-15.9271 -12.7019 -2.5013 0.9212
-12.4291 -16.1409 -2.5013 0.9212
-10.3954 -17.5199 -2.5013 0.9212
-5.9061 -19.4969 -2.5013 0.9212
3.8197 -20.0105 -2.5013 0.9212
6.2011 -19.4051 -2.5013 0.9212
10.6599 -17.3602 -2.5013 0.9212
12.6725 -15.9505 -2.5013 0.9212
16.1179 -12.4589 -2.5013 0.9212
17.5007 -10.4277 -2.5013 0.9212
18.6288 -8.2449 -2.5013 0.9212
20.3414 -1.1119 -2.5013 0.9212
20.3007 1.3435 -2.4981 0.9213
18.7995 3.5526 -2.3491 0.9258
17.5326 5.5671 -2.2587 0.9285
9.2435 5.6524 -1.3303 0.9573
2.5217 5.6695 -0.7619 0.9753
1.7418 5.6743 -0.7288 0.9764
-1.7971 5.6960 -0.7334 0.9762
-2.5891 5.7009 -0.7688 0.9751
-3.4719 5.7013 -0.8196 0.9735
-4.4589 5.6550 -0.8842 0.9714
-5.6358 5.6024 -0.9757 0.9685
-7.0496 5.4909 -1.0972 0.9646
-12.4046 5.5449 -1.6683 0.9467
-18.2796 5.6480 -2.3491 0.9258
-19.1708 1.1189 -2.3579 0.9255
-20.3322 -1.2702 -2.5013 0.9212
-20.0314 -3.7089 -2.5013 0.9212
-18.5641 -8.3896 -2.5013 0.9212
-16.0205 -12.5840 -2.5013 0.9212
-12.5479 -16.0487 -2.5013 0.9212
-10.5245 -17.4427 -2.5013 0.9212
-8.3479 -18.5829 -2.5013 0.9212
-6.0499 -19.4528 -2.5013 0.9212
-1.2245 -20.3350 -2.5013 0.9212
8.3554 -18.5795 -2.5013 0.9212
12.5544 -16.0436 -2.5013 0.9212
14.3947 -14.4154 -2.5013 0.9212
16.0255 -12.5775 -2.5013 0.9212
19.4416 -6.0858 -2.5013 0.9212
20.0328 -3.7008 -2.5013 0.9212
20.3327 -1.2620 -2.5013 0.9212
20.3306 1.1948 -2.5006 0.9212
18.8252 3.4137 -2.3491 0.9258
17.4643 7.8151 -2.3493 0.9258
15.1859 11.8381 -2.3642 0.9253
13.6885 13.6184 -2.3708 0.9251
4.4361 5.6307 -0.8802 0.9715
3.9058 6.4197 -0.9227 0.9702
-1.0212 5.6912 -0.7100 0.9770
-2.5383 5.7006 -0.7662 0.9752
-3.4131 5.6989 -0.8156 0.9736
-4.3940 5.6581 -0.8796 0.9715
-5.5573 5.6066 -0.9693 0.9687
-9.3997 5.7427 -1.3525 0.9566
-18.8010 3.5450 -2.3491 0.9258
-19.0910 1.2557 -2.3491 0.9258
-20.0582 -3.5610 -2.5013 0.9212
-8.1615 -3.6161 -1.0961 0.9647
-16.1129 -12.4654 -2.5013 0.9212
-10.6529 -17.3645 -2.5013 0.9212
-3.8116 -20.0121 -2.5013 0.9212
-1.3746 -20.3254 -2.5013 0.9212
1.0826 -20.3430 -2.5013 0.9212
3.5239 -20.0647 -2.5013 0.9212
5.9140 -19.4945 -2.5013 0.9212
8.2180 -18.6407 -2.5013 0.9212
14.2879 -14.5213 -2.5013 0.9212
15.9322 -12.6955 -2.5013 0.9212
18.5051 -8.5190 -2.5013 0.9212
19.3961 -6.2291 -2.5013 0.9212
20.3228 -1.4121 -2.5013 0.9212
18.8499 3.2748 -2.3491 0.9258
18.3185 5.5203 -2.3491 0.9258
17.5207 7.6857 -2.3491 0.9258
13.7864 13.5148 -2.3705 0.9251
5.5900 6.9886 -1.0988 0.9646
3.9408 6.3707 -0.9198 0.9703
2.6224 5.6688 -0.7669 0.9751
1.8337 5.6737 -0.7321 0.9763
0.4054 5.6825 -0.6995 0.9773
-0.2816 5.6867 -0.6991 0.9773
-1.7049 5.6955 -0.7300 0.9763
-2.4880 5.7003 -0.7637 0.9752
-3.3516 5.6911 -0.8109 0.9737
-4.3297 5.6611 -0.8751 0.9717
-5.4799 5.6107 -0.9630 0.9689
-6.8788 5.5230 -1.0832 0.9651
-9.2441 5.7418 -1.3362 0.9571
-8.3006 -2.4680 -1.0633 0.9657
-17.5730 -10.3054 -2.5013 0.9212
-16.2044 -12.3461 -2.5013 0.9212
-14.6002 -14.2072 -2.5013 0.9212
-6.3363 -19.3613 -2.5013 0.9212
-3.9592 -19.9834 -2.5013 0.9212
-1.5245 -20.3147 -2.5013 0.9212
0.9324 -20.3505 -2.5013 0.9212
8.0802 -18.7008 -2.5013 0.9212
10.2729 -17.5920 -2.5013 0.9212
12.3162 -16.2272 -2.5013 0.9212
14.1803 -14.6264 -2.5013 0.9212
15.8381 -12.8127 -2.5013 0.9212
17.2655 -10.8126 -2.5013 0.9212
18.3588 5.3850 -2.3491 0.9258
15.3535 11.6085 -2.3634 0.9254
13.8835 13.4105 -2.3701 0.9252
12.1987 15.0224 -2.3761 0.9250
3.9755 6.3220 -0.9170 0.9704
1.8799 5.6734 -0.7339 0.9762
0.4475 5.6822 -0.6998 0.9773
-1.6591 5.6952 -0.7283 0.9764
-2.4379 5.7000 -0.7612 0.9753
-4.2661 5.6641 -0.8707 0.9718
-14.9985 5.0006 -1.9412 0.9383
-18.7465 3.8222 -2.3491 0.9258
-19.0704 1.5374 -2.3491 0.9258
-20.1086 -3.2644 -2.5013 0.9212
-16.2951 -12.2262 -2.5013 0.9212
-12.9002 -15.7670 -2.5013 0.9212
-6.4790 -19.3141 -2.5013 0.9212
-1.6744 -20.3029 -2.5013 0.9212
10.1428 -17.6673 -2.5013 0.9212
17.1852 -10.9399 -2.5013 0.9212
20.2997 -1.7119 -2.5013 0.9212
20.3582 0.7445 -2.5013 0.9212
18.3980 5.2493 -2.3491 0.9258
16.6555 9.5211 -2.3556 0.9256
15.4359 11.4928 -2.3629 0.9254
13.9798 13.3054 -2.3697 0.9252
12.3075 14.9297 -2.3757 0.9250
4.0100 6.2736 -0.9142 0.9704
2.7244 5.6682 -0.7722 0.9750
1.9264 5.6731 -0.7356 0.9761
1.1904 5.6777 -0.7123 0.9769
0.4896 5.6802 -0.7000 0.9773
-2.3881 5.6997 -0.7588 0.9754
-3.2414 5.6945 -0.8045 0.9739
-4.2031 5.6670 -0.8663 0.9720
-5.3279 5.6187 -0.9507 0.9693
-6.6906 5.5362 -1.0663 0.9656
-8.9437 5.7399 -1.3049 0.9581
-11.7345 5.6668 -1.6000 0.9488
-18.7179 3.9604 -2.3491 0.9258
-17.7232 -10.0448 -2.5013 0.9212
-11.0348 -17.1244 -2.5013 0.9212
-6.6215 -19.2657 -2.5013 0.9212
-4.2538 -19.9227 -2.5013 0.9212
-1.8242 -20.2900 -2.5013 0.9212
12.0753 -16.4072 -2.5013 0.9212
15.6473 -13.0451 -2.5013 0.9212
17.1040 -11.0664 -2.5013 0.9212
18.3119 -8.9266 -2.5013 0.9212
19.9148 -4.2905 -2.5013 0.9212
20.3631 0.5943 -2.5013 0.9212
18.4363 5.1133 -2.3491 0.9258
17.6865 7.2958 -2.3491 0.9258
16.7220 9.3961 -2.3551 0.9256
14.0753 13.1997 -2.3693 0.9252
4.0443 6.2256 -0.9115 0.9705
2.7759 5.6679 -0.7749 0.9749
1.9732 5.6729 -0.7375 0.9761
1.2341 5.6774 -0.7134 0.9769
0.5282 5.6412 -0.6957 0.9774
-5.2534 5.6226 -0.9448 0.9695
-6.5986 5.5426 -1.0581 0.9659
-8.7988 5.7390 -1.2899 0.9585
-11.5763 5.6961 -1.5841 0.9493
-19.0456 1.8186 -2.3491 0.9258
-20.3652 -0.5191 -2.5013 0.9212
-8.4092 -2.2989 -1.0704 0.9655
-8.1000 -3.3064 -1.0742 0.9654
-17.7969 -9.9138 -2.5013 0.9212
-16.4738 -11.9843 -2.5013 0.9212
-13.1316 -15.5748 -2.5013 0.9212
-11.1609 -17.0425 -2.5013 0.9212
-5.9759 5.5174 -1.2882 0.9676
-10.4206 5.7490 -1.8850 0.9529
-14.6825 2.1003 -2.3491 0.9417
-15.7892 0.3378 -2.5013 0.9380
-15.7151 -1.5656 -2.5013 0.9380
-7.4358 -2.6359 -1.2495 0.9686
-7.3886 -3.6732 -1.3069 0.9671
-12.0511 -10.2071 -2.5013 0.9380
-9.2619 -12.7919 -2.5013 0.9380
-5.9356 -14.6350 -2.5013 0.9380
-4.1304 -15.2431 -2.5013 0.9380
-0.3670 -15.7886 -2.5013 0.9380
3.4178 -15.4186 -2.5013 0.9380
5.2493 -14.8949 -2.5013 0.9380
7.0044 -14.1546 -2.5013 0.9380
12.7748 -9.2854 -2.5013 0.9380
13.7998 -7.6799 -2.5013 0.9380
14.6240 -5.9626 -2.5013 0.9380
15.2355 -4.1586 -2.5013 0.9380
15.6254 -2.2940 -2.5013 0.9380
14.8036 1.4196 -2.3554 0.9416
13.9977 4.9040 -2.3491 0.9417
12.4261 8.1121 -2.3504 0.9417
5.2866 5.6627 -1.2270 0.9691
2.3243 5.6707 -0.9707 0.9755
1.5604 5.6754 -0.9322 0.9764
0.8446 5.6798 -0.9095 0.9770
0.1531 5.6840 -0.9006 0.9772
-0.5349 5.6883 -0.9049 0.9771
-1.2398 5.6926 -0.9228 0.9767
-2.7955 5.7022 -1.0058 0.9746
-4.6990 5.6107 -1.1591 0.9708
-5.8946 5.5235 -1.2794 0.9678
-10.2391 5.7479 -1.8598 0.9536
-13.7134 5.6504 -2.3491 0.9417
-9.3560 -12.7232 -2.5013 0.9380
-7.7561 -13.7570 -2.5013 0.9380
-6.0434 -14.5908 -2.5013 0.9380
-4.2428 -15.2122 -2.5013 0.9380
-2.3805 -15.6124 -2.5013 0.9380
-0.4835 -15.7854 -2.5013 0.9380
1.4205 -15.7288 -2.5013 0.9380
12.7059 -9.3795 -2.5013 0.9380
13.7427 -7.7815 -2.5013 0.9380
14.5796 -6.0704 -2.5013 0.9380
15.2044 -4.2709 -2.5013 0.9380
15.6080 -2.4093 -2.5013 0.9380
15.7845 -0.5126 -2.5013 0.9380
14.5094 3.0761 -2.3491 0.9417
5.3655 5.6629 -1.2356 0.9689
4.3234 5.8342 -1.1501 0.9710
2.3732 5.6704 -0.9736 0.9754
1.6054 5.6751 -0.9341 0.9764
0.8874 5.6795 -0.9105 0.9770
0.1951 5.6838 -0.9008 0.9772
-1.9371 5.6969 -0.9530 0.9759
-2.7434 5.7018 -1.0022 0.9747
-3.6364 5.6842 -1.0687 0.9730
-7.1066 5.2867 -1.4029 0.9648
-10.3756 2.9559 -1.7087 0.9572
-14.6498 2.3167 -2.3491 0.9417
-15.7365 -1.3334 -2.5013 0.9380
-13.3191 -8.4862 -2.5013 0.9380
-12.2005 -10.0281 -2.5013 0.9380
-9.4497 -12.6537 -2.5013 0.9380
-6.1510 -14.5458 -2.5013 0.9380
-2.4956 -15.5944 -2.5013 0.9380
-0.6000 -15.7814 -2.5013 0.9380
1.3044 -15.7389 -2.5013 0.9380
3.1898 -15.4673 -2.5013 0.9380
5.0288 -14.9708 -2.5013 0.9380
6.7947 -14.2565 -2.5013 0.9380
10.0055 -12.2190 -2.5013 0.9380
11.4039 -10.9255 -2.5013 0.9380
12.6363 -9.4730 -2.5013 0.9380
13.6849 -7.8828 -2.5013 0.9380
14.5344 -6.1778 -2.5013 0.9380
15.1725 -4.3830 -2.5013 0.9380
15.5898 -2.5244 -2.5013 0.9380
14.8229 1.2009 -2.3554 0.9416
14.5317 2.9689 -2.3491 0.9417
11.5222 9.3995 -2.3552 0.9416
3.7997 6.5685 -1.2019 0.9697
1.6507 5.6748 -0.9361 0.9763
0.9304 5.6793 -0.9115 0.9770
0.2371 5.6835 -0.9010 0.9772
-0.4503 5.6877 -0.9037 0.9772
-1.1520 5.6921 -0.9198 0.9768
-1.8902 5.6966 -0.9506 0.9760
-2.6916 5.7015 -0.9986 0.9748
-4.5674 5.6200 -1.1470 0.9711
-7.0309 5.3115 -1.3956 0.9649
-9.8904 5.7458 -1.8116 0.9547
-13.6285 5.8522 -2.3491 0.9417
-14.6323 2.4248 -2.3491 0.9417
-15.7779 0.6874 -2.5013 0.9380
-15.7459 -1.2173 -2.5013 0.9380
-15.4848 -3.1041 -2.5013 0.9380
-7.4802 -2.4667 -1.2475 0.9686
-12.2742 -9.9377 -2.5013 0.9380
-10.9884 -11.3432 -2.5013 0.9380
-9.5428 -12.5837 -2.5013 0.9380
-7.9584 -13.6410 -2.5013 0.9380
-6.2582 -14.5000 -2.5013 0.9380
-4.4669 -15.1480 -2.5013 0.9380
-2.6107 -15.5756 -2.5013 0.9380
-0.7164 -15.7766 -2.5013 0.9380
3.0756 -15.4905 -2.5013 0.9380
4.9182 -15.0075 -2.5013 0.9380
8.3630 -13.3968 -2.5013 0.9380
9.9151 -12.2925 -2.5013 0.9380
12.5661 -9.5660 -2.5013 0.9380
13.6263 -7.9835 -2.5013 0.9380
14.4884 -6.2849 -2.5013 0.9380
15.1397 -4.4949 -2.5013 0.9380
15.5707 -2.6394 -2.5013 0.9380
15.7752 -0.7455 -2.5013 0.9380
14.8314 1.0915 -2.3554 0.9416
14.1028 4.5929 -2.3491 0.9417
13.4473 6.2574 -2.3491 0.9417
11.5897 9.3129 -2.3548 0.9416
5.5269 5.6634 -1.2534 0.9685
4.3805 5.7323 -1.1426 0.9712
2.4719 5.6698 -0.9796 0.9753
1.6961 5.6746 -0.9381 0.9763
-0.4080 5.6875 -0.9031 0.9772
-5.6570 5.5411 -1.2542 0.9684
-9.7227 5.7447 -1.7886 0.9553
-13.5850 5.9527 -2.3491 0.9417
-14.6141 2.5328 -2.3491 0.9417
-15.7724 0.8038 -2.5013 0.9380
-15.5073 -2.9898 -2.5013 0.9380
-7.3657 -3.3945 -1.2845 0.9677
-13.4429 -8.2887 -2.5013 0.9380
-11.0718 -11.2618 -2.5013 0.9380
-9.6354 -12.5129 -2.5013 0.9380
-6.3650 -14.4534 -2.5013 0.9380
-4.5786 -15.1146 -2.5013 0.9380
-2.7256 -15.5559 -2.5013 0.9380
1.0719 -15.7564 -2.5013 0.9380
2.9612 -15.5128 -2.5013 0.9380
4.8073 -15.0434 -2.5013 0.9380
12.4951 -9.6585 -2.5013 0.9380
13.5671 -8.0839 -2.5013 0.9380
14.4416 -6.3917 -2.5013 0.9380
15.5508 -2.7543 -2.5013 0.9380
13.4931 6.1580 -2.3491 0.9417
12.6536 7.7377 -2.3491 0.9417
11.6565 9.2259 -2.3545 0.9416
5.3825 6.9368 -1.3906 0.9651
2.5217 5.6695 -0.9828 0.9752
1.0166 5.6787 -0.9137 0.9769
-1.0647 5.6915 -0.9171 0.9768
-1.7971 5.6960 -0.9460 0.9761
-3.4683 5.6954 -1.0562 0.9734
-6.8817 5.3601 -1.3816 0.9653
-9.5592 5.7437 -1.7663 0.9558
-12.8857 5.7600 -2.2355 0.9444
-14.1709 4.3785 -2.3491 0.9417
-14.5950 2.6406 -2.3491 0.9417
-15.7660 0.9202 -2.5013 0.9380
-15.7621 -0.9847 -2.5013 0.9380
-15.5289 -2.8753 -2.5013 0.9380
-13.5037 -8.1892 -2.5013 0.9380
-11.1547 -11.1798 -2.5013 0.9380
-4.6900 -15.0804 -2.5013 0.9380
4.6961 -15.0785 -2.5013 0.9380
12.4234 -9.7505 -2.5013 0.9380
15.5301 -2.8690 -2.5013 0.9380
14.1691 4.3842 -2.3491 0.9417
13.5382 6.0582 -2.3491 0.9417
5.7000 5.6708 -1.2735 0.9680
4.4361 5.6307 -1.1353 0.9714
3.9058 6.4197 -1.1902 0.9700
1.7876 5.6740 -0.9422 0.9762
-0.3237 5.6870 -0.9022 0.9772
-1.0212 5.6912 -0.9158 0.9769
-4.3749 5.6335 -1.1297 0.9715
-9.3997 5.7427 -1.7446 0.9564
-12.2290 5.5751 -2.1287 0.9470
-14.1382 4.4830 -2.3491 0.9417
-14.5751 2.7482 -2.3491 0.9417
-15.7690 -0.8683 -2.5013 0.9380
-15.5497 -2.7606 -2.5013 0.9380
-7.5314 -2.2999 -1.2472 0.9686
-11.2369 -11.0972 -2.5013 0.9380
-8.2585 -13.4615 -2.5013 0.9380
-4.8012 -15.0454 -2.5013 0.9380
-2.9549 -15.5140 -2.5013 0.9380
-1.0656 -15.7569 -2.5013 0.9380
0.8392 -15.7705 -2.5013 0.9380
6.3709 -14.4508 -2.5013 0.9380
8.0643 -13.5787 -2.5013 0.9380
9.6405 -12.5090 -2.5013 0.9380
12.3511 -9.8419 -2.5013 0.9380
14.3457 -6.6042 -2.5013 0.9380
15.0365 -4.8290 -2.5013 0.9380
15.5085 -2.9835 -2.5013 0.9380
15.7549 -1.0947 -2.5013 0.9380
15.7721 0.8101 -2.5013 0.9380
14.6130 2.5387 -2.3491 0.9417
13.5825 5.9582 -2.3491 0.9417
12.7664 7.5501 -2.3491 0.9417
11.7881 9.0503 -2.3539 0.9416
5.7848 5.6709 -1.2830 0.9677
5.5381 6.9238 -1.4043 0.9647
3.9408 6.3707 -1.1865 0.9701
1.1032 5.6782 -0.9162 0.9768
0.4054 5.6825 -0.9023 0.9772
-2.4880 5.7003 -0.9851 0.9751
-4.3120 5.6379 -1.1242 0.9717
-6.7353 5.4077 -1.3681 0.9656
-12.0607 5.6063 -2.1065 0.9476
-14.1047 4.5872 -2.3491 0.9417
-14.5544 2.8557 -2.3491 0.9417
-7.3660 -3.1988 -1.2719 0.9680
-13.6231 -7.9890 -2.5013 0.9380
-12.5622 -9.5711 -2.5013 0.9380
-9.9101 -12.2965 -2.5013 0.9380
-8.3576 -13.4002 -2.5013 0.9380
-6.6835 -14.3089 -2.5013 0.9380
-4.9121 -15.0095 -2.5013 0.9380
-3.0693 -15.4917 -2.5013 0.9380
-1.1819 -15.7486 -2.5013 0.9380
0.7228 -15.7763 -2.5013 0.9380
2.6169 -15.5745 -2.5013 0.9380
4.4730 -15.1462 -2.5013 0.9380
6.2640 -14.4975 -2.5013 0.9380
9.5479 -12.5798 -2.5013 0.9380
10.9927 -11.3388 -2.5013 0.9380
13.3847 -8.3823 -2.5013 0.9380
15.4860 -3.0979 -2.5013 0.9380
14.6314 2.4307 -2.3491 0.9417
14.2323 4.1746 -2.3491 0.9417
13.6261 5.8578 -2.3491 0.9417
12.8218 7.4557 -2.3491 0.9417
5.6169 6.9171 -1.4113 0.9646
1.1467 5.6779 -0.9175 0.9768
-0.2395 5.6864 -0.9014 0.9772
-0.9346 5.6907 -0.9134 0.9769
-1.6591 5.6952 -0.9395 0.9763
-2.4379 5.7000 -0.9819 0.9752
-7.4929 12.9408 -2.3684 0.9412
-6.6631 5.4311 -1.3615 0.9658
-9.0922 5.7408 -1.7031 0.9574
-15.7801 -0.6355 -2.5013 0.9380
-7.6668 -2.2181 -1.2641 0.9682
-13.6817 -7.8883 -2.5013 0.9380
-12.6325 -9.4781 -2.5013 0.9380
-10.0006 -12.2230 -2.5013 0.9380
-5.0228 -14.9729 -2.5013 0.9380
-3.1836 -15.4687 -2.5013 0.9380
-1.2981 -15.7394 -2.5013 0.9380
0.6064 -15.7812 -2.5013 0.9380
2.5019 -15.5934 -2.5013 0.9380
4.3611 -15.1788 -2.5013 0.9380
7.8630 -13.6962 -2.5013 0.9380
9.4548 -12.6499 -2.5013 0.9380
14.2466 -6.8152 -2.5013 0.9380
14.9636 -5.0504 -2.5013 0.9380
15.4627 -3.2121 -2.5013 0.9380
15.7823 0.5772 -2.5013 0.9380
14.6489 2.3226 -2.3491 0.9417
14.2627 4.0695 -2.3491 0.9417
13.6690 5.7570 -2.3491 0.9417
12.8765 7.3608 -2.3491 0.9417
11.9171 8.8728 -2.3532 0.9416
5.9584 5.6710 -1.3028 0.9672
5.6965 6.9102 -1.4184 0.9644
2.7244 5.6682 -0.9961 0.9749
1.1904 5.6777 -0.9188 0.9768
-0.1975 5.6862 -0.9011 0.9772
-1.6135 5.6949 -0.9375 0.9763
-2.3881 5.6997 -0.9788 0.9753
-3.2414 5.6945 -1.0378 0.9738
-4.1879 5.6465 -1.1135 0.9719
-5.2806 5.5688 -1.2155 0.9694
-6.5915 5.4542 -1.3551 0.9659
-8.9437 5.7399 -1.6832 0.9579
-11.7345 5.6668 -2.0639 0.9486
-14.0355 4.7949 -2.3491 0.9417
-15.6929 1.3817 -2.4951 0.9382
-15.7843 -0.5190 -2.5013 0.9380
-15.6070 -2.4156 -2.5013 0.9380
-13.7396 -7.7871 -2.5013 0.9380
-12.7021 -9.3846 -2.5013 0.9380
-10.0905 -12.1489 -2.5013 0.9380
-6.8940 -14.2087 -2.5013 0.9380
-5.1332 -14.9353 -2.5013 0.9380
-3.2977 -15.4447 -2.5013 0.9380
-1.4142 -15.7294 -2.5013 0.9380
0.4898 -15.7853 -2.5013 0.9380
2.3868 -15.6114 -2.5013 0.9380
4.2490 -15.2105 -2.5013 0.9380
9.3611 -12.7194 -2.5013 0.9380
10.8244 -11.4998 -2.5013 0.9380
12.1302 -10.1129 -2.5013 0.9380
13.2595 -8.5790 -2.5013 0.9380
14.9259 -5.1607 -2.5013 0.9380
15.4386 -3.3262 -2.5013 0.9380
15.7268 -1.4432 -2.5013 0.9380
12.9304 7.2656 -2.3491 0.9417
11.9806 8.7834 -2.3529 0.9416
6.0472 5.6711 -1.3131 0.9670
5.1713 6.1797 -1.2763 0.9679
1.9732 5.6729 -0.9513 0.9760
1.2341 5.6774 -0.9202 0.9767
-0.1554 5.6859 -0.9009 0.9772
-0.8485 5.6902 -0.9112 0.9770
-3.1833 5.6899 -1.0326 0.9739
-4.1267 5.6508 -1.1083 0.9721
-6.5197 5.4764 -1.3486 0.9661
-8.7988 5.7390 -1.6638 0.9583
-11.5763 5.6961 -2.0434 0.9491
-8.0144 2.8042 -1.3448 0.9662
-15.6244 -2.3003 -2.5013 0.9380
-7.9826 -2.1823 -1.3107 0.9670
-11.5596 -10.7606 -2.5013 0.9380
-7.0852 5.1101 -1.6981 0.9650
-10.5817 5.8379 -2.3491 0.9519
-11.2076 4.5215 -2.3491 0.9519
-10.5617 2.8410 -2.1260 0.9564
-12.8654 0.2753 -2.5013 0.9489
-12.8049 -1.2757 -2.5013 0.9489
-8.9931 -2.0109 -1.7912 0.9631
-9.8195 -8.3169 -2.5013 0.9489
-8.7467 -9.4386 -2.5013 0.9489
-4.8364 -11.9248 -2.5013 0.9489
-3.3655 -12.4204 -2.5013 0.9489
-1.8457 -12.7352 -2.5013 0.9489
-0.2990 -12.8648 -2.5013 0.9489
4.2772 -12.1367 -2.5013 0.9489
10.4091 -7.5659 -2.5013 0.9489
11.2443 -6.2577 -2.5013 0.9489
12.4142 -3.3885 -2.5013 0.9489
12.7318 -1.8692 -2.5013 0.9489
11.8037 2.5936 -2.3491 0.9519
11.4056 3.9959 -2.3491 0.9519
9.2506 7.7766 -2.3491 0.9519
3.1667 5.6655 -1.2616 0.9739
2.3243 5.6707 -1.1913 0.9753
1.5604 5.6754 -1.1441 0.9763
0.8446 5.6798 -1.1162 0.9769
-0.5349 5.6883 -1.1106 0.9770
-1.9842 5.6972 -1.1727 0.9757
-4.6507 5.5530 -1.4079 0.9709
-7.0108 5.1355 -1.6892 0.9652
-11.1739 4.6041 -2.3491 0.9519
-11.9506 1.7996 -2.3491 0.9519
-12.8630 0.3702 -2.5013 0.9489
-12.8140 -1.1811 -2.5013 0.9489
-9.2129 -1.9887 -1.8320 0.9623
-10.8013 -6.9947 -2.5013 0.9489
-9.8806 -8.2442 -2.5013 0.9489
-7.6235 -10.3671 -2.5013 0.9489
-4.9243 -11.8888 -2.5013 0.9489
1.1575 -12.8161 -2.5013 0.9489
2.6921 -12.5835 -2.5013 0.9489
4.1875 -12.1679 -2.5013 0.9489
10.3530 -7.6426 -2.5013 0.9489
11.1978 -6.3405 -2.5013 0.9489
12.3888 -3.4800 -2.5013 0.9489
12.6673 1.1205 -2.4719 0.9495
11.8225 2.5064 -2.3491 0.9519
11.4348 3.9116 -2.3491 0.9519
9.3079 7.7083 -2.3491 0.9519
5.4879 5.7921 -1.5510 0.9680
2.3732 5.6704 -1.1949 0.9753
1.6054 5.6751 -1.1464 0.9763
-0.4926 5.6880 -1.1098 0.9770
-1.1958 5.6923 -1.1306 0.9766
-1.9371 5.6969 -1.1696 0.9758
-5.7489 5.4672 -1.5421 0.9682
-6.9370 5.1606 -1.6806 0.9654
-10.0357 5.7315 -2.2465 0.9540
-10.3397 2.9456 -2.0898 0.9571
-11.9370 1.8877 -2.3491 0.9519
-12.8599 0.4651 -2.5013 0.9489
-12.8223 -1.0865 -2.5013 0.9489
-7.0370 -2.3783 -1.4439 0.9702
-10.8526 -6.9147 -2.5013 0.9489
-8.8851 -9.3085 -2.5013 0.9489
-7.6998 -10.3105 -2.5013 0.9489
-6.4024 -11.1625 -2.5013 0.9489
-2.0335 -12.7066 -2.5013 0.9489
5.5364 -11.6164 -2.5013 0.9489
12.3628 -3.5713 -2.5013 0.9489
12.7028 -2.0569 -2.5013 0.9489
11.8407 2.4191 -2.3491 0.9519
10.9192 5.1794 -2.3491 0.9519
10.2162 6.4563 -2.3491 0.9519
9.3645 7.6393 -2.3491 0.9519
4.3561 5.7884 -1.4082 0.9709
3.7997 6.5685 -1.4750 0.9696
-1.1520 5.6921 -1.1289 0.9766
-2.6916 5.7015 -1.2256 0.9746
-4.5209 5.5628 -1.3934 0.9712
-5.6710 5.4734 -1.5320 0.9684
-9.8904 5.7458 -2.2234 0.9545
-11.1048 4.7685 -2.3491 0.9519
-10.3387 3.0280 -2.0941 0.9571
-11.9227 1.9758 -2.3491 0.9519
-12.8561 0.5600 -2.5013 0.9489
-12.6173 -2.5293 -2.5013 0.9489
-7.0531 -2.3258 -1.4436 0.9702
-6.8922 -3.2381 -1.4802 0.9694
-8.9536 -9.2427 -2.5013 0.9489
-7.7756 -10.2534 -2.5013 0.9489
-5.0993 -11.8149 -2.5013 0.9489
-3.6397 -12.3428 -2.5013 0.9489
-2.1272 -12.6913 -2.5013 0.9489
-0.5838 -12.8550 -2.5013 0.9489
0.9682 -12.8318 -2.5013 0.9489
2.5060 -12.6219 -2.5013 0.9489
5.4505 -11.6570 -2.5013 0.9489
6.8143 -10.9160 -2.5013 0.9489
8.0790 -10.0161 -2.5013 0.9489
10.2390 -7.7946 -2.5013 0.9489
11.8054 -5.1211 -2.5013 0.9489
12.6873 -2.1506 -2.5013 0.9489
10.9571 5.0987 -2.3491 0.9519
9.4207 7.5700 -2.3491 0.9519
4.3805 5.7323 -1.4023 0.9710
0.9734 5.6790 -1.1200 0.9768
0.2791 5.6833 -1.1060 0.9771
-1.8435 5.6963 -1.1638 0.9759
-2.6402 5.7012 -1.2213 0.9747
-3.5168 5.6801 -1.2986 0.9731
-5.5941 5.4795 -1.5221 0.9686
-6.7916 5.2099 -1.6638 0.9657
-11.0693 4.8503 -2.3491 0.9519
-10.3183 3.1049 -2.0945 0.9570
-11.9078 2.0637 -2.3491 0.9519
-12.8516 0.6549 -2.5013 0.9489
-7.0695 -2.2735 -1.4435 0.9702
-6.8869 -3.1738 -1.4740 0.9696
-10.0607 -8.0234 -2.5013 0.9489
-9.0215 -9.1763 -2.5013 0.9489
-5.1863 -11.7769 -2.5013 0.9489
-2.2208 -12.6752 -2.5013 0.9489
3.9171 -12.2576 -2.5013 0.9489
5.3643 -11.6969 -2.5013 0.9489
6.7336 -10.9659 -2.5013 0.9489
10.1812 -7.8699 -2.5013 0.9489
11.0547 -6.5869 -2.5013 0.9489
11.5186 3.6575 -2.3491 0.9519
10.3103 6.3048 -2.3491 0.9519
9.4763 7.5003 -2.3491 0.9519
3.8707 6.4689 -1.4653 0.9697
0.3212 5.6830 -1.1064 0.9771
-0.3658 5.6872 -1.1078 0.9770
-4.3937 5.5724 -1.3794 0.9715
-9.5592 5.7437 -2.1677 0.9556
-11.8922 2.1516 -2.3491 0.9519
-7.0857 -2.2212 -1.4434 0.9702
-9.0890 -9.1095 -2.5013 0.9489
-6.6480 -11.0180 -2.5013 0.9489
-3.8215 -12.2878 -2.5013 0.9489
-2.3143 -12.6585 -2.5013 0.9489
0.7786 -12.8447 -2.5013 0.9489
3.8265 -12.2862 -2.5013 0.9489
6.6524 -11.0154 -2.5013 0.9489
7.9302 -10.1343 -2.5013 0.9489
10.1228 -7.9449 -2.5013 0.9489
11.0057 -6.6683 -2.5013 0.9489
11.7285 -5.2948 -2.5013 0.9489
11.0312 4.9364 -2.3491 0.9519
10.3566 6.2286 -2.3491 0.9519
9.5314 7.4301 -2.3491 0.9519
8.5776 8.5338 -2.3519 0.9519
4.4361 5.6307 -1.3934 0.9712
2.5719 5.6692 -1.2101 0.9750
1.7876 5.6740 -1.1564 0.9761
1.0599 5.6785 -1.1228 0.9767
0.3633 5.6827 -1.1069 0.9771
-2.5383 5.7006 -1.2130 0.9749
-3.4131 5.6989 -1.2912 0.9733
-6.6488 5.2581 -1.6477 0.9660
-9.3997 5.7427 -2.1411 0.9561
-11.5200 3.6528 -2.3491 0.9519
-11.8760 2.2393 -2.3491 0.9519
-12.8488 -0.7075 -2.5013 0.9489
-7.1269 -2.1764 -1.4485 0.9701
-6.8760 -3.0465 -1.4619 0.9698
-11.0520 -6.5914 -2.5013 0.9489
-9.1560 -9.0422 -2.5013 0.9489
-6.7291 -10.9687 -2.5013 0.9489
0.6838 -12.8501 -2.5013 0.9489
3.7357 -12.3141 -2.5013 0.9489
5.1911 -11.7748 -2.5013 0.9489
6.5709 -11.0642 -2.5013 0.9489
7.8552 -10.1926 -2.5013 0.9489
9.0252 -9.1727 -2.5013 0.9489
10.9562 -6.7494 -2.5013 0.9489
12.6366 -2.4310 -2.5013 0.9489
11.5713 3.4870 -2.3491 0.9519
11.0673 4.8548 -2.3491 0.9519
8.6395 8.4694 -2.3517 0.9519
3.9408 6.3707 -1.4561 0.9699
2.6224 5.6688 -1.2141 0.9749
1.8337 5.6737 -1.1590 0.9760
1.1032 5.6782 -1.1244 0.9767
0.4054 5.6825 -1.1074 0.9771
-0.9778 5.6910 -1.1224 0.9767
-2.4880 5.7003 -1.2090 0.9750
-3.3516 5.6911 -1.2838 0.9734
-4.2690 5.5817 -1.3659 0.9718
-6.5784 5.2818 -1.6399 0.9662
-9.2441 5.7418 -2.1153 0.9566
-10.9592 5.0942 -2.3491 0.9519
-11.8592 2.3269 -2.3491 0.9519
-12.6865 -2.1558 -2.5013 0.9489
-6.8704 -2.9836 -1.4560 0.9699
-11.1004 -6.5096 -2.5013 0.9489
-9.2225 -8.9743 -2.5013 0.9489
-4.0025 -12.2300 -2.5013 0.9489
-2.5009 -12.6229 -2.5013 0.9489
-0.9630 -12.8322 -2.5013 0.9489
0.5890 -12.8548 -2.5013 0.9489
2.1323 -12.6904 -2.5013 0.9489
5.1040 -11.8128 -2.5013 0.9489
6.4891 -11.1124 -2.5013 0.9489
7.7798 -10.2503 -2.5013 0.9489
8.9573 -9.2391 -2.5013 0.9489
10.0045 -8.0934 -2.5013 0.9489
12.2226 -4.0250 -2.5013 0.9489
12.6183 -2.5243 -2.5013 0.9489
12.8559 0.5653 -2.5013 0.9489
11.5967 3.4015 -2.3491 0.9519
10.4474 6.0750 -2.3491 0.9519
8.7009 8.4045 -2.3514 0.9519
2.6732 5.6685 -1.2182 0.9748
1.8799 5.6734 -1.1618 0.9759
1.1467 5.6779 -1.1260 0.9767
-0.2395 5.6864 -1.1063 0.9771
-0.9346 5.6907 -1.1210 0.9768
-2.4379 5.7000 -1.2050 0.9751
-6.0819 10.5038 -2.3593 0.9517
-4.2075 5.5862 -1.3594 0.9719
-9.0922 5.7408 -2.0902 0.9571
-10.9213 5.1750 -2.3491 0.9519
-8.1529 2.7182 -1.6705 0.9656
-12.8267 1.0340 -2.5013 0.9489
-12.8579 -0.5178 -2.5013 0.9489
-12.7020 -2.0621 -2.5013 0.9489
-9.2885 -8.9060 -2.5013 0.9489
-8.1487 -9.9595 -2.5013 0.9489
-4.0926 -12.2001 -2.5013 0.9489
-2.5940 -12.6041 -2.5013 0.9489
0.4941 -12.8588 -2.5013 0.9489
2.0386 -12.7058 -2.5013 0.9489
6.4069 -11.1599 -2.5013 0.9489
7.7039 -10.3074 -2.5013 0.9489
8.8888 -9.3049 -2.5013 0.9489
9.9445 -8.1670 -2.5013 0.9489
10.8554 -6.9104 -2.5013 0.9489
12.1926 -4.1151 -2.5013 0.9489
12.5993 -2.6173 -2.5013 0.9489
12.8228 -1.0813 -2.5013 0.9489
12.8597 0.4703 -2.5013 0.9489
11.9362 1.8925 -2.3491 0.9519
11.1378 4.6909 -2.3491 0.9519
2.7244 5.6682 -1.2225 0.9747
0.4896 5.6802 -1.1082 0.9770
-0.8915 5.6904 -1.1196 0.9768
-2.3882 5.6997 -1.2012 0.9751
-3.2414 5.6945 -1.2737 0.9737
-4.1465 5.5907 -1.3530 0.9720
-6.4394 5.3284 -1.6247 0.9665
-11.8235 2.5017 -2.3491 0.9519
-12.8187 1.1286 -2.5013 0.9489
-12.7169 -1.9683 -2.5013 0.9489
-7.2537 -2.0407 -1.4647 0.9698
-6.8947 -2.8739 -1.4520 0.9700
-10.3499 -7.6467 -2.5013 0.9489
-6.9704 -10.8170 -2.5013 0.9489
-5.6173 -11.5775 -2.5013 0.9489
-4.1826 -12.1696 -2.5013 0.9489
-2.6870 -12.5846 -2.5013 0.9489
0.3991 -12.8621 -2.5013 0.9489
3.4621 -12.3938 -2.5013 0.9489
6.3244 -11.2069 -2.5013 0.9489
7.6276 -10.3640 -2.5013 0.9489
8.8199 -9.3703 -2.5013 0.9489
9.8839 -8.2402 -2.5013 0.9489
10.8041 -6.9903 -2.5013 0.9489
12.5797 -2.7102 -2.5013 0.9489
12.8628 0.3754 -2.5013 0.9489
4.0443 6.2256 -1.4431 0.9702
2.7759 5.6679 -1.2268 0.9746
1.9732 5.6729 -1.1675 0.9758
1.2341 5.6774 -1.1293 0.9766
0.5282 5.6412 -1.1013 0.9772
-0.1554 5.6859 -1.1056 0.9771
-2.3387 5.6994 -1.1975 0.9752
-6.3708 5.3513 -1.6173 0.9667
-7.9692 2.7884 -1.6411 0.9662
-11.8047 2.5889 -2.3491 0.9519
-12.8025 1.2225 -2.4999 0.9489
-12.7311 -1.8744 -2.5013 0.9489
-7.3038 -1.9967 -1.4718 0.9696
-9.4189 -8.7679 -2.5013 0.9489
-8.2948 -9.8381 -2.5013 0.9489
-7.0500 -10.7652 -2.5013 0.9489
-7.9365 5.7241 -2.2591 0.9606
-8.9093 4.9153 -2.3491 0.9591
-9.8260 2.6431 -2.3491 0.9591
-10.7811 -1.0741 -2.5013 0.9565
-8.9881 -2.0098 -2.1263 0.9629
-4.0720 -10.0402 -2.5013 0.9565
-2.8336 -10.4574 -2.5013 0.9565
-0.2517 -10.8316 -2.5013 0.9565
1.0542 -10.7831 -2.5013 0.9565
2.3447 -10.5778 -2.5013 0.9565
4.8053 -9.7106 -2.5013 0.9565
5.9394 -9.0614 -2.5013 0.9565
7.9333 -7.3790 -2.5013 0.9565
9.4672 -5.2687 -2.5013 0.9565
10.0326 -4.0906 -2.5013 0.9565
10.4521 -2.8529 -2.5013 0.9565
10.7021 1.0263 -2.4821 0.9568
8.5204 5.5623 -2.3491 0.9591
7.7887 6.5477 -2.3491 0.9591
2.3243 5.6707 -1.4149 0.9752
1.5604 5.6754 -1.3589 0.9761
0.8446 5.6798 -1.3257 0.9767
-3.6742 5.6509 -1.5561 0.9727
-5.7534 5.3912 -1.8203 0.9682
-8.8728 4.9809 -2.3491 0.9591
-10.8300 0.3117 -2.5013 0.9565
-10.7888 -0.9945 -2.5013 0.9565
-9.2441 -1.9955 -2.1833 0.9619
-6.4991 -2.2500 -1.5878 0.9722
-6.2657 -3.0575 -1.6096 0.9718
-9.0942 -5.8892 -2.5013 0.9565
-8.3190 -6.9412 -2.5013 0.9565
-5.3210 -9.4379 -2.5013 0.9565
-1.6331 -10.7107 -2.5013 0.9565
-0.3317 -10.8294 -2.5013 0.9565
2.2666 -10.5948 -2.5013 0.9565
3.5257 -10.2448 -2.5013 0.9565
4.7334 -9.7458 -2.5013 0.9565
5.8724 -9.1050 -2.5013 0.9565
8.7167 -6.4347 -2.5013 0.9565
10.0022 -4.1645 -2.5013 0.9565
10.7077 -1.6529 -2.5013 0.9565
10.8288 -0.3517 -2.5013 0.9565
9.6275 3.2934 -2.3491 0.9591
9.1610 4.4285 -2.3491 0.9591
8.5612 5.4993 -2.3491 0.9591
4.3234 5.8342 -1.6765 0.9706
3.2067 5.6389 -1.4976 0.9737
1.6054 5.6751 -1.3616 0.9761
