ply
format ascii 1.0
element vertex 1569
property float32 x
property float32 y
property float32 z
property float32 I
end_header
3.9693 5.6606 0.6049 0.9726
25.9344 48.5186 4.8132 0.8018
2.2012 5.6714 0.5322 0.9759
0.0470 5.6847 0.4974 0.9774
-0.6421 5.6889 0.5009 0.9773
-2.9282 5.7030 0.5609 0.9746
-4.9641 5.7097 0.6619 0.9701
-6.3386 5.7239 0.7472 0.9663
-14.7805 5.7758 1.3883 0.9383
-72.1990 -36.8610 7.0922 0.7222
-25.9115 -36.5938 3.9229 0.8352
-14.4193 -36.6509 3.4458 0.8537
-11.3429 -84.4502 7.4548 0.7103
30.3782 -45.3307 4.7741 0.8032
48.6063 -44.3000 5.7537 0.7679
51.2403 -36.4593 5.5020 0.7768
55.5617 -0.8423 4.8616 0.8000
49.0246 5.1912 4.3131 0.8204
51.3345 11.8114 4.6085 0.8094
44.6994 16.1549 4.1583 0.8263
34.1145 17.2201 3.3433 0.8578
6.5834 5.6445 0.7587 0.9658
5.1761 5.6532 0.6706 0.9697
3.0909 5.6569 0.5640 0.9744
1.5023 5.6757 0.5137 0.9767
0.7895 5.6801 0.5017 0.9772
0.0992 5.6844 0.4974 0.9774
-0.5892 5.6886 0.5003 0.9773
-2.0444 5.6975 0.5296 0.9760
-2.8621 5.7026 0.5582 0.9747
-3.7875 5.7083 0.5993 0.9729
-7.9808 5.7340 0.8598 0.9613
-14.3832 5.7734 1.3560 0.9397
-33.7809 -36.5556 4.3547 0.8188
-19.2867 -34.9163 3.4898 0.8520
-14.8084 -36.6486 3.4582 0.8532
-11.5514 -80.3996 7.1063 0.7217
-1.3606 -61.7094 5.4002 0.7805
12.5872 -56.4838 5.0629 0.7927
15.6272 -44.1891 4.1007 0.8284
22.4561 -45.2599 4.4203 0.8164
29.6401 -45.1199 4.7230 0.8051
51.1364 -37.0974 5.5272 0.7759
55.5208 -22.5824 5.2439 0.7861
49.2825 4.7613 4.3317 0.8197
51.3314 11.3153 4.5987 0.8097
26.2412 17.1523 2.7427 0.8817
2.3217 5.6707 0.5361 0.9757
1.5582 5.6754 0.5149 0.9766
0.8427 5.6798 0.5024 0.9772
0.1514 5.6840 0.4975 0.9774
-0.5364 5.6883 0.4999 0.9773
-1.2412 5.6926 0.5097 0.9769
-2.7966 5.7022 0.5556 0.9748
-3.7122 5.7078 0.5957 0.9730
-19.6994 23.5171 2.6840 0.8841
-6.1076 5.7225 0.7322 0.9670
-7.8268 5.7331 0.8488 0.9618
-14.0040 5.7710 1.3251 0.9410
-34.4051 -36.5518 4.3917 0.8175
-15.2005 -36.6462 3.4710 0.8527
-12.3054 -80.3949 7.1156 0.7214
18.9444 -88.8469 7.9478 0.6944
21.8556 -45.0849 4.3835 0.8178
29.0565 -45.1292 4.6959 0.8061
55.5171 -23.1775 5.2634 0.7854
55.4707 -15.6411 5.0423 0.7934
48.7991 16.6297 4.5105 0.8130
35.7109 17.2102 3.4682 0.8528
26.2391 16.8090 2.7263 0.8824
6.8260 5.6383 0.7746 0.9651
5.3692 5.6520 0.6820 0.9692
4.2055 5.6591 0.6169 0.9721
3.2319 5.6651 0.5706 0.9742
0.8960 5.6795 0.5030 0.9772
-0.4837 5.6879 0.4994 0.9773
-2.7318 5.7018 0.5531 0.9749
-5.9955 5.7218 0.7251 0.9673
-20.2466 5.8094 1.8428 0.9189
-58.8453 -28.0273 5.7024 0.7697
-12.5134 -43.2365 3.9379 0.8347
-13.0378 -80.2460 7.1127 0.7215
28.4714 -45.1258 4.6681 0.8072
55.4674 -16.1914 5.0553 0.7929
55.6864 4.3493 4.8868 0.7991
52.6752 10.6010 4.7009 0.8059
26.7082 16.7656 2.7589 0.8811
5.4682 5.6514 0.6880 0.9689
4.2863 5.6586 0.6211 0.9719
3.3010 5.6647 0.5736 0.9740
0.9495 5.6791 0.5038 0.9771
0.2560 5.6834 0.4977 0.9774
-0.4311 5.6876 0.4990 0.9774
-1.8685 5.6965 0.5245 0.9762
-2.6675 5.7014 0.5507 0.9750
-3.5642 5.7069 0.5887 0.9733
-4.6099 5.7133 0.6423 0.9710
-7.5302 5.7313 0.8279 0.9627
-9.8075 5.7452 0.9944 0.9554
-13.2948 5.7667 1.2679 0.9435
-26.3986 -34.5199 3.8020 0.8399
-20.3474 -34.5519 3.5081 0.8513
-15.9934 -36.6413 3.4978 0.8517
17.4063 -89.6792 7.9923 0.6929
19.6706 -42.5513 4.1013 0.8284
35.0972 -43.9088 4.9179 0.7980
46.1095 -45.2341 5.6511 0.7715
51.4713 -39.5497 5.6790 0.7706
55.6000 -9.6900 4.9377 0.7972
54.9621 10.5370 4.8961 0.7987
36.2384 16.6514 3.4891 0.8520
27.2557 16.7623 2.7994 0.8794
26.2644 20.8950 2.9363 0.8739
5.5690 5.6507 0.6941 0.9686
4.3683 5.6581 0.6254 0.9717
1.7273 5.6744 0.5189 0.9765
1.0031 5.6788 0.5045 0.9771
0.3083 5.6831 0.4979 0.9774
-2.6037 5.7010 0.5483 0.9751
-3.4914 5.7064 0.5853 0.9735
-7.3872 5.7304 0.8180 0.9632
-12.9626 5.7646 1.2412 0.9446
-26.9024 -34.5168 3.8287 0.8389
-22.0193 -36.6176 3.7382 0.8423
-16.3946 -36.6388 3.5118 0.8511
14.3222 -45.7837 4.1970 0.8248
19.2557 -42.6785 4.0963 0.8286
27.4389 -45.3127 4.6345 0.8084
34.5576 -44.0573 4.8988 0.7987
45.2337 -45.1978 5.5944 0.7736
49.3549 -22.2206 4.7354 0.8047
55.4605 -17.3011 5.0828 0.7919
55.7221 10.1530 4.9553 0.7966
18.0086 5.5882 1.6497 0.9271
36.2359 16.2488 3.4744 0.8526
26.2619 20.5020 2.9149 0.8748
4.4514 5.6576 0.6298 0.9715
3.4413 5.6638 0.5798 0.9737
2.5681 5.6692 0.5445 0.9753
1.7843 5.6740 0.5204 0.9764
1.0569 5.6785 0.5053 0.9771
0.3606 5.6828 0.4982 0.9774
-0.3261 5.6870 0.4984 0.9774
-1.0235 5.6913 0.5059 0.9770
-1.7531 5.6957 0.5214 0.9764
-4.4383 5.7123 0.6329 0.9714
-7.2477 5.7295 0.8083 0.9636
-12.5787 5.7328 1.2094 0.9460
-89.3189 -15.8514 7.9365 0.6947
-22.4780 -36.6148 3.7589 0.8415
-10.6473 -55.7772 4.9680 0.7961
14.1369 -46.6920 4.2682 0.8221
18.8552 -42.8360 4.0947 0.8287
26.7562 -45.1152 4.5890 0.8101
33.8709 -44.0082 4.8585 0.8001
51.0682 -31.5127 5.2501 0.7859
49.1722 -22.6837 4.7377 0.8046
55.4571 -17.8604 5.0973 0.7914
55.5935 -10.7446 4.9538 0.7966
55.6356 -3.9154 4.8795 0.7994
55.7188 9.6246 4.9470 0.7969
18.5535 5.5709 1.6948 0.9252
28.4004 16.7552 2.8849 0.8760
26.2595 20.1148 2.8940 0.8756
5.7761 5.6495 0.7069 0.9681
4.5357 5.6571 0.6344 0.9713
2.6309 5.6688 0.5468 0.9752
0.4130 5.6824 0.4985 0.9774
-0.2737 5.6867 0.4981 0.9774
-2.4779 5.7002 0.5438 0.9754
-3.3485 5.7056 0.5788 0.9738
-4.3544 5.7117 0.6284 0.9716
-9.2096 5.7416 0.9495 0.9574
-17.7107 5.7938 1.6303 0.9279
-22.9418 -36.6120 3.7800 0.8407
-12.4805 -37.8569 3.4874 0.8521
-11.1590 -55.6770 4.9680 0.7961
13.7545 -46.9799 4.2827 0.8216
18.3508 -42.7508 4.0702 0.8296
25.4297 -43.7900 4.4303 0.8160
33.7178 -44.6519 4.8952 0.7988
51.0660 -41.5249 5.7583 0.7678
51.0643 -32.1614 5.2798 0.7848
55.4536 -18.4230 5.1123 0.7909
55.6324 -4.4289 4.8826 0.7992
51.8873 2.1394 4.5434 0.8118
55.7156 9.0980 4.9390 0.7972
28.9994 16.7515 2.9300 0.8742
26.2572 19.7329 2.8736 0.8764
4.6213 5.6566 0.6390 0.9711
3.5848 5.6629 0.5864 0.9734
1.8993 5.6733 0.5234 0.9763
1.1651 5.6778 0.5071 0.9770
0.4655 5.6821 0.4988 0.9774
-0.2214 5.6863 0.4979 0.9774
-10.1379 62.9929 5.5821 0.7740
-1.6390 5.6950 0.5185 0.9765
-2.4157 5.6998 0.5416 0.9754
-3.2781 5.7051 0.5757 0.9739
-9.0222 5.7404 0.9356 0.9580
-12.0449 5.7590 1.1681 0.9478
-30.1644 -36.5778 4.1479 0.8267
-9.1211 -18.9647 1.8411 0.9190
14.5409 -93.0753 8.2418 0.6851
13.3799 -47.3072 4.3012 0.8209
42.7743 -45.1629 5.4421 0.7790
51.0046 -42.2589 5.7950 0.7665
51.0627 -32.8194 5.3106 0.7837
55.3948 -26.7990 5.3838 0.7811
55.5870 -11.8062 4.9717 0.7960
55.5778 1.7805 4.8649 0.7999
55.7124 8.5728 4.9316 0.7975
19.8431 5.5630 1.8030 0.9206
38.9451 16.1903 3.6899 0.8442
29.6174 16.7477 2.9768 0.8723
3.6578 5.6625 0.5898 0.9733
1.9573 5.6729 0.5250 0.9762
0.5181 5.6818 0.4992 0.9774
-9.5596 63.0894 5.5826 0.7740
-2.3540 5.6994 0.5395 0.9755
-4.1901 5.7107 0.6197 0.9720
-6.8480 5.7271 0.7810 0.9648
-8.8216 5.7272 0.9202 0.9586
-5.6520 2.7665 0.5505 0.9750
-16.5472 5.7517 1.5327 0.9321
-30.7304 -36.5743 4.1794 0.8255
-18.0329 -36.6288 3.5719 0.8488
13.0822 -89.0949 7.8784 0.6966
24.3616 -43.7835 4.3836 0.8178
32.7927 -45.1269 4.8804 0.7993
51.0586 -33.4833 5.3419 0.7826
55.3910 -27.4277 5.4076 0.7802
55.4467 -19.5587 5.1439 0.7897
55.5837 -12.3400 4.9813 0.7956
55.6261 -5.4583 4.8900 0.7990
55.5747 1.2695 4.8634 0.8000
55.7091 8.0493 4.9245 0.7977
30.2558 16.7438 3.0253 0.8704
26.2526 18.9852 2.8345 0.8780
4.7963 5.6555 0.6488 0.9707
2.8226 5.6676 0.5539 0.9749
2.0156 5.6726 0.5267 0.9761
-0.1168 5.6857 0.4975 0.9774
-0.8037 5.6538 0.4996 0.9773
-3.1397 5.7043 0.5697 0.9742
-4.1096 5.7102 0.6155 0.9721
-5.2675 5.7173 0.6801 0.9693
-6.7207 5.7263 0.7725 0.9652
-8.6416 5.7239 0.9069 0.9592
3.9693 5.6606 0.3623 0.9727
2.2012 5.6714 0.3188 0.9759
1.4468 5.6761 0.3070 0.9768
0.7364 5.6804 0.3002 0.9773
0.0470 5.6847 0.2979 0.9775
-0.6421 5.6889 0.3000 0.9773
-1.3487 5.6825 0.3061 0.9769
-4.9641 5.7098 0.3965 0.9701
-6.3385 5.7239 0.4476 0.9664
-14.7805 5.7758 0.8317 0.9384
-22.6319 5.8241 1.2247 0.9106
-13.6055 -34.5826 1.9476 0.8617
-8.8197 -65.6648 3.4722 0.7669
22.8655 -45.0413 2.6473 0.8168
30.2481 -45.1365 2.8476 0.8044
51.2403 -36.4593 3.2958 0.7773
60.5257 -15.8723 3.2793 0.7783
60.4749 -8.2641 3.1988 0.7831
60.4263 -0.9160 3.1672 0.7850
34.1145 17.2201 2.0027 0.8581
26.2434 17.4997 1.6531 0.8813
5.1761 5.6532 0.4017 0.9698
4.0470 5.6601 0.3647 0.9725
3.0909 5.6569 0.3378 0.9745
0.0992 5.6844 0.2979 0.9775
-19.7020 23.0863 1.5906 0.8855
-6.2219 5.7232 0.4430 0.9667
-10.4651 5.7493 0.6258 0.9533
-14.3832 5.7734 0.8122 0.9398
-21.7808 5.8188 1.1815 0.9137
-31.9010 -34.5213 2.4634 0.8284
-24.9537 -34.5637 2.2342 0.8430
-13.9727 -34.5803 1.9546 0.8612
-10.4040 -38.5883 2.0945 0.8521
22.3460 -45.0381 2.6349 0.8176
29.6487 -45.1328 2.8300 0.8055
25.6443 -30.3301 2.0815 0.8529
51.0875 -28.3724 3.0626 0.7913
60.5848 -24.6422 3.4277 0.7695
60.4786 -8.8311 3.2032 0.7828
60.4300 -1.4712 3.1679 0.7850
44.2652 4.2765 2.3306 0.8368
26.2412 17.1523 1.6430 0.8820
6.6952 5.6345 0.4586 0.9656
3.1618 5.6624 0.3399 0.9744
2.3217 5.6707 0.3211 0.9758
-0.5364 5.6883 0.2994 0.9774
-1.2388 5.6817 0.3048 0.9770
-1.9818 5.6870 0.3156 0.9762
-2.7922 5.6931 0.3323 0.9749
-19.6994 23.5172 1.6077 0.8844
-14.0039 5.7710 0.7938 0.9411
-32.4904 -34.5177 2.4843 0.8271
-25.4377 -34.5608 2.2490 0.8421
-19.5046 -34.5570 2.0796 0.8530
-14.3426 -34.5781 1.9619 0.8608
-10.3973 -37.2009 2.0243 0.8567
21.8333 -45.0389 2.6231 0.8183
29.0565 -45.1292 2.8129 0.8065
28.8352 -27.2667 2.0798 0.8530
51.0324 -37.7423 3.3264 0.7755
51.5322 -29.2420 3.1052 0.7887
60.5892 -25.2950 3.4410 0.7687
60.5337 -17.0687 3.2961 0.7773
48.7991 16.6297 2.7019 0.8134
4.2055 5.6591 0.3695 0.9722
2.3826 5.6703 0.3223 0.9757
1.6143 5.6750 0.3092 0.9766
0.2037 5.6837 0.2981 0.9775
-1.9233 5.6866 0.3146 0.9762
-3.6279 5.6919 0.3537 0.9733
-5.9956 5.7218 0.4343 0.9673
-10.0195 5.7465 0.6053 0.9548
-20.2466 5.8094 1.1039 0.9191
-19.9237 -34.5544 2.0904 0.8523
-14.7152 -34.5758 1.9693 0.8603
-13.0378 -80.2460 4.2607 0.7221
17.7223 -87.0272 4.6545 0.7007
18.2486 -54.7826 3.0261 0.7935
51.5284 -29.8686 3.1214 0.7878
49.8539 -21.3529 2.8423 0.8047
60.4862 -9.9700 3.2127 0.7823
60.3894 4.7167 3.1745 0.7846
54.8450 11.0377 2.9319 0.7992
36.0612 16.9728 2.0888 0.8524
8.2103 6.6558 0.5539 0.9585
5.4682 5.6514 0.4121 0.9690
2.4439 5.6700 0.3236 0.9756
0.2560 5.6834 0.2982 0.9775
-1.8651 5.6862 0.3136 0.9763
-5.8857 5.7211 0.4302 0.9677
-9.8075 5.7452 0.5957 0.9555
-19.5527 5.8051 1.0689 0.9216
-20.3473 -34.5518 2.1014 0.8516
-15.0908 -34.5735 1.9770 0.8598
17.2988 -89.1252 4.7580 0.6951
14.4470 -44.7361 2.4637 0.8284
20.5672 -44.4908 2.5688 0.8217
27.8931 -45.1220 2.7801 0.8086
27.7878 -27.2603 2.0401 0.8556
51.4713 -39.5497 3.4019 0.7711
48.5781 -21.3366 2.7806 0.8085
60.5418 -18.2777 3.3143 0.7762
55.3271 10.6069 2.9524 0.7980
8.3070 6.6087 0.5563 0.9584
5.5690 5.6507 0.4158 0.9687
4.3683 5.6581 0.3746 0.9718
3.3708 5.6643 0.3454 0.9739
2.5057 5.6696 0.3249 0.9755
1.0031 5.6788 0.3022 0.9772
-1.0765 5.6857 0.3033 0.9771
-1.8073 5.6857 0.3127 0.9764
-2.5994 5.6916 0.3279 0.9752
-4.5142 5.7011 0.3811 0.9713
-9.6020 5.7440 0.5864 0.9562
-12.9626 5.7646 0.7435 0.9448
-18.9012 5.8011 1.0362 0.9239
-21.1893 -27.1866 1.8064 0.8710
-20.7786 -34.5543 2.1131 0.8509
-15.4694 -34.5712 1.9849 0.8592
16.5904 -89.8812 4.7900 0.6934
16.6694 -53.2870 2.9261 0.7996
25.6298 -32.6754 2.1764 0.8468
27.2788 -27.2571 2.0210 0.8569
60.5459 -18.8875 3.3239 0.7757
60.4446 -3.6964 3.1737 0.7846
36.2359 16.2488 2.0812 0.8529
26.2619 20.5020 1.7461 0.8751
5.6320 5.6107 0.4166 0.9687
4.4514 5.6576 0.3773 0.9716
3.4413 5.6638 0.3473 0.9738
2.5681 5.6692 0.3262 0.9754
1.7843 5.6740 0.3117 0.9765
1.0569 5.6785 0.3027 0.9771
-1.0230 5.6883 0.3029 0.9771
-2.5363 5.6911 0.3265 0.9754
-3.4098 5.6898 0.3476 0.9738
-7.2443 5.7268 0.4840 0.9637
-12.5787 5.7328 0.7245 0.9461
-89.1625 -15.8237 4.7458 0.6958
-27.4131 -34.5137 2.3099 0.8382
-21.2328 -34.5865 2.1269 0.8500
-15.8510 -34.5688 1.9930 0.8587
-11.2584 -35.2347 1.9385 0.8623
-10.5354 -55.1913 2.9447 0.7985
19.2319 -43.6917 2.5018 0.8260
25.6260 -33.2957 2.2019 0.8451
51.4620 -41.0673 3.4505 0.7682
51.0920 -31.5274 3.1464 0.7863
60.4483 -4.2541 3.1758 0.7845
51.8616 2.6156 2.7214 0.8122
60.3523 10.4250 3.2098 0.7825
18.5535 5.5709 1.0152 0.9253
37.0388 16.2020 2.1187 0.8505
28.4004 16.7552 1.7281 0.8763
26.2595 20.1148 1.7336 0.8759
2.6309 5.6688 0.3275 0.9753
1.8416 5.6737 0.3126 0.9764
-0.2737 5.6867 0.2984 0.9775
-0.9631 5.6529 0.3005 0.9773
-2.4737 5.6907 0.3252 0.9755
-5.5682 5.7192 0.4183 0.9685
-9.2096 5.7416 0.5688 0.9575
-29.6262 5.8671 1.5828 0.8861
-21.6709 -34.5838 2.1389 0.8492
-13.3015 -28.3196 1.6397 0.8822
-11.5814 -35.1298 1.9385 0.8623
-10.5188 -52.4831 2.8052 0.8070
15.1527 -91.4751 4.8593 0.6898
18.3799 -42.8187 2.4420 0.8297
25.6152 -33.9218 2.2277 0.8434
51.0660 -41.5249 3.4493 0.7683
51.1639 -32.2241 3.1689 0.7849
50.4059 -23.8168 2.9217 0.7999
60.4520 -4.8126 3.1782 0.7843
60.4040 2.4906 3.1683 0.7849
60.3560 9.8558 3.2050 0.7827
19.1783 5.5671 1.0466 0.9231
28.9994 16.7515 1.7551 0.8745
26.2572 19.7329 1.7214 0.8767
2.6943 5.6684 0.3289 0.9752
1.1651 5.6778 0.3038 0.9771
0.4655 5.6821 0.2988 0.9774
-9.9929 62.0921 3.2960 0.7773
-2.4117 5.6902 0.3239 0.9755
-4.2621 5.6984 0.3729 0.9719
-5.4662 5.7186 0.4146 0.9688
-6.9602 5.7130 0.4719 0.9646
-17.1655 5.7905 0.9494 0.9300
-28.2202 5.8584 1.5105 0.8910
-42.7118 -1.5646 2.2399 0.8427
-66.1810 -18.8820 3.6068 0.7591
-36.2538 -34.4946 2.6226 0.8184
-28.4858 -34.5422 2.3464 0.8358
-22.1142 -34.5811 2.1512 0.8484
-11.9037 -35.0220 1.9385 0.8623
-10.5091 -50.0451 2.6800 0.8148
16.0609 -56.7864 3.0928 0.7895
18.6177 -44.4955 2.5278 0.8243
24.8818 -43.7672 2.6385 0.8174
25.8070 -27.2481 1.9668 0.8604
60.5054 -12.8509 3.2417 0.7805
60.4557 -5.3723 3.1808 0.7842
19.8430 5.5630 1.0800 0.9208
38.9451 16.1903 2.2104 0.8446
29.6174 16.7477 1.7832 0.8726
26.2548 19.3565 1.7095 0.8775
7.0673 6.6629 0.5090 0.9618
3.6578 5.6625 0.3533 0.9734
1.9573 5.6729 0.3145 0.9762
0.5181 5.6818 0.2990 0.9774
-1.5795 5.6841 0.3092 0.9766
-2.3500 5.6897 0.3226 0.9756
-3.1990 5.6877 0.3420 0.9742
-5.3660 5.7179 0.4110 0.9691
-6.8273 5.7097 0.4664 0.9650
-8.8216 5.7272 0.5512 0.9587
-16.5472 5.7517 0.9181 0.9322
-42.7872 -1.1741 2.2432 0.8424
-18.4623 -28.2946 1.7706 0.8734
-17.0152 -34.5617 2.0189 0.8570
-10.4635 -47.6470 2.5566 0.8225
15.6097 -57.1924 3.1070 0.7886
17.8446 -43.7723 2.4773 0.8275
24.3508 -43.7640 2.6247 0.8182
32.3267 -27.2882 2.2171 0.8441
60.5626 -21.3633 3.3656 0.7732
60.4594 -5.9326 3.1838 0.7840
60.4112 1.3800 3.1668 0.7850
43.8753 6.3395 2.3233 0.8373
20.5521 5.5587 1.1158 0.9183
7.1978 6.6621 0.5140 0.9615
3.7317 5.6620 0.3554 0.9732
2.0156 5.6726 0.3155 0.9762
1.2741 5.6771 0.3049 0.9770
-0.8037 5.6538 0.2993 0.9774
-2.2889 5.6893 0.3214 0.9757
-4.0998 5.6967 0.3678 0.9723
-5.2675 5.7173 0.4074 0.9693
-5.5934 2.8017 0.3279 0.9753
3.9693 5.6606 0.1207 0.9727
25.5361 47.7735 0.9455 0.8052
2.2013 5.6714 0.1062 0.9760
0.7364 5.6804 0.1000 0.9773
0.0470 5.6847 0.0992 0.9775
-2.0948 5.6737 0.1056 0.9761
-8.1389 5.7350 0.1738 0.9610
-14.7805 5.7758 0.2770 0.9385
-22.5995 5.8157 0.4073 0.9109
-82.4521 -9.1139 1.4480 0.7176
-72.2087 -36.8659 1.4152 0.7230
-18.4558 -34.1493 0.6776 0.8562
-10.0446 -38.6647 0.6973 0.8523
-8.8934 -66.2138 1.1661 0.7655
21.4693 -58.9801 1.0956 0.7779
23.0740 -45.4520 0.8897 0.8155
25.5801 -38.1709 0.8020 0.8321
29.9246 -27.2734 0.7067 0.8505
38.4035 -27.3255 0.8227 0.8282
81.7216 -21.4307 1.4746 0.7132
41.9514 4.4422 0.7364 0.8447
25.8818 9.3540 0.4804 0.8957
34.1145 17.2201 0.6670 0.8582
6.7552 5.7918 0.1553 0.9650
3.0909 5.6569 0.1125 0.9745
2.2613 5.6711 0.1066 0.9759
1.5023 5.6757 0.1025 0.9768
0.7895 5.6801 0.1001 0.9773
0.0992 5.6844 0.0992 0.9775
-0.5892 5.6886 0.0998 0.9774
-2.0357 5.6733 0.1052 0.9762
-10.4332 5.7317 0.2078 0.9535
-14.3832 5.7734 0.2705 0.9399
-21.7618 5.8137 0.3932 0.9138
-13.8101 -34.1778 0.6434 0.8629
-10.0358 -37.2227 0.6729 0.8571
22.6683 -45.6875 0.8902 0.8154
25.5867 -38.9495 0.8134 0.8299
37.6517 -27.3148 0.8119 0.8302
40.4554 -22.4677 0.8077 0.8310
67.8079 -27.5801 1.2777 0.7461
34.8980 17.2152 0.6792 0.8558
26.2412 17.1523 0.5472 0.8821
5.2718 5.6526 0.1349 0.9696
4.1257 5.6596 0.1223 0.9724
3.1618 5.6624 0.1132 0.9744
2.3217 5.6707 0.1070 0.9758
1.5582 5.6754 0.1027 0.9767
0.8427 5.6798 0.1002 0.9773
-1.2380 5.6782 0.1014 0.9770
-3.6814 5.6605 0.1179 0.9733
-7.8268 5.7331 0.1693 0.9619
-10.2070 5.7301 0.2043 0.9543
-20.9660 5.8079 0.3797 0.9166
-19.5046 -34.5570 0.6926 0.8532
-14.1757 -34.1756 0.6458 0.8624
-12.1382 -43.4294 0.7871 0.8349
-10.1709 -66.4496 1.1734 0.7642
31.0517 -90.4392 1.6691 0.6821
28.8352 -27.2667 0.6927 0.8532
39.8666 -22.6223 0.8001 0.8325
66.1581 -27.6200 1.2514 0.7507
35.7109 17.2102 0.6919 0.8533
26.2391 16.8090 0.5439 0.8828
4.2055 5.6591 0.1231 0.9722
3.2319 5.6651 0.1138 0.9742
0.8960 5.6795 0.1004 0.9773
-0.4837 5.6879 0.0996 0.9774
-1.1840 5.6807 0.1013 0.9771
-2.7203 5.6778 0.1099 0.9751
-3.6075 5.6599 0.1172 0.9735
-5.9956 5.7218 0.1447 0.9674
-9.9881 5.7286 0.2010 0.9550
-20.2466 5.8094 0.3677 0.9192
-32.7443 -34.1535 0.8259 0.8275
-19.9237 -34.5544 0.6962 0.8525
-14.5439 -34.1733 0.6483 0.8619
21.5242 -45.4603 0.8780 0.8177
26.5896 -42.1431 0.8698 0.8193
28.3064 -27.2634 0.6860 0.8545
36.2141 -27.3010 0.7916 0.8341
64.3432 -27.5588 1.2218 0.7558
81.6912 -23.8463 1.4854 0.7114
52.6752 10.6010 0.9379 0.8066
36.0612 16.9728 0.6957 0.8526
26.7083 16.7657 0.5504 0.8815
26.2668 21.2938 0.5902 0.8735
5.4682 5.6514 0.1373 0.9690
4.2863 5.6586 0.1239 0.9720
2.4439 5.6700 0.1078 0.9756
1.6706 5.6747 0.1033 0.9766
0.9495 5.6791 0.1005 0.9772
0.2560 5.6834 0.0993 0.9775
-1.1302 5.6832 0.1011 0.9771
-2.6562 5.6774 0.1094 0.9752
-3.5345 5.6594 0.1165 0.9737
-4.5727 5.6672 0.1271 0.9713
-7.5302 5.7313 0.1652 0.9628
-9.7764 5.7270 0.1978 0.9557
-13.2948 5.7667 0.2530 0.9437
-66.1926 -21.5439 1.2150 0.7569
-59.1512 -27.5093 1.1387 0.7703
-33.3641 -34.1662 0.8336 0.8261
-20.3473 -34.5518 0.6999 0.8518
-14.9151 -34.1710 0.6508 0.8614
-12.3557 -41.2686 0.7519 0.8417
-11.4223 -66.4419 1.1768 0.7636
27.7878 -27.2603 0.6795 0.8558
46.2400 -27.3737 0.9379 0.8066
62.7218 -27.5488 1.1958 0.7603
82.0078 5.6478 1.4348 0.7197
55.2148 10.5854 0.9813 0.7986
27.3684 16.8316 0.5608 0.8794
2.5057 5.6696 0.1082 0.9755
1.0031 5.6788 0.1007 0.9772
0.3083 5.6831 0.0993 0.9775
-0.3786 5.6873 0.0995 0.9775
-2.5927 5.6770 0.1089 0.9753
-7.3872 5.7304 0.1632 0.9633
-18.9012 5.8011 0.3451 0.9239
-32.8855 5.8871 0.5831 0.8749
-65.7198 -20.7245 1.2028 0.7591
-34.0149 -34.1986 0.8419 0.8245
-26.9024 -34.5168 0.7639 0.8394
-20.7786 -34.5543 0.7038 0.8510
-15.2894 -34.1687 0.6534 0.8609
28.2862 -90.4226 1.6537 0.6845
25.5135 -42.1331 0.8598 0.8211
27.2788 -27.2571 0.6731 0.8570
34.8667 -27.3038 0.7730 0.8376
82.0032 4.8914 1.4339 0.7199
58.0146 10.5707 1.0293 0.7898
26.3322 20.5569 0.5831 0.8749
5.6320 5.6107 0.1388 0.9687
4.4514 5.6576 0.1257 0.9716
0.3606 5.6828 0.0994 0.9775
-0.3261 5.6870 0.0994 0.9775
-1.0229 5.6883 0.1009 0.9771
-1.7456 5.6714 0.1036 0.9765
-2.5298 5.6766 0.1085 0.9754
-3.3910 5.6583 0.1151 0.9740
-7.2477 5.7295 0.1613 0.9637
-9.3724 5.7242 0.1917 0.9570
-12.5764 5.7318 0.2412 0.9462
-18.2885 5.7974 0.3349 0.9261
-89.1083 -15.8141 1.5797 0.6962
-65.7497 -20.0720 1.1999 0.7596
-40.9151 -40.3875 1.0035 0.7945
-12.3395 -38.6183 0.7077 0.8503
-10.8306 -56.7379 1.0082 0.7937
17.2938 -57.1185 1.0417 0.7876
34.2096 -27.2997 0.7640 0.8394
44.3285 -27.3538 0.9092 0.8119
59.7878 -27.5808 1.1493 0.7684
18.4960 5.5537 0.3371 0.9257
39.2932 17.1882 0.7486 0.8423
28.5179 16.8245 0.5780 0.8759
6.4126 6.2720 0.1566 0.9648
1.8416 5.6737 0.1041 0.9764
1.1109 5.6781 0.1010 0.9771
0.4130 5.6824 0.0994 0.9775
-3.3204 5.6578 0.1145 0.9741
-12.2709 5.7292 0.2364 0.9473
-17.7107 5.7938 0.3253 0.9282
-29.6262 5.8671 0.5272 0.8862
-65.7795 -19.4226 1.1972 0.7600
-24.0049 -38.3086 0.7891 0.8346
-16.0466 -34.1641 0.6588 0.8598
-12.3321 -37.4069 0.6875 0.8542
-10.6233 -53.0042 0.9436 0.8055
21.4957 -50.0774 0.9512 0.8041
24.4618 -42.1233 0.8502 0.8229
26.2889 -27.2511 0.6609 0.8594
43.4352 -27.3564 0.8960 0.8144
45.2769 -21.3933 0.8742 0.8185
83.4492 -27.7238 1.5349 0.7034
41.8838 6.8394 0.7408 0.8439
19.1237 5.5512 0.3476 0.9234
26.3275 19.7858 0.5749 0.8766
6.4610 6.2043 0.1564 0.9648
4.6213 5.6566 0.1275 0.9712
1.1651 5.6778 0.1012 0.9771
-0.2214 5.6863 0.0993 0.9775
-1.6320 5.6707 0.1030 0.9767
-2.4055 5.6757 0.1076 0.9756
-3.2517 5.6591 0.1139 0.9742
-4.2368 5.6647 0.1235 0.9721
-5.4662 5.7186 0.1381 0.9688
-6.9783 5.7279 0.1576 0.9645
-17.1655 5.7905 0.3162 0.9301
-28.2202 5.8584 0.5031 0.8911
-65.8091 -18.7758 1.1945 0.7605
-24.4960 -38.3056 0.7936 0.8337
-9.1828 -19.0930 0.3698 0.9187
-12.4124 -36.5188 0.6732 0.8570
23.9445 -42.1185 0.8457 0.8238
32.9401 -27.2919 0.7467 0.8427
42.5546 -27.3510 0.8830 0.8168
80.9178 -27.7107 1.4929 0.7102
19.7975 5.5502 0.3589 0.9210
41.0400 17.0612 0.7758 0.8371
29.7399 16.8170 0.5964 0.8722
6.5092 6.1367 0.1561 0.9648
3.6578 5.6625 0.1177 0.9734
2.7582 5.6680 0.1100 0.9751
-0.1691 5.6860 0.0993 0.9775
-9.2563 61.0875 1.0785 0.7810
-2.3441 5.6753 0.1072 0.9757
-3.1847 5.6622 0.1134 0.9743
-4.1558 5.6640 0.1226 0.9723
-16.5472 5.7517 0.3058 0.9323
-26.9078 5.8443 0.4806 0.8957
-64.2929 -17.7065 1.1640 0.7658
-18.4485 -28.2736 0.5893 0.8737
-16.8171 -34.1594 0.6646 0.8587
-12.7869 -36.5165 0.6753 0.8566
-11.1125 -50.6024 0.9043 0.8128
-8.4840 -88.5529 1.5528 0.7006
23.4325 -42.1137 0.8412 0.8246
45.5460 -22.5528 0.8871 0.8160
78.5149 -27.6960 1.4532 0.7167
40.8270 5.8991 0.7200 0.8479
41.1777 16.6767 0.7754 0.8372
30.2559 16.7438 0.6036 0.8708
26.3229 19.0361 0.5670 0.8781
4.7963 5.6555 0.1294 0.9708
3.7317 5.6620 0.1184 0.9732
2.8226 5.6676 0.1105 0.9750
1.2741 5.6771 0.1016 0.9770
-0.1168 5.6857 0.0993 0.9775
-1.5196 5.6699 0.1025 0.9768
-3.1183 5.6654 0.1129 0.9745
-6.7207 5.7263 0.1541 0.9653
3.9693 5.6606 -0.1207 0.9727
17.9695 33.6178 -0.6654 0.8586
-0.6421 5.6889 -0.0999 0.9774
-1.3465 5.6731 -0.1018 0.9769
-2.0896 5.6596 -0.1053 0.9762
-2.9063 5.6604 -0.1111 0.9749
-3.8101 5.6294 -0.1187 0.9732
-4.9641 5.7098 -0.1321 0.9702
-6.3385 5.7239 -0.1491 0.9664
-22.4004 5.7645 -0.4037 0.9116
-63.2488 8.3475 -1.1136 0.7747
-68.8776 -7.6134 -1.2096 0.7579
-66.0637 -33.7286 -1.2947 0.7432
-69.8210 -47.0231 -1.4693 0.7141
-66.3265 -57.3979 -1.5324 0.7040
-12.6400 -23.3882 -0.4640 0.8991
-6.6607 -49.5902 -0.8734 0.8186
20.4463 -56.1699 -1.0434 0.7873
21.6695 -42.6854 -0.8356 0.8257
25.5959 -38.1945 -0.8025 0.8320
25.6477 -29.7752 -0.6860 0.8545
29.9246 -27.2734 -0.7067 0.8505
70.2313 -27.8169 -1.3185 0.7392
88.6327 -23.2431 -1.5994 0.6931
25.8818 9.3540 -0.4804 0.8957
6.7552 5.7918 -0.1553 0.9650
5.1761 5.6532 -0.1338 0.9698
-1.2922 5.6756 -0.1016 0.9770
-2.0306 5.6592 -0.1049 0.9762
-2.8425 5.6635 -0.1106 0.9750
-3.7349 5.6291 -0.1179 0.9733
-6.2219 5.7232 -0.1476 0.9667
-10.3822 5.7038 -0.2068 0.9537
-14.3832 5.7734 -0.2705 0.9399
-36.3076 5.1315 -0.6400 0.8636
-63.4980 1.2542 -1.1086 0.7756
-81.6984 -29.1032 -1.5138 0.7068
-69.5610 -45.9249 -1.4549 0.7164
-67.2072 -57.0891 -1.5392 0.7027
-21.4006 -23.1585 -0.5504 0.8815
-12.7336 -23.0527 -0.4597 0.9000
-7.6110 -28.2294 -0.5103 0.8896
-6.6000 -45.9370 -0.8101 0.8306
37.6601 -27.3209 -0.8121 0.8302
26.2412 17.1523 -0.5472 0.8821
6.7935 5.7173 -0.1550 0.9651
5.2718 5.6526 -0.1349 0.9696
4.1257 5.6596 -0.1223 0.9724
3.1618 5.6624 -0.1132 0.9744
1.5582 5.6754 -0.1027 0.9767
0.1514 5.6840 -0.0993 0.9775
-1.2380 5.6782 -0.1014 0.9770
-1.9720 5.6589 -0.1046 0.9763
-19.6994 23.5172 -0.5355 0.8845
-7.8268 5.7331 -0.1693 0.9619
-10.1580 5.7026 -0.2033 0.9545
-14.0039 5.7710 -0.2644 0.9412
-95.7898 14.4368 -1.6909 0.6787
-65.3943 -31.8864 -1.2699 0.7475
-67.1000 -55.9453 -1.5249 0.7050
-22.1676 -23.5508 -0.5645 0.8786
-13.0609 -23.1405 -0.4638 0.8992
31.0529 -90.4425 -1.6691 0.6821
20.9288 -43.1730 -0.8375 0.8254
26.9986 -41.9329 -0.8705 0.8191
51.5322 -29.2420 -1.0342 0.7890
51.3284 10.8213 -0.9156 0.8107
26.2391 16.8090 -0.5439 0.8828
4.2055 5.6591 -0.1231 0.9722
2.3826 5.6703 -0.1074 0.9757
1.6143 5.6750 -0.1030 0.9767
-2.7132 5.6631 -0.1096 0.9752
-3.5874 5.6283 -0.1165 0.9737
-4.6314 5.6333 -0.1273 0.9712
-5.9956 5.7218 -0.1447 0.9674
-7.6766 5.7322 -0.1672 0.9624
-13.6415 5.7688 -0.2585 0.9425
-20.2466 5.8094 -0.3677 0.9192
-32.3505 5.1799 -0.5719 0.8772
-63.2852 2.4134 -1.1054 0.7762
-81.7604 -16.8455 -1.4571 0.7161
-81.8151 -27.4622 -1.5064 0.7080
-69.4098 -44.0163 -1.4346 0.7198
-16.7518 -22.3275 -0.4872 0.8943
-13.2387 -22.9604 -0.4626 0.8994
-6.5757 -40.4727 -0.7157 0.8487
22.5669 -67.7465 -1.2464 0.7515
17.1611 -36.2452 -0.7000 0.8518
26.4538 -41.9278 -0.8653 0.8201
25.6372 -31.4767 -0.7086 0.8501
28.3064 -27.2634 -0.6860 0.8545
36.2289 -27.3121 -0.7919 0.8340
40.9431 -23.7328 -0.8260 0.8275
65.0539 -27.8632 -1.2353 0.7534
54.8450 11.0377 -0.9765 0.7995
50.2799 16.6206 -0.9243 0.8091
36.0612 16.9728 -0.6957 0.8526
0.9495 5.6791 -0.1005 0.9772
0.2560 5.6834 -0.0993 0.9775
-1.1302 5.6832 -0.1011 0.9771
-2.6494 5.6628 -0.1091 0.9753
-9.7309 5.7004 -0.1969 0.9559
-13.2948 5.7667 -0.2530 0.9437
-19.5527 5.8051 -0.3560 0.9216
-34.7905 5.8988 -0.6159 0.8683
-81.7225 -16.0567 -1.4537 0.7166
-81.6349 -26.5700 -1.4985 0.7093
-69.2221 -43.0110 -1.4225 0.7218
-23.2844 -23.8442 -0.5817 0.8752
-6.6594 -38.7365 -0.6861 0.8545
16.7749 -36.2873 -0.6978 0.8522
25.9155 -41.9228 -0.8603 0.8210
25.6336 -32.0692 -0.7166 0.8485
27.7878 -27.2603 -0.6795 0.8558
46.2400 -27.3737 -0.9379 0.8066
88.8131 6.1165 -1.5539 0.7004
27.2557 16.7623 -0.5585 0.8798
5.5690 5.6507 -0.1385 0.9688
4.3683 5.6581 -0.1248 0.9718
2.5057 5.6696 -0.1082 0.9755
1.7273 5.6744 -0.1035 0.9765
1.0031 5.6788 -0.1007 0.9772
-0.3786 5.6873 -0.0995 0.9775
-2.5861 5.6624 -0.1087 0.9754
-5.7779 5.7205 -0.1419 0.9680
-9.5402 5.7070 -0.1940 0.9565
-12.9626 5.7646 -0.2476 0.9448
-32.8855 5.8871 -0.5831 0.8749
-81.7725 -15.2880 -1.4521 0.7169
-64.2198 -29.1524 -1.2310 0.7542
-24.1062 -24.2364 -0.5967 0.8722
-17.5739 -22.5481 -0.4990 0.8919
-8.2576 -26.6860 -0.4876 0.8943
-6.6162 -36.4751 -0.6471 0.8622
16.3790 -36.3025 -0.6952 0.8527
25.6298 -32.6754 -0.7249 0.8469
45.2762 -27.3677 -0.9235 0.8092
61.2811 -27.5900 -1.1731 0.7642
88.8081 5.2973 -1.5529 0.7005
59.9291 10.9195 -1.0633 0.7837
35.1091 15.7436 -0.6716 0.8573
27.8194 16.7588 -0.5669 0.8782
4.4514 5.6576 -0.1257 0.9716
1.7843 5.6740 -0.1038 0.9765
1.0569 5.6785 -0.1008 0.9772
0.3606 5.6828 -0.0994 0.9775
-1.0229 5.6883 -0.1009 0.9771
-2.5234 5.6621 -0.1082 0.9755
-4.3761 5.6321 -0.1245 0.9719
-7.2477 5.7295 -0.1613 0.9637
-18.2885 5.7974 -0.3349 0.9261
-31.1737 5.8766 -0.5537 0.8808
-66.1157 -20.1837 -1.2066 0.7584
-68.7099 -40.9630 -1.3963 0.7261
-17.8250 -22.4422 -0.5003 0.8917
17.2873 -57.0973 -1.0413 0.7877
21.5032 -48.8518 -0.9317 0.8077
24.8571 -41.9130 -0.8506 0.8229
25.6260 -33.2957 -0.7334 0.8453
51.8482 2.6149 -0.9062 0.8125
18.2021 5.4654 -0.3317 0.9268
35.8875 15.6984 -0.6837 0.8550
4.5357 5.6571 -0.1266 0.9714
3.5127 5.6634 -0.1163 0.9737
2.6309 5.6688 -0.1091 0.9753
1.8416 5.6737 -0.1041 0.9764
-0.2737 5.6867 -0.0994 0.9775
-0.9631 5.6529 -0.1001 0.9773
-1.6845 5.6572 -0.1030 0.9767
-3.3106 5.6411 -0.1142 0.9742
-4.2934 5.6317 -0.1236 0.9721
-7.1114 5.7287 -0.1594 0.9641
-9.1812 5.7239 -0.1889 0.9576
-12.1335 5.6651 -0.2337 0.9478
-17.7107 5.7938 -0.3253 0.9282
-62.0337 4.6522 -1.0858 0.7797
-26.4193 -25.6039 -0.6422 0.8631
-14.0480 -22.4188 -0.4618 0.8996
-11.2167 -23.8808 -0.4605 0.8998
-8.4610 -25.6646 -0.4717 0.8975
-6.8335 -88.3975 -1.5476 0.7014
16.9749 -39.5454 -0.7512 0.8418
24.3369 -41.9081 -0.8459 0.8238
25.6221 -33.9310 -0.7422 0.8436
26.2889 -27.2511 -0.6609 0.8594
33.5675 -27.2958 -0.7552 0.8411
84.0626 -27.9276 -1.5462 0.7016
89.6126 3.6949 -1.5655 0.6985
42.4832 6.9372 -0.7514 0.8418
18.8105 5.4603 -0.3419 0.9246
36.6939 15.6513 -0.6963 0.8525
28.9994 16.7516 -0.5846 0.8746
26.2572 19.7329 -0.5733 0.8769
4.6213 5.6566 -0.1275 0.9712
3.5848 5.6629 -0.1170 0.9735
2.6943 5.6684 -0.1096 0.9752
1.1651 5.6778 -0.1012 0.9771
-0.2214 5.6863 -0.0993 0.9775
-9.9445 61.7917 -1.0925 0.7785
-1.6288 5.6598 -0.1028 0.9767
-5.4662 5.7186 -0.1381 0.9688
-9.0089 5.7320 -0.1864 0.9582
-11.8460 5.6639 -0.2292 0.9488
-17.1655 5.7905 -0.3162 0.9301
-27.6206 5.7339 -0.4924 0.8933
-62.0301 5.2251 -1.0866 0.7796
-81.7745 -12.9679 -1.4452 0.7180
-68.0809 -38.9111 -1.3687 0.7307
-27.6409 -26.2998 -0.6660 0.8584
-18.6014 -22.5563 -0.5103 0.8896
-14.2841 -22.3368 -0.4628 0.8994
-8.6419 -25.4253 -0.4687 0.8981
-6.4631 -74.6761 -1.3083 0.7409
16.5672 -39.5948 -0.7492 0.8422
23.8222 -41.9033 -0.8414 0.8246
42.5546 -27.3510 -0.8830 0.8168
56.9749 -27.5635 -1.1047 0.7763
19.5927 5.4928 -0.3552 0.9218
4.7082 5.6560 -0.1285 0.9710
2.7582 5.6680 -0.1100 0.9751
1.9573 5.6729 -0.1047 0.9763
-0.1691 5.6860 -0.0993 0.9775
-1.5735 5.6624 -0.1026 0.9768
-3.1764 5.6475 -0.1131 0.9744
-4.1315 5.6310 -0.1219 0.9724
-8.8216 5.7272 -0.1836 0.9588
-5.6518 2.7664 -0.1098 0.9751
-64.2914 -17.7061 -1.1640 0.7658
-67.3298 -37.6658 -1.3466 0.7344
-70.5196 -51.4930 -1.5241 0.7052
-19.1085 -22.7424 -0.5185 0.8880
-6.7591 -30.7789 -0.5500 0.8816
24.6495 -90.3132 -1.6341 0.6876
16.1405 -39.5922 -0.7463 0.8428
32.3267 -27.2882 -0.7384 0.8443
80.3971 -17.8488 -1.4375 0.7193
68.8231 1.5721 -1.2016 0.7593
20.3504 5.5041 -0.3680 0.9191
41.1777 16.6767 -0.7757 0.8372
30.2559 16.7438 -0.6036 0.8708
6.5573 6.0692 -0.1560 0.9649
3.7317 5.6620 -0.1184 0.9732
2.8226 5.6676 -0.1105 0.9750
2.0157 5.6726 -0.1051 0.9762
-0.1168 5.6857 -0.0993 0.9775
-1.5183 5.6650 -0.1024 0.9768
-2.2774 5.6607 -0.1065 0.9759
-3.1102 5.6507 -0.1126 0.9745
-5.2675 5.7173 -0.1357 0.9694
-5.5933 2.8017 -0.1092 0.9753
2.2012 5.6714 -0.3188 0.9759
1.4468 5.6761 -0.3070 0.9768
0.0470 5.6847 -0.2979 0.9775
-0.6421 5.6889 -0.3000 0.9773
-2.0844 5.6455 -0.3154 0.9762
-2.8989 5.6460 -0.3326 0.9749
-4.9641 5.7098 -0.3965 0.9701
-6.3385 5.7239 -0.4476 0.9664
-8.1389 5.7350 -0.5218 0.9609
-10.5617 5.6767 -0.6284 0.9531
-14.7805 5.7758 -0.8317 0.9384
-22.1440 5.6985 -1.1983 0.9125
-32.1561 4.2439 -1.6998 0.8782
-44.5560 -4.9250 -2.3493 0.8356
-43.6393 -10.2521 -2.3493 0.8356
-44.8148 -16.4296 -2.5015 0.8260
-42.5115 -21.7041 -2.5015 0.8260
-33.8971 -29.3340 -2.3493 0.8356
-20.7277 -22.8477 -1.6167 0.8838
-12.4933 -23.1168 -1.3771 0.9001
-0.6139 -47.7276 -2.5015 0.8260
5.1351 -47.4545 -2.5015 0.8260
10.8095 -46.4914 -2.5015 0.8260
16.3233 -32.1542 -1.8898 0.8655
25.5436 -29.6543 -2.0512 0.8549
36.5250 -25.9888 -2.3493 0.8356
39.1477 -15.5054 -2.2067 0.8448
46.1703 -12.1078 -2.5015 0.8260
44.5782 4.7204 -2.3493 0.8356
20.5916 10.3941 -1.2089 0.9117
6.7552 5.7918 -0.4663 0.9650
5.1761 5.6532 -0.4017 0.9698
4.0470 5.6601 -0.3647 0.9725
3.0909 5.6569 -0.3378 0.9745
1.5023 5.6757 -0.3077 0.9768
0.7895 5.6801 -0.3005 0.9773
0.0992 5.6844 -0.2979 0.9775
-0.5892 5.6886 -0.2997 0.9774
-2.0256 5.6452 -0.3143 0.9763
-3.7195 5.6058 -0.3526 0.9734
-6.2219 5.7232 -0.4430 0.9667
-7.9808 5.7340 -0.5150 0.9614
-14.3832 5.7734 -0.8122 0.9398
-21.4810 5.7387 -1.1653 0.9148
-43.7316 -9.8508 -2.3493 0.8356
-44.9638 -16.0173 -2.5015 0.8260
-42.7091 -21.3128 -2.5015 0.8260
-39.8333 -26.2984 -2.5015 0.8260
-12.6937 -22.9805 -1.3759 0.9002
-4.1181 -28.6623 -1.5175 0.8905
4.6991 -47.4997 -2.5015 0.8260
15.4466 -43.6784 -2.4280 0.8306
19.9239 -40.1563 -2.3493 0.8356
24.6124 -37.4663 -2.3493 0.8356
36.2848 -26.3232 -2.3493 0.8356
39.1307 -15.9159 -2.2139 0.8443
46.0572 -12.5313 -2.5015 0.8260
25.0900 5.5308 -1.3465 0.9022
20.6480 13.4964 -1.2928 0.9059
6.7935 5.7173 -0.4653 0.9651
4.1257 5.6596 -0.3671 0.9723
3.1618 5.6624 -0.3399 0.9744
1.5582 5.6754 -0.3084 0.9767
0.8427 5.6798 -0.3009 0.9773
-0.5364 5.6883 -0.2994 0.9774
-2.7704 5.6488 -0.3297 0.9751
-4.6903 5.5993 -0.3828 0.9712
-6.1076 5.7225 -0.4386 0.9670
-7.8268 5.7331 -0.5085 0.9619
-20.8535 5.7768 -1.1340 0.9170
-30.9113 4.6587 -1.6383 0.8823
-45.1029 1.3053 -2.3647 0.8347
-44.6389 -4.1059 -2.3493 0.8356
-45.1090 -15.6037 -2.5015 0.8260
-36.6607 -30.5662 -2.5015 0.8260
-21.6901 -23.0435 -1.6585 0.8809
-16.3140 -22.1650 -1.4423 0.8956
-12.8567 -22.7787 -1.3708 0.9005
-6.4010 -41.8197 -2.2172 0.8441
4.2627 -47.5408 -2.5015 0.8260
9.9538 -46.6821 -2.5015 0.8260
15.4241 -44.9231 -2.4892 0.8268
19.5543 -40.3376 -2.3493 0.8356
23.1954 -36.0260 -2.2455 0.8423
28.7236 -27.1612 -2.0718 0.8536
36.0414 -26.6553 -2.3493 0.8356
38.9877 -22.1236 -2.3493 0.8356
45.9402 -12.9537 -2.5015 0.8260
47.1653 -7.3301 -2.5015 0.8260
47.7047 -1.5999 -2.5015 0.8260
44.6573 3.9008 -2.3493 0.8356
20.5836 9.9199 -1.1975 0.9125
6.8260 5.6383 -0.4640 0.9652
3.2319 5.6651 -0.3418 0.9742
2.3826 5.6703 -0.3223 0.9757
-0.4837 5.6879 -0.2992 0.9774
-1.1840 5.6807 -0.3041 0.9770
-1.9098 5.6466 -0.3124 0.9764
-2.7062 5.6485 -0.3282 0.9752
-3.5774 5.6127 -0.3488 0.9737
-5.9956 5.7218 -0.4343 0.9673
-7.6766 5.7322 -0.5021 0.9624
-9.9195 5.6892 -0.5993 0.9552
-13.6415 5.7688 -0.7762 0.9424
-20.2466 5.8094 -1.1039 0.9191
-30.9095 4.9492 -1.6405 0.8822
-43.9052 -9.0460 -2.3493 0.8356
-45.2504 -15.1888 -2.5015 0.8260
-36.9398 -30.2283 -2.5015 0.8260
-16.5167 -22.0140 -1.4423 0.8956
-7.7860 -26.9022 -1.4677 0.8939
-6.3784 -39.2580 -2.0844 0.8527
15.0743 -45.2534 -2.4997 0.8261
23.7921 -37.7093 -2.3367 0.8364
28.1968 -27.1579 -2.0517 0.8549
35.7952 -26.9852 -2.3493 0.8356
45.8193 -13.3750 -2.5015 0.8260
47.0960 -7.7629 -2.5015 0.8260
47.6880 -2.0379 -2.5015 0.8260
44.6913 3.4906 -2.3493 0.8356
44.0219 8.8595 -2.3533 0.8354
20.4448 6.7583 -1.1285 0.9174
25.9653 21.0493 -1.7518 0.8747
4.2863 5.6586 -0.3720 0.9720
3.3010 5.6647 -0.3436 0.9741
2.4439 5.6700 -0.3236 0.9756
1.6706 5.6747 -0.3100 0.9766
0.9495 5.6791 -0.3018 0.9772
0.2560 5.6834 -0.2982 0.9775
-0.4311 5.6876 -0.2989 0.9774
-1.1302 5.6832 -0.3037 0.9771
-3.5075 5.6162 -0.3470 0.9738
-4.5177 5.5990 -0.3770 0.9716
-5.8857 5.7211 -0.4302 0.9677
-7.5302 5.7313 -0.4959 0.9628
-13.2948 5.7667 -0.7595 0.9436
-31.0925 5.2718 -1.6527 0.8813
-45.1139 2.1355 -2.3670 0.8345
-44.7535 -3.2887 -2.3518 0.8355
-43.9864 -8.6423 -2.3493 0.8356
-45.3880 -14.7726 -2.5015 0.8260
-43.2800 -20.1281 -2.5015 0.8260
-23.2350 -23.7936 -1.7429 0.8753
-6.0744 -35.3336 -1.8789 0.8662
-2.3663 -47.6728 -2.5015 0.8260
9.0947 -46.8571 -2.5015 0.8260
18.8102 -40.6899 -2.3493 0.8356
34.3689 -15.0956 -1.9673 0.8604
45.6945 -13.7953 -2.5015 0.8260
47.6673 -2.4758 -2.5015 0.8260
44.7215 3.0800 -2.3493 0.8356
44.0729 8.4494 -2.3518 0.8355
20.4415 6.5495 -1.1249 0.9176
20.8263 9.5696 -1.2012 0.9123
21.1304 12.9952 -1.3001 0.9054
25.9628 20.6551 -1.7387 0.8756
3.3708 5.6643 -0.3454 0.9739
1.7273 5.6744 -0.3109 0.9765
0.3083 5.6831 -0.2983 0.9775
-1.7966 5.6519 -0.3108 0.9765
-3.4383 5.6196 -0.3453 0.9740
-4.4332 5.5988 -0.3743 0.9718
-7.3872 5.7304 -0.4900 0.9632
-9.5402 5.7070 -0.5826 0.9564
-12.9626 5.7646 -0.7435 0.9448
-18.9012 5.8011 -1.0362 0.9239
-44.8047 -2.8789 -2.3530 0.8354
-45.5218 -14.3551 -2.5015 0.8260
-37.4888 -29.5447 -2.5015 0.8260
-24.1449 -24.2753 -1.7944 0.8718
-17.4040 -22.3302 -1.4837 0.8928
-13.6088 -22.6312 -1.3840 0.8996
-10.6775 -23.8622 -1.3701 0.9006
-8.0682 -26.0740 -1.4304 0.8964
-6.3404 -34.9548 -1.8618 0.8674
2.9513 -47.6402 -2.5015 0.8260
14.2505 -45.5546 -2.5015 0.8260
18.4356 -40.8610 -2.3493 0.8356
25.5258 -32.5428 -2.1675 0.8473
32.1843 -25.2033 -2.1422 0.8490
33.4984 -15.0817 -1.9253 0.8632
46.9455 -8.6266 -2.5015 0.8260
21.3338 9.5665 -1.2253 0.9106
21.5673 12.9925 -1.3195 0.9041
-1.7404 5.6546 -0.3101 0.9766
-3.3698 5.6229 -0.3436 0.9741
-5.6721 5.7198 -0.4222 0.9682
-12.2920 5.6022 -0.7079 0.9473
-18.2885 5.7974 -1.0055 0.9260
-44.1377 -7.8331 -2.3493 0.8356
-45.6516 -13.9365 -2.5015 0.8260
-43.6423 -19.3299 -2.5015 0.8260
-40.9985 -24.4422 -2.5015 0.8260
-37.7587 -29.1991 -2.5015 0.8260
-17.7348 -22.3285 -1.4944 0.8921
-8.1834 -25.6112 -1.4091 0.8979
-3.2374 -47.5611 -2.4983 0.8262
2.5137 -47.6653 -2.5015 0.8260
13.8316 -45.6835 -2.5015 0.8260
18.0597 -41.0286 -2.3493 0.8356
22.8666 -38.5566 -2.3493 0.8356
38.1489 -23.5405 -2.3493 0.8356
32.8171 -15.1389 -1.8940 0.8652
45.4334 -14.6322 -2.5015 0.8260
46.8643 -9.0575 -2.5015 0.8260
44.1732 7.6303 -2.3493 0.8356
22.0179 12.9898 -1.3398 0.9027
1.1109 5.6781 -0.3032 0.9771
0.4130 5.6824 -0.2986 0.9774
-0.9631 5.6529 -0.3005 0.9773
-3.3019 5.6263 -0.3419 0.9742
-5.5682 5.7192 -0.4183 0.9685
-9.1812 5.7239 -0.5670 0.9576
-12.0191 5.6116 -0.6952 0.9483
-44.2078 -7.4273 -2.3493 0.8356
-43.8181 -18.9282 -2.5015 0.8260
-41.2212 -24.0647 -2.5015 0.8260
-38.0251 -28.8511 -2.5015 0.8260
-11.1727 -23.7872 -1.3773 0.9001
-8.2924 -25.1533 -1.3880 0.8993
-6.6165 -33.0126 -1.7645 0.8738
-3.5010 -45.2892 -2.3806 0.8336
7.8003 -47.0899 -2.5015 0.8260
13.4115 -45.8086 -2.5015 0.8260
17.6820 -41.1928 -2.3493 0.8356
22.5116 -38.7650 -2.3493 0.8356
25.1193 -33.2651 -2.1846 0.8462
33.4376 -27.1901 -2.2586 0.8415
32.6033 -15.4051 -1.8898 0.8655
45.2972 -15.0488 -2.5015 0.8260
46.7791 -9.4875 -2.5015 0.8260
47.5810 -3.7880 -2.5015 0.8260
18.6055 5.4008 -1.0153 0.9253
20.5651 8.7718 -1.1717 0.9143
20.6183 11.9102 -1.2479 0.9090
25.9557 19.5064 -1.7016 0.8780
4.6213 5.6566 -0.3828 0.9712
3.5848 5.6629 -0.3512 0.9735
1.1651 5.6778 -0.3038 0.9771
-7.5674 47.0210 -2.4960 0.8263
-1.6289 5.6598 -0.3087 0.9767
-2.3934 5.6470 -0.3214 0.9757
-4.1873 5.5984 -0.3664 0.9724
-5.4662 5.7186 -0.4146 0.9688
-9.0089 5.7320 -0.5596 0.9581
-11.7637 5.6245 -0.6834 0.9491
-17.1655 5.7905 -0.9494 0.9300
-27.0727 5.6202 -1.4491 0.8952
-45.0918 3.7983 -2.3715 0.8342
-44.9348 -1.6460 -2.3565 0.8352
-44.2741 -7.0211 -2.3493 0.8356
-45.4389 -12.9641 -2.4764 0.8276
-43.9900 -18.5250 -2.5015 0.8260
-41.4406 -23.6850 -2.5015 0.8260
-38.2885 -28.5007 -2.5015 0.8260
-27.1943 -25.8748 -1.9672 0.8604
-18.5533 -22.4981 -1.5283 0.8898
-14.1141 -22.0710 -1.3730 0.9004
-9.1826 -19.0927 -1.1103 0.9186
-6.5255 -31.0747 -1.6641 0.8806
1.6380 -47.7034 -2.5015 0.8260
7.3676 -47.1595 -2.5015 0.8260
12.9903 -45.9298 -2.5015 0.8260
17.3030 -41.3534 -2.3493 0.8356
22.1546 -38.9701 -2.3493 0.8356
25.9069 -27.3536 -1.9744 0.8599
47.5442 -4.2249 -2.5015 0.8260
20.6828 15.2485 -1.3467 0.9022
6.5092 6.1367 -0.4688 0.9648
2.7582 5.6680 -0.3304 0.9751
-2.3323 5.6467 -0.3202 0.9758
-3.1681 5.6328 -0.3387 0.9744
-5.6517 2.7663 -0.3298 0.9751
-16.5472 5.7517 -0.9181 0.9322
-26.1378 5.6771 -1.4018 0.8984
-44.3367 -6.6142 -2.3493 0.8356
-32.7582 -30.6006 -2.3493 0.8356
-14.3464 -21.9867 -1.3759 0.9002
-6.7348 -30.6680 -1.6455 0.8818
-4.2752 -44.6230 -2.3493 0.8356
6.9343 -47.2252 -2.5015 0.8260
12.5678 -46.0472 -2.5015 0.8260
21.7957 -39.1719 -2.3493 0.8356
25.5101 -35.1050 -2.2742 0.8404
18.3478 -19.7322 -1.4121 0.8977
30.1478 -25.4489 -2.0676 0.8538
37.4859 -24.5825 -2.3493 0.8356
32.4722 -16.0791 -1.8990 0.8649
42.9275 -15.1426 -2.3856 0.8333
20.1800 5.4580 -1.0956 0.9197
20.5582 8.3259 -1.1624 0.9150
20.6092 11.4053 -1.2344 0.9100
20.6768 14.9530 -1.3373 0.9028
6.5573 6.0692 -0.4683 0.9648
2.8226 5.6676 -0.3318 0.9750
1.2741 5.6771 -0.3049 0.9770
0.5707 5.6815 -0.2993 0.9774
-0.1168 5.6857 -0.2980 0.9775
-1.5183 5.6650 -0.3074 0.9768
-3.1022 5.6361 -0.3372 0.9746
-4.0288 5.5981 -0.3615 0.9728
-5.2675 5.7173 -0.4074 0.9693
-6.7207 5.7263 -0.4627 0.9653
1.4468 5.6761 -0.5125 0.9768
-0.6421 5.6889 -0.5009 0.9773
-1.3465 5.6731 -0.5101 0.9769
-2.0819 5.6386 -0.5259 0.9762
-3.7814 5.5869 -0.5902 0.9733
-8.1389 5.7350 -0.8711 0.9608
-14.7805 5.7758 -1.3883 0.9383
-26.6218 3.5135 -2.3493 0.8978
-26.8511 0.2837 -2.3493 0.8978
-28.4192 -3.1413 -2.5015 0.8915
-27.8345 -6.5391 -2.5015 0.8915
-26.8451 -9.8417 -2.5015 0.8915
-18.0426 -19.8879 -2.3493 0.8978
-15.5176 -21.9150 -2.3493 0.8978
-9.5343 -24.2344 -2.2784 0.9007
9.7801 -26.8676 -2.5015 0.8915
12.9428 -25.4952 -2.5015 0.8915
15.7615 -23.5195 -2.4770 0.8925
19.8465 -18.0882 -2.3493 0.8978
25.1226 -13.6520 -2.5015 0.8915
26.7033 2.8276 -2.3493 0.8978
20.9016 7.5541 -1.9444 0.9146
20.9695 10.5848 -2.0551 0.9100
5.1761 5.6532 -0.6706 0.9697
4.0470 5.6601 -0.6088 0.9724
2.2613 5.6711 -0.5341 0.9758
1.5023 5.6757 -0.5137 0.9767
0.0992 5.6844 -0.4974 0.9774
-2.8278 5.6343 -0.5515 0.9750
-6.2219 5.7232 -0.7396 0.9666
-7.9808 5.7340 -0.8598 0.9613
-10.3178 5.6684 -1.0299 0.9538
-14.3832 5.7734 -1.3560 0.9397
-26.5884 3.7578 -2.3493 0.8978
-26.8474 0.5303 -2.3493 0.8978
-28.4469 -2.8802 -2.5015 0.8915
-26.9344 -9.5948 -2.5015 0.8915
-25.5837 -12.7669 -2.5015 0.8915
-18.2244 -19.7214 -2.3493 0.8978
-15.7183 -21.7716 -2.3493 0.8978
-6.9903 -25.9268 -2.3493 0.8978
15.6562 -23.8327 -2.4947 0.8918
24.9961 -13.8821 -2.5015 0.8915
27.5893 -7.5065 -2.5015 0.8915
28.2923 -4.1312 -2.5015 0.8915
26.7282 2.5822 -2.3493 0.8978
25.0385 5.5194 -2.2432 0.9022
21.0537 13.7616 -2.2005 0.9039
6.7935 5.7173 -0.7768 0.9650
5.2718 5.6526 -0.6762 0.9694
3.1618 5.6624 -0.5674 0.9743
2.3217 5.6707 -0.5361 0.9757
0.8427 5.6798 -0.5024 0.9772
0.1514 5.6840 -0.4975 0.9774
-0.5364 5.6883 -0.4999 0.9773
-1.9668 5.6440 -0.5229 0.9763
-3.6382 5.5942 -0.5838 0.9736
-4.6617 5.5651 -0.6351 0.9713
-6.1076 5.7225 -0.7322 0.9670
-7.8268 5.7331 -0.8488 0.9618
-20.8446 5.7743 -1.8923 0.9168
-25.6999 -12.5313 -2.5015 0.8915
-24.0048 -15.5335 -2.5015 0.8915
-21.9606 -18.3099 -2.5015 0.8915
-18.4048 -19.5532 -2.3493 0.8978
-12.7236 -22.5429 -2.2647 0.9013
-7.2281 -25.8615 -2.3493 0.8978
-4.0628 -26.5435 -2.3493 0.8978
5.9626 -27.9637 -2.5015 0.8915
9.2850 -27.0427 -2.5015 0.8915
15.4544 -24.0030 -2.4976 0.8917
22.9692 -16.9875 -2.4994 0.8916
24.8676 -14.1111 -2.5015 0.8915
27.5192 -7.7596 -2.5015 0.8915
28.2531 -4.3909 -2.5015 0.8915
26.2751 5.5394 -2.3493 0.8978
6.8260 5.6383 -0.7746 0.9651
5.3692 5.6520 -0.6820 0.9692
4.2055 5.6591 -0.6169 0.9721
3.2319 5.6651 -0.5706 0.9742
2.3826 5.6703 -0.5381 0.9756
-1.1840 5.6807 -0.5077 0.9770
-2.6992 5.6339 -0.5466 0.9752
-3.5678 5.5977 -0.5808 0.9737
-4.5754 5.5652 -0.6303 0.9715
-5.9955 5.7218 -0.7251 0.9673
-7.6766 5.7322 -0.8382 0.9623
-9.9195 5.6892 -1.0005 0.9551
-13.6415 5.7688 -1.2958 0.9423
-20.2466 5.8094 -1.8428 0.9189
-26.5149 4.2456 -2.3493 0.8978
-26.8331 1.0233 -2.3493 0.8978
-28.0041 -5.7698 -2.5015 0.8915
-25.8139 -12.2948 -2.5015 0.8915
-24.1464 -15.3125 -2.5015 0.8915
-12.9338 -22.4315 -2.2654 0.9013
-7.4653 -25.7941 -2.3493 0.8978
-1.1552 -28.5689 -2.5015 0.8915
5.7055 -28.0173 -2.5015 0.8915
12.2355 -25.8421 -2.5015 0.8915
16.9579 -20.8205 -2.3493 0.8978
22.7836 -17.1760 -2.4963 0.8918
24.7369 -14.3389 -2.5015 0.8915
26.2830 -11.2572 -2.5015 0.8915
28.5662 -1.2208 -2.5015 0.8915
26.7711 2.0909 -2.3493 0.8978
20.9521 9.8614 -2.0260 0.9112
21.0382 13.2063 -2.1732 0.9051
21.1693 17.1614 -2.3842 0.8964
4.2863 5.6586 -0.6211 0.9719
3.3010 5.6647 -0.5736 0.9740
2.4439 5.6700 -0.5402 0.9755
0.2560 5.6834 -0.4977 0.9774
-1.1302 5.6832 -0.5070 0.9770
-1.8531 5.6493 -0.5202 0.9764
-2.6358 5.6336 -0.5442 0.9753
-4.4905 5.5653 -0.6256 0.9717
-9.7272 5.6982 -0.9863 0.9557
-12.5658 5.4504 -1.1983 0.9465
-26.4748 4.4888 -2.3493 0.8978
-26.8226 1.2697 -2.3493 0.8978
-28.0559 -5.5124 -2.5015 0.8915
-27.1885 -8.8491 -2.5015 0.8915
-25.9257 -12.0572 -2.5015 0.8915
-24.2860 -15.0900 -2.5015 0.8915
-22.2932 -17.9034 -2.5015 0.8915
-18.7608 -19.2119 -2.3493 0.8978
-10.3818 -23.7849 -2.2705 0.9010
-7.7019 -25.7244 -2.3493 0.8978
-4.5496 -26.4644 -2.3493 0.8978
-1.4175 -28.5571 -2.5015 0.8915
2.0300 -28.5201 -2.5015 0.8915
19.1688 -18.8049 -2.3493 0.8978
22.5487 -17.3260 -2.4879 0.8921
24.6042 -14.5655 -2.5015 0.8915
27.3721 -8.2637 -2.5015 0.8915
26.7892 1.8449 -2.3493 0.8978
26.3724 5.0559 -2.3493 0.8978
20.8848 6.6916 -1.9187 0.9157
12.2696 5.6378 -1.1814 0.9472
21.1304 12.9952 -2.1703 0.9052
5.5690 5.6507 -0.6941 0.9686
4.3683 5.6581 -0.6254 0.9717
3.3708 5.6643 -0.5767 0.9739
1.7273 5.6744 -0.5189 0.9765
1.0031 5.6788 -0.5045 0.9771
-1.0765 5.6857 -0.5063 0.9770
-1.7966 5.6519 -0.5189 0.9765
-2.5729 5.6334 -0.5418 0.9754
-5.7779 5.7205 -0.7113 0.9679
-12.3834 5.5071 -1.1857 0.9470
-18.9012 5.8011 -1.7298 0.9237
-26.4324 4.7319 -2.3493 0.8978
-26.8098 1.5159 -2.3493 0.8978
-27.2686 -8.5990 -2.5015 0.8915
-26.0353 -11.8187 -2.5015 0.8915
-24.4236 -14.8664 -2.5015 0.8915
-22.4567 -17.6980 -2.5015 0.8915
-16.5073 -21.1796 -2.3493 0.8978
-10.5929 -23.6730 -2.2690 0.9011
-7.9378 -25.6526 -2.3493 0.8978
-1.6797 -28.5429 -2.5015 0.8915
1.7679 -28.5376 -2.5015 0.8915
14.8102 -24.4576 -2.5015 0.8915
16.6236 -21.1933 -2.3565 0.8975
18.9952 -18.9801 -2.3493 0.8978
24.4694 -14.7908 -2.5015 0.8915
26.9744 1.6090 -2.3641 0.8972
26.4177 4.8135 -2.3493 0.8978
21.4675 16.7591 -2.3827 0.8964
5.6320 5.6107 -0.6955 0.9686
2.5681 5.6692 -0.5445 0.9753
-2.5105 5.6332 -0.5396 0.9755
-3.3609 5.6081 -0.5720 0.9741
-4.3243 5.5655 -0.6166 0.9721
-5.6721 5.7198 -0.7048 0.9682
-7.2477 5.7295 -0.8083 0.9636
-26.3879 4.9744 -2.3493 0.8978
-26.7948 1.7621 -2.3493 0.8978
-28.1524 -4.9962 -2.5015 0.8915
-26.1428 -11.5791 -2.5015 0.8915
-24.5590 -14.6415 -2.5015 0.8915
-22.6183 -17.4909 -2.5015 0.8915
-19.1105 -18.8641 -2.3493 0.8978
-13.5652 -22.0966 -2.2684 0.9011
1.5058 -28.5526 -2.5015 0.8915
11.5190 -26.1693 -2.5015 0.8915
16.4987 -21.4366 -2.3666 0.8971
24.3325 -15.0149 -2.5015 0.8915
25.9629 -11.9770 -2.5015 0.8915
28.0728 -5.4256 -2.5015 0.8915
28.5217 -2.0073 -2.5015 0.8915
28.4976 1.4372 -2.4964 0.8917
26.4608 4.5707 -2.3493 0.8978
20.9264 6.2835 -1.9116 0.9160
12.8571 5.6241 -1.2278 0.9452
21.6136 16.5560 -2.3820 0.8964
6.4126 6.2720 -0.7848 0.9646
3.5127 5.6634 -0.5831 0.9736
0.4130 5.6824 -0.4985 0.9774
-0.2737 5.6867 -0.4981 0.9774
-0.9631 5.6529 -0.5017 0.9772
-4.2430 5.5656 -0.6123 0.9723
-5.5682 5.7192 -0.6983 0.9685
-7.1114 5.7287 -0.7989 0.9640
-11.9124 5.5618 -1.1502 0.9486
-26.3388 5.2160 -2.3491 0.8978
-26.7774 2.0081 -2.3493 0.8978
-27.4219 -8.0968 -2.5015 0.8915
-16.8935 -20.8728 -2.3493 0.8978
-13.7761 -21.9848 -2.2698 0.9011
-5.2770 -26.3290 -2.3493 0.8978
1.2435 -28.5652 -2.5015 0.8915
14.3586 -24.7255 -2.5015 0.8915
24.1936 -15.2377 -2.5015 0.8915
28.0218 -5.6832 -2.5015 0.8915
21.5729 6.2622 -1.9653 0.9138
13.1845 5.6237 -1.2540 0.9441
6.4610 6.2043 -0.7837 0.9647
4.6213 5.6566 -0.6390 0.9711
3.5848 5.6629 -0.5864 0.9734
1.8993 5.6733 -0.5234 0.9763
-0.2214 5.6863 -0.4979 0.9774
-4.3993 27.3358 -2.4223 0.8948
-2.3873 5.6327 -0.5352 0.9757
-5.4662 5.7186 -0.6921 0.9687
-11.6669 5.5783 -1.1314 0.9494
-26.2986 5.4595 -2.3499 0.8978
-28.2394 -4.4783 -2.5015 0.8915
-27.4951 -7.8446 -2.5015 0.8915
-26.3510 -11.0969 -2.5015 0.8915
-24.8239 -14.1879 -2.5015 0.8915
-22.9357 -17.0726 -2.5015 0.8915
-9.1373 -18.9985 -1.8444 0.9188
-5.5185 -26.2795 -2.3493 0.8978
0.9812 -28.5754 -2.5015 0.8915
4.4134 -28.2496 -2.5015 0.8915
7.7815 -27.5130 -2.5015 0.8915
18.4651 -19.4962 -2.3493 0.8978
21.1754 -17.5445 -2.4059 0.8955
25.7385 -12.4518 -2.5015 0.8915
27.9684 -5.9403 -2.5015 0.8915
28.4801 -2.5308 -2.5015 0.8915
28.5776 0.9155 -2.5015 0.8915
26.5403 4.0839 -2.3493 0.8978
22.3207 6.2576 -2.0281 0.9111
13.5264 5.6232 -1.2816 0.9429
21.0894 15.5483 -2.2923 0.9001
6.5092 6.1367 -0.7827 0.9647
1.9573 5.6729 -0.5250 0.9762
1.2195 5.6775 -0.5080 0.9770
-1.5735 5.6624 -0.5142 0.9767
-3.1599 5.6182 -0.5639 0.9745
-4.0879 5.5714 -0.6046 0.9726
-6.8480 5.7271 -0.7810 0.9648
-5.6516 2.7663 -0.5505 0.9751
-16.5472 5.7517 -1.5327 0.9321
-26.2561 5.7028 -2.3507 0.8977
-26.7360 2.4996 -2.3493 0.8978
-28.2793 -4.2188 -2.5015 0.8915
-24.9531 -13.9593 -2.5015 0.8915
-20.6127 -19.2550 -2.4678 0.8929
-17.2740 -20.5590 -2.3493 0.8978
-14.2374 -21.8197 -2.2794 0.9007
-9.3616 -19.0155 -1.8543 0.9184
-8.6503 -24.7032 -2.2899 0.9002
-5.7597 -26.2276 -2.3493 0.8978
4.1538 -28.2890 -2.5015 0.8915
10.7937 -26.4767 -2.5015 0.8915
13.9020 -24.9851 -2.5015 0.8915
16.1496 -22.2239 -2.4035 0.8956
18.2633 -19.6413 -2.3465 0.8979
20.8844 -17.6293 -2.3911 0.8961
23.9097 -15.6795 -2.5015 0.8915
26.9639 -9.5115 -2.5015 0.8915
27.9127 -6.1968 -2.5015 0.8915
26.5766 3.8400 -2.3493 0.8978
19.4538 5.2616 -1.7631 0.9223
13.8835 5.6227 -1.3105 0.9416
3.7317 5.6620 -0.5933 0.9731
0.5707 5.6815 -0.4996 0.9773
-0.8037 5.6538 -0.4996 0.9773
-4.0124 5.5753 -0.6010 0.9728
-5.2675 5.7173 -0.6801 0.9693
-6.7207 5.7263 -0.7725 0.9652
-8.6416 5.7239 -0.9069 0.9592
-5.5932 2.8016 -0.5473 0.9752
3.9693 5.6606 -0.8489 0.9725
9.1534 17.1243 -2.3841 0.9247
-1.3465 5.6731 -0.7159 0.9768
-2.8841 5.6171 -0.7753 0.9749
-3.7710 5.5717 -0.8261 0.9733
-4.9641 5.7097 -0.9290 0.9700
-14.7805 5.7758 -1.9485 0.9380
