ply
format ascii 1.0
element vertex 1573
property float32 x
property float32 y
property float32 z
property float32 I
end_header
53.1825 2.8458 8.4353 0.8060
53.0601 9.3380 8.5331 0.8040
48.7960 14.8248 8.0773 0.8134
36.7090 16.2041 6.3554 0.8500
2.6042 5.6690 0.9881 0.9751
1.0870 5.6783 0.9157 0.9769
0.3866 5.6432 0.8959 0.9774
-0.2980 5.6868 0.9019 0.9772
-2.5087 5.7004 0.9864 0.9751
-3.3657 5.6748 1.0450 0.9736
-4.3973 5.7120 1.1417 0.9712
-7.1836 5.7291 1.4553 0.9635
-88.7960 40.9112 15.4848 0.6730
-91.6638 6.3815 14.5533 0.6893
-28.9403 -36.2047 7.3411 0.8289
-21.8463 -35.3459 6.5812 0.8451
-15.9941 -34.6133 6.0392 0.8569
-16.8797 -87.1281 14.0563 0.6981
13.3149 -44.3575 7.3352 0.8290
26.6218 -45.1143 8.2967 0.8088
35.5695 -46.4174 9.2621 0.7891
45.9954 -47.0003 10.4156 0.7662
52.8973 -17.1326 8.8066 0.7984
52.9803 -10.3253 8.5491 0.8036
53.1541 2.6072 8.4289 0.8061
48.7946 14.5876 8.0663 0.8136
37.1493 16.2013 6.4191 0.8486
28.4657 16.7548 5.2315 0.8748
5.4101 6.7373 1.3685 0.9656
3.5178 5.6633 1.0559 0.9734
0.4138 5.6701 0.9004 0.9772
-0.2726 5.6866 0.9017 0.9772
-0.9689 5.6909 0.9143 0.9769
-1.6958 5.6954 0.9412 0.9762
-3.3363 5.6826 1.0437 0.9737
-4.3567 5.7117 1.1378 0.9713
-5.5721 5.7192 1.2647 0.9682
-7.1179 5.7287 1.4471 0.9637
-89.4380 41.6903 15.6290 0.6706
-68.6115 -20.3460 11.3347 0.7484
-68.5100 -66.5991 15.1330 0.6791
-16.1808 -34.6121 6.0515 0.8566
18.3313 -42.4188 7.3190 0.8293
26.3506 -45.1125 8.2747 0.8093
35.2291 -46.3996 9.2272 0.7898
43.8426 -45.2010 9.9736 0.7749
48.9144 -39.5476 9.9627 0.7751
48.9666 -30.6425 9.1489 0.7914
58.8141 -27.5748 10.2883 0.7687
52.9377 -10.5619 8.5498 0.8036
53.0315 -4.0479 8.4238 0.8062
53.0572 8.8515 8.5196 0.8043
48.7931 14.3510 8.0554 0.8139
24.2231 23.4428 5.3390 0.8724
3.5527 5.6631 1.0588 0.9733
2.6654 5.6686 0.9921 0.9750
1.8725 5.6735 0.9463 0.9761
1.1394 5.6780 0.9172 0.9768
-0.2472 5.6865 0.9015 0.9772
-0.9429 5.6908 0.9136 0.9769
-2.4482 5.7000 0.9825 0.9752
-5.5224 5.7189 1.2592 0.9683
-9.1290 5.7411 1.7080 0.9573
-91.5542 -15.0648 14.6958 0.6868
-68.7014 -20.0406 11.3347 0.7484
-69.3520 -66.8202 15.2532 0.6770
-28.9363 -35.5466 7.2596 0.8306
-15.8340 -78.0053 12.6068 0.7244
34.8915 -46.3820 9.1927 0.7905
48.9122 -39.9070 9.9983 0.7744
58.2329 -27.6193 10.2079 0.7703
52.8941 -17.6533 8.8319 0.7979
52.9363 -10.8067 8.5572 0.8035
53.1830 2.1345 8.4301 0.8061
29.9058 17.2459 5.4678 0.8695
23.2158 22.2689 5.0952 0.8778
3.5877 5.6629 1.0618 0.9732
2.6962 5.6684 0.9942 0.9749
5.0794 61.9992 9.8526 0.7773
-0.2219 5.6863 0.9013 0.9772
-0.9169 5.6906 0.9129 0.9769
-1.6406 5.6950 0.9387 0.9763
-5.4732 5.7186 1.2537 0.9685
-6.9887 5.7279 1.4312 0.9641
-30.5467 -1.1579 4.8416 0.8836
-67.7151 -19.4261 11.1576 0.7518
-0.4760 5.6879 0.7008 0.9773
-1.1790 5.6922 0.7138 0.9768
-1.9194 5.6968 0.7381 0.9761
-5.9860 5.7218 1.0167 0.9672
-10.0052 5.7465 1.4167 0.9546
-13.6216 5.7687 1.8163 0.9421
-33.0640 -34.5141 5.8686 0.8248
-15.5667 -36.6439 4.8884 0.8518
21.1410 -44.5010 6.0493 0.8199
48.6325 -28.0759 6.8950 0.7975
52.9497 -8.6174 6.5869 0.8056
52.9895 -2.1518 6.5116 0.8076
53.0289 4.2598 6.5321 0.8070
34.2391 16.2193 4.6519 0.8584
23.7982 19.3980 3.7698 0.8836
4.2611 5.6588 0.8698 0.9719
3.2788 5.6648 0.8037 0.9740
1.6514 5.6748 0.7257 0.9765
0.9308 5.6793 0.7066 0.9771
0.2371 5.6835 0.6985 0.9773
-0.4505 5.6877 0.7006 0.9773
-1.8912 5.6966 0.7370 0.9761
-2.6931 5.7015 0.7742 0.9749
-3.5942 5.7071 0.8281 0.9732
-5.9326 5.7214 1.0120 0.9673
-9.9019 5.7458 1.4057 0.9549
-33.3581 -34.5123 5.8935 0.8241
-21.3486 -28.2203 4.3448 0.8671
-19.9888 -34.3589 4.8807 0.8520
-12.9958 -44.2900 5.6674 0.8303
-14.6553 -88.1929 10.9772 0.6975
10.7515 -53.7099 6.7256 0.8019
13.9139 -42.2256 5.4589 0.8360
21.0066 -44.7305 6.0677 0.8194
48.4815 -36.7612 7.4706 0.7825
48.5310 -28.3059 6.8984 0.7974
50.0033 -21.5710 6.6865 0.8029
52.9069 -15.5882 6.7722 0.8007
52.9880 -2.3881 6.5127 0.8075
53.0676 10.5616 6.6437 0.8041
34.6314 16.2168 4.6953 0.8572
26.9770 16.8640 3.9063 0.8797
23.7971 19.2214 3.7560 0.8840
23.2260 23.9229 4.0940 0.8743
2.4534 5.6699 0.7586 0.9754
-0.4251 5.6876 0.7003 0.9773
-3.5482 5.6900 0.8234 0.9733
-7.4781 5.6965 1.1543 0.9628
-90.7036 4.2900 11.1495 0.6935
-75.5416 -35.1691 10.2313 0.7148
-26.3833 -34.5549 5.3381 0.8393
-18.3189 -31.1684 4.4390 0.8644
-12.9913 -43.5564 5.5809 0.8326
10.6068 -54.2399 6.7860 0.8003
20.8714 -44.9614 6.0864 0.8189
52.9053 -15.8439 6.7810 0.8005
52.9467 -9.1013 6.5964 0.8053
52.9866 -2.6242 6.5139 0.8075
27.2434 16.8623 3.9340 0.8789
4.3168 5.6278 0.8709 0.9718
3.3462 5.6644 0.8078 0.9738
0.9827 5.6789 0.7076 0.9770
0.2878 5.6832 0.6987 0.9773
-0.3996 5.6874 0.7000 0.9773
-1.0999 5.6917 0.7118 0.9769
-1.8350 5.6962 0.7348 0.9762
-2.6311 5.7012 0.7710 0.9750
-3.5075 5.6809 0.8198 0.9735
-13.1237 5.7656 1.7600 0.9439
-94.2537 -18.1053 11.7845 0.6792
-61.5484 -28.3221 8.3189 0.7611
-33.9536 -34.5086 5.9442 0.8228
-18.4715 -31.1106 4.4425 0.8643
-13.0228 -42.9630 5.5122 0.8345
10.4156 -54.5494 6.8188 0.7995
13.5367 -42.3444 5.4584 0.8360
36.0304 -45.3248 7.1093 0.7919
48.4773 -37.4421 7.5209 0.7813
48.9758 -29.1526 6.9982 0.7948
52.9452 -9.3437 6.6013 0.8052
52.9851 -2.8605 6.5152 0.8075
53.0646 10.0709 6.6318 0.8044
35.4386 16.2119 4.7850 0.8547
23.7949 18.8724 3.7290 0.8848
23.2234 23.4982 4.0565 0.8753
23.2638 30.0511 4.6662 0.8580
2.5134 5.6695 0.7615 0.9753
0.3131 5.6830 0.6988 0.9773
-1.0736 5.6916 0.7112 0.9769
-1.8070 5.6961 0.7337 0.9762
-2.6003 5.7010 0.7694 0.9751
-3.4858 5.7024 0.8206 0.9734
-4.5206 5.7128 0.8945 0.9711
-25.4407 19.7400 3.9538 0.8783
-9.6011 5.7440 1.3737 0.9559
-12.9645 5.7646 1.7421 0.9444
-61.5395 -27.9867 8.3008 0.7615
-34.2554 -34.5068 5.9701 0.8221
-26.8711 -34.5519 5.3744 0.8383
-20.8113 -34.6988 4.9680 0.8495
-13.0186 -42.2708 5.4308 0.8367
13.5030 -42.8965 5.5218 0.8342
27.4432 -45.1193 6.4842 0.8083
26.2583 -33.3354 5.2104 0.8428
48.4752 -37.7859 7.5466 0.7806
48.9740 -29.4475 7.0166 0.7943
52.9837 -3.0970 6.5167 0.8074
53.0231 3.3108 6.5231 0.8073
53.0631 9.8263 6.6261 0.8045
48.8727 15.3245 6.2889 0.8135
5.3675 6.8702 1.0705 0.9655
1.7614 5.6742 0.7295 0.9763
0.3385 5.6829 0.6990 0.9773
-0.3488 5.6871 0.6996 0.9773
-1.0474 5.6914 0.7106 0.9769
-1.7790 5.6959 0.7327 0.9762
-20.0306 33.0981 4.7502 0.8556
-5.7238 5.7202 0.9936 0.9679
-25.2065 19.7385 3.9310 0.8790
-91.4622 -16.7263 11.4164 0.6875
-34.5597 -34.5049 5.9963 0.8213
-27.1177 -34.5504 5.3929 0.8378
-20.9656 -34.6057 4.9680 0.8495
13.2159 -42.6461 5.4820 0.8353
27.1678 -45.1176 6.4665 0.8088
26.0241 -33.3422 5.1933 0.8433
48.9722 -29.7439 7.0352 0.7938
52.9422 -9.8298 6.6116 0.8049
52.9822 -3.3335 6.5183 0.8074
53.0216 3.0740 6.5212 0.8073
48.8977 15.0936 6.2834 0.8136
23.2208 23.0812 4.0200 0.8764
1.0608 5.6785 0.7093 0.9770
-1.0212 5.6912 0.7100 0.9770
-1.7512 5.6957 0.7317 0.9763
-2.5391 5.7006 0.7662 0.9752
-4.4381 5.7122 0.8882 0.9713
-5.6728 5.7198 0.9891 0.9681
-7.2340 5.7168 1.1321 0.9635
-12.6556 5.7627 1.7074 0.9455
-34.8666 -34.5031 6.0229 0.8206
-11.6897 -19.1027 2.7498 0.9137
-16.6660 -36.4927 4.9259 0.8507
-12.9746 -40.8327 5.2606 0.8414
13.0228 -42.6939 5.4806 0.8354
19.1377 -43.2247 5.8042 0.8265
26.8940 -45.1159 6.4491 0.8092
48.9704 -30.0418 7.0541 0.7933
52.9408 -10.0733 6.6169 0.8048
52.9808 -3.5700 6.5200 0.8073
53.0201 2.8371 6.5194 0.8074
53.0601 9.3380 6.6151 0.8048
36.7090 16.2041 4.9269 0.8507
23.2196 22.8754 4.0022 0.8769
23.2587 29.2300 4.5866 0.8602
3.4831 5.6636 0.8164 0.9736
2.6042 5.6690 0.7660 0.9752
1.8168 5.6738 0.7315 0.9763
0.3866 5.6432 0.6945 0.9775
-4.3973 5.7120 0.8851 0.9714
-12.5058 5.7618 1.6907 0.9460
-77.6163 -34.0553 10.4071 0.7106
-21.3370 -34.5220 4.9830 0.8491
-16.9233 -36.6241 4.9537 0.8499
26.6218 -45.1143 6.4319 0.8097
34.6402 -45.2046 6.9927 0.7949
44.5881 -45.5623 7.8275 0.7734
49.5965 -22.9846 6.7119 0.8023
52.8973 -17.1326 6.8271 0.7993
52.9392 -10.3173 6.6224 0.8046
53.0187 2.6006 6.5177 0.8074
53.0586 9.0946 6.6098 0.8050
48.9170 14.6242 6.2689 0.8140
37.1493 16.2013 4.9763 0.8493
28.4656 16.7548 4.0556 0.8754
23.7907 18.1887 3.6770 0.8863
23.2183 22.6714 3.9845 0.8774
23.2570 28.9625 4.5608 0.8610
3.5178 5.6633 0.8186 0.9735
1.8446 5.6736 0.7325 0.9762
0.4138 5.6701 0.6980 0.9773
-5.5721 5.7192 0.9804 0.9683
-7.1179 5.7287 1.1219 0.9638
-12.3589 5.7609 1.6742 0.9465
-91.4215 -15.4610 11.3845 0.6882
-35.4532 -34.4643 6.0710 0.8193
-27.8671 -34.5458 5.4497 0.8362
-21.5490 -34.5207 4.9966 0.8487
-17.0861 -36.5484 4.9537 0.8499
-17.3948 -87.6937 10.9772 0.6975
15.4003 -91.6830 11.4150 0.6875
26.3506 -45.1125 6.4148 0.8101
48.6656 -39.3465 7.6841 0.7771
48.9667 -30.6425 7.0925 0.7923
49.9955 -23.4402 6.7799 0.8005
53.0172 2.3641 6.5162 0.8075
28.7548 16.7531 4.0861 0.8745
23.7897 18.0208 3.6644 0.8867
23.2171 22.4692 3.9671 0.8779
3.5527 5.6631 0.8208 0.9734
2.6654 5.6686 0.7691 0.9751
1.1394 5.6780 0.7111 0.9769
-0.2472 5.6865 0.6989 0.9773
-0.9429 5.6908 0.7083 0.9770
-1.6682 5.6952 0.7287 0.9764
-3.3147 5.7039 0.8100 0.9738
-5.5224 5.7189 0.9761 0.9685
-7.0529 5.7283 1.1156 0.9640
-9.1290 5.7411 1.3241 0.9575
-35.7683 -34.4624 6.0986 0.8186
-28.1204 -34.5442 5.4692 0.8357
-21.7622 -34.5194 5.0104 0.8484
26.0812 -45.1109 6.3980 0.8106
43.4703 -45.2180 7.7016 0.7766
48.6634 -39.7040 7.7115 0.7764
48.9150 -30.9138 7.1049 0.7920
52.9363 -10.8067 6.6338 0.8043
52.9764 -4.2809 6.5259 0.8072
53.0557 8.6089 6.5996 0.8052
49.2425 14.2453 6.2941 0.8134
38.0574 16.1958 5.0784 0.8465
23.7887 17.8540 3.6520 0.8870
23.2158 22.2689 3.9499 0.8784
2.6962 5.6684 0.7707 0.9750
1.1657 5.6778 0.7117 0.9769
5.0794 61.9992 7.6380 0.7783
-0.2219 5.6863 0.6987 0.9773
-0.9169 5.6906 0.7077 0.9770
-4.2765 5.7112 0.8761 0.9717
-5.4732 5.7186 0.9719 0.9686
-6.9887 5.7279 1.1095 0.9642
-9.0386 5.7405 1.3147 0.9578
-70.1996 -20.1389 8.9671 0.7450
-77.1424 -32.6263 10.2842 0.7135
-0.4760 5.6879 0.4994 0.9773
-1.1790 5.6922 0.5086 0.9769
-1.9194 5.6968 0.5259 0.9762
-2.7243 5.7017 0.5529 0.9749
-7.6653 5.7321 0.8374 0.9623
-20.2133 5.8092 1.8400 0.9190
-35.0125 -36.5480 4.4280 0.8161
-21.0810 -36.6101 3.6960 0.8440
-14.5976 -50.5810 4.6059 0.8095
11.0885 -54.1408 4.8350 0.8010
14.1597 -42.3366 3.9056 0.8359
21.2568 -44.7447 4.3340 0.8196
36.2695 -44.3959 5.0155 0.7944
46.0685 -44.2315 5.5875 0.7738
48.4836 -36.4241 5.3054 0.7839
51.0464 -21.7521 4.8545 0.8003
16.7518 5.5820 1.5448 0.9316
34.2391 16.2193 3.3146 0.8589
26.5575 16.7665 2.7478 0.8815
3.2788 5.6648 0.5726 0.9741
2.4236 5.6701 0.5395 0.9755
1.6514 5.6748 0.5171 0.9765
-1.1526 5.6921 0.5081 0.9770
-2.6931 5.7015 0.5517 0.9750
-4.6466 5.7135 0.6443 0.9709
-5.9326 5.7214 0.7211 0.9674
-9.9019 5.7458 1.0016 0.9551
-13.4521 5.7677 1.2805 0.9429
-19.8725 5.8071 1.8113 0.9202
-21.4406 -28.3419 3.1092 0.8670
-15.7590 -36.6427 3.4897 0.8520
-14.0307 -84.4337 7.4883 0.7092
10.8644 -54.2739 4.8426 0.8007
21.0394 -44.8003 4.3302 0.8198
28.2784 -45.1246 4.6590 0.8075
36.1115 -44.6063 5.0211 0.7942
45.9207 -44.4839 5.5935 0.7736
48.4815 -36.7612 5.3231 0.7833
50.9996 -22.0008 4.8594 0.8001
52.9141 -15.5903 4.8261 0.8013
53.0880 -2.3926 4.6493 0.8078
34.6314 16.2168 3.3456 0.8577
23.6966 19.1403 2.6650 0.8849
23.2260 23.9229 2.9171 0.8747
3.3124 5.6646 0.5741 0.9740
2.4534 5.6699 0.5405 0.9755
0.2625 5.6833 0.4978 0.9774
-1.1262 5.6919 0.5076 0.9770
-3.5482 5.6900 0.5867 0.9734
-9.8001 5.7452 0.9939 0.9554
-19.5422 5.8051 1.7836 0.9214
-77.0553 -35.8739 7.4363 0.7109
-15.9520 -36.6415 3.4963 0.8517
-13.9734 -81.8354 7.2633 0.7165
20.8622 -44.9414 4.3349 0.8196
45.7726 -44.7368 5.5996 0.7734
50.9979 -22.2697 4.8686 0.7998
52.9126 -15.8461 4.8324 0.8011
53.0466 -9.1185 4.7090 0.8056
53.0865 -2.6292 4.6502 0.8078
53.0332 3.7855 4.6516 0.8078
53.1663 10.3354 4.7385 0.8045
17.2530 5.5789 1.5864 0.9298
35.0311 16.2144 3.3772 0.8564
27.0834 16.7633 2.7866 0.8799
23.6955 18.9658 2.6554 0.8853
23.2247 23.7096 2.9037 0.8752
4.3168 5.6278 0.6205 0.9719
3.3462 5.6644 0.5756 0.9739
2.4833 5.6697 0.5415 0.9755
-1.0999 5.6917 0.5072 0.9770
-2.6311 5.7012 0.5493 0.9751
-3.5075 5.6809 0.5841 0.9735
-7.4481 5.7262 0.8219 0.9630
-9.6998 5.7446 0.9863 0.9557
-13.1237 5.7656 1.2541 0.9441
-75.9374 -34.9433 7.3133 0.7149
-35.9545 -36.5423 4.4851 0.8140
-28.1879 -36.5798 4.0403 0.8307
-18.5075 -31.1710 3.1716 0.8645
-16.1458 -36.6403 3.5030 0.8515
-13.1623 -43.4231 3.9697 0.8334
-14.0939 -80.3839 7.1400 0.7206
13.8594 -43.3541 3.9821 0.8330
20.6822 -45.0779 4.3391 0.8194
35.7139 -44.9267 5.0212 0.7942
45.6242 -44.9903 5.6059 0.7732
50.9969 -22.5398 4.8780 0.7994
53.0451 -9.3613 4.7126 0.8055
53.0851 -2.8659 4.6511 0.8078
53.0318 3.5483 4.6500 0.8078
53.1647 10.0899 4.7343 0.8047
17.5138 5.5773 1.6081 0.9289
27.3519 16.7617 2.8066 0.8791
5.1670 6.6745 0.7385 0.9667
1.7338 5.6743 0.5191 0.9765
0.3131 5.6830 0.4980 0.9774
-1.0736 5.6916 0.5067 0.9770
-25.4407 19.7400 2.8172 0.8787
-9.6011 5.7440 0.9788 0.9561
-18.9110 5.8012 1.7306 0.9236
-61.4518 -27.9468 5.9062 0.7626
-36.2741 -36.5403 4.5046 0.8132
-18.7099 -31.1950 3.1825 0.8641
-13.3731 -43.4218 3.9750 0.8332
10.6084 -56.9332 5.0667 0.7925
20.4216 -45.0374 4.3264 0.8199
27.5613 -45.3135 4.6402 0.8082
35.5801 -45.1695 5.0306 0.7938
45.4609 -45.2302 5.6105 0.7730
48.4752 -37.7859 5.3773 0.7813
47.1864 -21.1070 4.5228 0.8126
53.0436 -9.6047 4.7162 0.8054
53.0836 -3.1028 4.6521 0.8077
53.0303 3.3113 4.6486 0.8079
53.1632 9.8448 4.7303 0.8049
17.7819 5.5757 1.6304 0.9279
35.8538 16.2093 3.4425 0.8539
27.6242 16.7600 2.8268 0.8783
3.4143 5.6640 0.5786 0.9738
2.5436 5.6693 0.5436 0.9754
1.7614 5.6742 0.5198 0.9764
1.0348 5.6786 0.5050 0.9771
-0.3488 5.6871 0.4985 0.9774
-1.7790 5.6959 0.5221 0.9763
-2.5696 5.7008 0.5471 0.9752
-20.0306 33.0981 3.3847 0.8561
-5.7238 5.7202 0.7080 0.9680
-25.2065 19.7385 2.8010 0.8794
-9.5038 5.7434 0.9715 0.9564
-12.8085 5.7637 1.2288 0.9452
-36.5963 -36.5383 4.5244 0.8125
-28.5947 -36.4323 4.0519 0.8303
-13.5845 -43.4205 3.9804 0.8330
-14.8316 -80.3794 7.1510 0.7202
13.2842 -42.8665 3.9263 0.8351
48.5711 -38.2095 5.4068 0.7803
48.5239 -29.4716 4.9670 0.7962
53.0421 -9.8483 4.7199 0.8052
53.0822 -3.3397 4.6533 0.8077
53.1617 9.6001 4.7263 0.8050
36.2773 16.2067 3.4762 0.8525
27.9007 16.7583 2.8475 0.8775
23.6923 18.4499 2.6272 0.8864
23.2208 23.0812 2.8644 0.8768
5.2622 6.6739 0.7436 0.9665
3.4486 5.6638 0.5801 0.9737
1.7890 5.6740 0.5205 0.9764
1.0608 5.6785 0.5054 0.9771
-0.3234 5.6870 0.4983 0.9774
-1.0212 5.6912 0.5059 0.9771
-2.5391 5.7006 0.5460 0.9753
-20.0286 33.4296 3.4095 0.8552
-7.2340 5.7168 0.8067 0.9637
-9.4081 5.7428 0.9643 0.9567
-36.9213 -36.5363 4.5444 0.8117
-28.8563 -36.4307 4.0660 0.8298
-16.6660 -36.4927 3.5099 0.8512
-13.7965 -43.4192 3.9858 0.8328
10.1772 -57.4539 5.1048 0.7911
13.5439 -44.4022 4.0614 0.8299
20.0553 -45.2972 4.3341 0.8196
26.8941 -45.1161 4.5953 0.8099
35.1036 -45.3897 5.0201 0.7942
48.5221 -29.7668 4.9803 0.7957
53.0807 -3.5768 4.6545 0.8077
49.3086 2.6385 4.3201 0.8201
53.1602 9.3556 4.7224 0.8051
18.3411 5.5722 1.6771 0.9259
36.7089 16.2041 3.5106 0.8512
3.4831 5.6636 0.5817 0.9737
2.6042 5.6690 0.5458 0.9753
1.0870 5.6783 0.5058 0.9771
-0.2980 5.6868 0.4982 0.9774
-9.3137 5.7422 0.9573 0.9570
-12.5058 5.7618 1.2047 0.9462
-91.7211 -15.9317 8.1447 0.6881
-28.9403 -36.2047 4.0551 0.8302
-11.6864 -18.9079 1.9447 0.9146
-16.9286 -36.6355 3.5308 0.8504
-14.0090 -43.4179 3.9914 0.8326
-15.5435 -80.2306 7.1498 0.7203
15.0217 -87.0568 7.7290 0.7014
26.6218 -45.1143 4.5830 0.8103
34.7805 -45.3877 5.0027 0.7949
44.2556 -45.2226 5.5358 0.7756
48.6678 -38.9916 5.4559 0.7785
46.8199 -21.6978 4.5147 0.8129
52.9046 -17.1350 4.8653 0.7999
53.0793 -3.8142 4.6558 0.8076
53.0259 2.6009 4.6447 0.8080
18.6328 5.5704 1.7014 0.9249
37.1493 16.2014 3.5458 0.8498
28.4656 16.7548 2.8898 0.8758
23.6902 18.1118 2.6090 0.8872
23.2183 22.6714 2.8391 0.8778
5.3587 6.6733 0.7488 0.9662
3.5178 5.6633 0.5833 0.9736
2.6348 5.6688 0.5469 0.9752
1.8446 5.6736 0.5220 0.9763
-0.9689 5.6909 0.5051 0.9771
-1.6958 5.6954 0.5199 0.9764
-2.4784 5.7002 0.5438 0.9754
-3.3363 5.6826 0.5765 0.9739
-4.3567 5.7117 0.6285 0.9716
-7.1179 5.7287 0.7994 0.9640
-12.3589 5.7609 1.1930 0.9467
-17.7546 5.7941 1.6339 0.9278
-28.9383 -35.8738 4.0324 0.8310
-17.1262 -36.6343 3.5380 0.8501
-14.2222 -43.4166 3.9971 0.8324
9.6692 -57.5636 5.1067 0.7911
19.5739 -45.2943 4.3169 0.8203
48.6656 -39.3465 5.4752 0.7778
52.9030 -17.3951 4.8722 0.7996
53.0376 -10.5818 4.7316 0.8048
53.1573 8.8682 4.7149 0.8054
18.9331 5.5686 1.7266 0.9238
23.6892 17.9446 2.6000 0.8875
23.2171 22.4693 2.8267 0.8783
-0.2472 5.6865 0.4980 0.9774
-2.4482 5.7000 0.5427 0.9754
-3.3147 5.7039 0.5772 0.9739
-4.3165 5.7115 0.6263 0.9717
-7.0529 5.7283 0.7949 0.9642
-9.1290 5.7411 0.9435 0.9576
-17.4851 5.7924 1.6115 0.9287
-70.0403 -20.4311 6.3831 0.7461
-28.9363 -35.5465 4.0101 0.8319
-21.8420 -34.6459 3.5832 0.8484
33.9719 -45.1595 4.9440 0.7970
53.1558 8.6251 4.7113 0.8056
19.1921 5.5521 1.7479 0.9229
23.6882 17.7786 2.5912 0.8879
23.2158 22.2689 2.8145 0.8788
2.6962 5.6684 0.5492 0.9751
1.9005 5.6733 0.5235 0.9763
1.1657 5.6778 0.5071 0.9770
5.0794 61.9993 5.4424 0.7790
-0.9169 5.6906 0.5043 0.9771
-3.2816 5.7051 0.5758 0.9739
-4.2765 5.7112 0.6242 0.9718
-5.4732 5.7186 0.6925 0.9687
-6.9887 5.7279 0.7906 0.9644
-17.2232 5.7908 1.5897 0.9296
-1.9194 5.6968 0.3150 0.9762
-3.6264 5.7018 0.3541 0.9733
-7.6653 5.7321 0.5016 0.9624
-13.6216 5.7687 0.7753 0.9425
-33.0641 -34.5141 2.5049 0.8258
-14.6882 -34.5759 1.9688 0.8603
-13.0005 -45.0467 2.4571 0.8288
-14.0543 -86.9670 4.6169 0.7027
14.7237 -44.0228 2.4328 0.8303
21.1568 -44.5343 2.5839 0.8208
23.1000 -28.2757 1.9135 0.8639
28.3964 -27.2640 2.0631 0.8541
48.6008 -36.5122 3.1857 0.7839
48.6325 -28.0759 2.9430 0.7986
57.9738 -16.8011 3.1633 0.7852
57.8318 4.6456 3.0406 0.7926
52.7711 10.7468 2.8224 0.8060
16.7518 5.5820 0.9254 0.9317
26.5575 16.7665 1.6460 0.8818
23.6977 19.3160 1.6022 0.8847
0.9308 5.6793 0.3016 0.9772
-1.8912 5.6966 0.3146 0.9762
-2.6931 5.7015 0.3305 0.9751
-3.5919 5.7034 0.3532 0.9734
-5.9275 5.7165 0.4316 0.9676
-7.5941 5.7316 0.4986 0.9626
-9.9019 5.7458 0.6000 0.9552
-19.8725 5.8071 1.0850 0.9204
-33.3582 -34.5123 2.5155 0.8251
-14.8697 -34.5748 1.9725 0.8601
-12.9958 -44.2900 2.4190 0.8312
21.0170 -44.7527 2.5911 0.8203
28.2782 -45.1243 2.7909 0.8079
23.0984 -28.5320 1.9239 0.8633
28.1430 -27.2625 2.0535 0.8548
48.4815 -36.7612 3.1886 0.7837
48.5310 -28.3059 2.9444 0.7985
58.0294 -25.0334 3.3121 0.7764
57.8793 -2.6085 3.0364 0.7929
16.9991 5.5805 0.9377 0.9308
34.6314 16.2168 2.0041 0.8580
26.8186 16.7649 1.6575 0.8810
23.6966 19.1403 1.5964 0.8851
1.6788 5.6747 0.3101 0.9766
0.9567 5.6791 0.3018 0.9772
0.2625 5.6833 0.2982 0.9775
-1.1262 5.6919 0.3041 0.9770
-4.5997 5.7077 0.3842 0.9711
-13.2862 5.7666 0.7591 0.9436
-34.7789 5.8987 1.8487 0.8682
-33.6546 -34.5105 2.5263 0.8244
-26.3833 -34.5549 2.2785 0.8402
-12.9913 -43.5565 2.3821 0.8336
-11.2108 -65.6561 3.4907 0.7658
20.8764 -44.9722 2.5985 0.8199
27.9982 -45.1226 2.7830 0.8084
15.8248 -19.7262 1.3254 0.9037
27.8921 -27.2609 2.0440 0.8554
48.9776 -28.8593 2.9793 0.7964
57.8351 4.1283 3.0387 0.7927
54.4881 10.5924 2.9090 0.8006
27.0834 16.7633 1.6693 0.8802
4.3168 5.6278 0.3717 0.9720
1.7062 5.6745 0.3105 0.9765
0.9827 5.6789 0.3020 0.9772
-0.3996 5.6874 0.2988 0.9774
-2.6311 5.7012 0.3291 0.9752
-5.8217 5.7153 0.4276 0.9679
-7.4481 5.7262 0.4924 0.9631
-13.1237 5.7656 0.7512 0.9442
-19.1039 5.7675 1.0458 0.9232
-33.9536 -34.5087 2.5372 0.8237
-26.6264 -34.5534 2.2861 0.8397
-18.5585 -31.2571 1.9051 0.8645
-13.0228 -42.9630 2.3528 0.8354
-11.5104 -65.6489 3.4930 0.7657
10.9405 -57.2985 3.0571 0.7916
14.9364 -46.7230 2.5707 0.8216
27.6434 -27.2594 2.0346 0.8560
48.9758 -29.1526 2.9870 0.7959
48.3366 -21.3641 2.7696 0.8092
57.9795 -17.6450 3.1762 0.7845
57.8368 3.8698 3.0379 0.7928
17.5138 5.5773 0.9633 0.9290
27.3519 16.7617 1.6812 0.8794
23.6944 18.7926 1.5849 0.8859
23.2234 23.4982 1.7314 0.8760
5.1670 6.6745 0.4424 0.9668
3.7922 6.3548 0.3878 0.9708
-0.3742 5.6873 0.2987 0.9774
-1.8070 5.6961 0.3132 0.9763
-3.4858 5.7024 0.3503 0.9736
-4.5160 5.7070 0.3814 0.9713
-25.4407 19.7400 1.6876 0.8790
-9.6011 5.7440 0.5863 0.9562
-12.9645 5.7646 0.7436 0.9448
-32.9320 5.8874 1.7533 0.8746
-61.3436 -27.8976 3.5317 0.7634
-26.8711 -34.5519 2.2939 0.8392
-15.8688 -26.4582 1.6169 0.8838
11.0224 -59.1551 3.1535 0.7858
16.8953 -53.6732 2.9490 0.7982
27.3881 -45.0287 2.7621 0.8097
27.3969 -27.2579 2.0254 0.8566
47.7979 -21.3808 2.7442 0.8108
57.9814 -17.9278 3.1806 0.7842
57.8844 -3.3834 3.0388 0.7927
35.8538 16.2093 2.0621 0.8542
27.6242 16.7600 1.6933 0.8786
23.2221 23.2887 1.7236 0.8766
5.2144 6.6742 0.4439 0.9666
2.5436 5.6693 0.3257 0.9754
1.7614 5.6742 0.3114 0.9765
1.0348 5.6786 0.3025 0.9771
0.3385 5.6829 0.2984 0.9775
-1.7790 5.6959 0.3127 0.9764
-5.7178 5.7142 0.4236 0.9681
-12.8085 5.7637 0.7361 0.9453
-32.0779 5.8821 1.7092 0.8775
-34.5597 -34.5050 2.5594 0.8223
-27.1177 -34.5504 2.3018 0.8387
-20.9307 -34.5482 2.1170 0.8506
-15.6025 -34.5703 1.9877 0.8591
-13.0144 -41.5983 2.2843 0.8398
-12.1717 -65.9641 3.5154 0.7644
10.7504 -59.1565 3.1510 0.7860
20.1972 -45.0750 2.5886 0.8205
23.0919 -29.5854 1.9669 0.8604
48.9722 -29.7439 3.0028 0.7949
48.2334 -21.8337 2.7747 0.8089
57.8861 -3.6420 3.0397 0.7927
36.2773 16.2067 2.0823 0.8529
23.6923 18.4499 1.5737 0.8867
23.2208 23.0812 1.7159 0.8771
5.2622 6.6739 0.4454 0.9665
3.8330 6.2951 0.3863 0.9709
1.0608 5.6785 0.3027 0.9771
0.3626 5.6631 0.2974 0.9775
-1.0212 5.6912 0.3030 0.9771
-1.7512 5.6957 0.3123 0.9764
-2.5391 5.7006 0.3271 0.9753
-7.2340 5.7168 0.4832 0.9637
-9.4081 5.7428 0.5777 0.9568
-12.6556 5.7627 0.7288 0.9458
-31.1848 5.8619 1.6629 0.8806
-34.8667 -34.5031 2.5707 0.8216
-27.3381 -34.5141 2.3075 0.8383
-11.6869 -19.0982 1.1735 0.9142
-12.9746 -40.8327 2.2454 0.8423
-15.2012 -80.3771 4.2871 0.7206
19.9563 -45.0736 2.5834 0.8208
23.0903 -29.8562 1.9780 0.8597
57.9852 -18.4959 3.1897 0.7837
57.8878 -3.9007 3.0406 0.7926
49.3045 2.6383 2.5877 0.8206
57.7959 10.1714 3.0755 0.7905
28.1811 16.7566 1.7183 0.8769
23.6913 18.2804 1.5683 0.8870
5.3103 6.6737 0.4470 0.9664
3.8536 6.2659 0.3855 0.9710
1.8168 5.6738 0.3122 0.9764
-0.9950 5.6911 0.3028 0.9771
-1.7235 5.6956 0.3119 0.9764
-3.3657 5.6748 0.3458 0.9739
-4.3926 5.7059 0.3774 0.9716
-7.1764 5.7234 0.4811 0.9639
-9.3137 5.7422 0.5734 0.9571
-12.5058 5.7618 0.7216 0.9463
-91.7199 -15.9315 4.8788 0.6887
-15.9732 -34.5680 1.9957 0.8585
-13.0066 -40.3110 2.2199 0.8440
13.5213 -45.0452 2.4648 0.8283
19.7163 -45.0721 2.5782 0.8211
26.5683 -45.0236 2.7398 0.8111
23.0886 -30.1300 1.9894 0.8589
26.6707 -27.2534 1.9984 0.8584
48.9166 -39.1908 3.2849 0.7780
46.0212 -21.3277 2.6583 0.8161
57.9871 -18.7811 3.1944 0.7834
57.8896 -4.1598 3.0417 0.7926
57.8436 2.8372 3.0351 0.7930
41.5859 7.1281 2.2112 0.8445
37.1493 16.2013 2.1240 0.8502
23.6902 18.1118 1.5628 0.8874
5.3587 6.6733 0.4485 0.9663
3.8745 6.2377 0.3848 0.9710
2.6348 5.6688 0.3276 0.9753
1.8446 5.6736 0.3127 0.9764
0.4138 5.6701 0.2979 0.9775
-2.4784 5.7002 0.3258 0.9754
-4.3520 5.7056 0.3761 0.9717
-5.5655 5.7125 0.4180 0.9686
-7.1071 5.7201 0.4781 0.9641
-17.7546 5.7941 0.9788 0.9279
-29.7553 5.8679 1.5894 0.8856
-35.4532 -34.4644 2.5913 0.8203
-27.8671 -34.5458 2.3261 0.8371
-21.5855 -34.5791 2.1363 0.8494
14.9558 -89.0368 4.7316 0.6965
19.4773 -45.0706 2.5732 0.8215
26.2977 -45.0219 2.7325 0.8115
23.0869 -30.4073 2.0009 0.8582
26.4329 -27.2519 1.9897 0.8589
48.9667 -30.6425 3.0273 0.7934
57.9387 -11.5596 3.0963 0.7893
57.8913 -4.4189 3.0428 0.7925
41.4563 6.9162 2.2027 0.8451
37.5985 16.1986 2.1455 0.8488
23.6892 17.9446 1.5575 0.8878
3.8954 6.2095 0.3842 0.9711
1.1394 5.6780 0.3035 0.9771
4.8020 62.0010 3.2591 0.7795
-0.2472 5.6865 0.2983 0.9775
-0.9429 5.6908 0.3023 0.9772
-1.6682 5.6952 0.3110 0.9765
-2.4482 5.7000 0.3251 0.9755
-5.5156 5.7119 0.4161 0.9687
-7.0387 5.7167 0.4752 0.9643
-12.2148 5.7600 0.7078 0.9473
-17.4851 5.7924 0.9653 0.9289
-69.8752 -20.3830 3.8146 0.7471
-35.8045 -34.4973 2.6057 0.8194
-28.1204 -34.5443 2.3344 0.8366
-21.7801 -34.5477 2.1403 0.8491
-16.3471 -34.5657 2.0039 0.8580
-12.9991 -39.0937 2.1591 0.8479
13.2675 -45.6715 2.4925 0.8265
19.2389 -45.0692 2.5682 0.8218
26.0288 -45.0203 2.7254 0.8120
23.0851 -30.6875 2.0125 0.8574
26.1972 -27.2505 1.9810 0.8595
48.9122 -39.9070 3.3083 0.7766
48.9648 -30.9453 3.0357 0.7929
19.1921 5.5521 1.0471 0.9231
23.3686 13.4761 1.4137 0.8976
23.6882 17.7786 1.5522 0.8881
23.2158 22.2689 1.6859 0.8791
1.9005 5.6733 0.3136 0.9763
1.1657 5.6778 0.3038 0.9771
5.0794 61.9993 3.2601 0.7794
-0.2219 5.6863 0.2982 0.9775
-2.4181 5.6998 0.3245 0.9755
-3.2816 5.7051 0.3449 0.9740
-4.2718 5.7049 0.3735 0.9719
-5.4662 5.7114 0.4143 0.9688
-6.9710 5.7135 0.4724 0.9645
-9.0386 5.7405 0.5612 0.9580
-69.8468 -20.0376 3.8082 0.7475
-0.4760 5.6879 0.0996 0.9774
-1.1790 5.6922 0.1015 0.9770
-1.9194 5.6968 0.1049 0.9762
-3.6264 5.7018 0.1179 0.9733
-5.9400 5.6778 0.1434 0.9677
-13.5535 5.7399 0.2569 0.9428
-10.6169 3.0513 0.1928 0.9568
-75.9229 -62.1666 1.7128 0.6753
-32.7463 -34.1824 0.8263 0.8275
-19.6598 -34.1419 0.6877 0.8542
23.0499 -36.4203 0.7523 0.8416
28.3964 -27.2640 0.6871 0.8543
16.6880 5.5608 0.3070 0.9320
24.2338 25.1842 0.6101 0.8695
5.2640 6.9906 0.1527 0.9656
2.4236 5.6701 0.1076 0.9756
0.9308 5.6793 0.1005 0.9772
0.2371 5.6835 0.0993 0.9775
-0.4505 5.6877 0.0996 0.9774
-1.1526 5.6921 0.1014 0.9770
-1.8912 5.6966 0.1048 0.9763
-2.6931 5.7015 0.1101 0.9751
-3.5919 5.7034 0.1176 0.9734
-4.6280 5.6907 0.1280 0.9711
-5.8869 5.6774 0.1428 0.9678
-19.8725 5.8071 0.3614 0.9205
-35.7804 5.9049 0.6330 0.8650
-73.9506 -34.8297 1.4268 0.7211
-13.6001 -81.8425 1.4481 0.7176
15.3842 -46.6874 0.8580 0.8215
23.0477 -36.7779 0.7576 0.8406
23.0984 -28.5320 0.6408 0.8634
28.1430 -27.2625 0.6839 0.8549
53.2481 10.5975 0.9477 0.8048
16.9360 5.5598 0.3111 0.9312
23.3747 10.9456 0.4505 0.9019
23.7971 19.2214 0.5340 0.8848
4.2850 5.6381 0.1236 0.9721
2.4534 5.6699 0.1078 0.9756
1.6788 5.6747 0.1033 0.9766
0.9567 5.6791 0.1005 0.9772
-0.4251 5.6876 0.0996 0.9774
-1.8630 5.6964 0.1046 0.9763
-2.6620 5.7013 0.1098 0.9751
-3.5482 5.6900 0.1170 0.9735
-4.5859 5.6905 0.1276 0.9712
-5.8343 5.6770 0.1421 0.9680
-74.2056 -34.5473 1.4288 0.7207
-33.3780 -34.2269 0.8345 0.8259
-28.9095 -37.8635 0.8315 0.8265
-15.8893 -36.4974 0.6948 0.8528
-12.6239 -42.3248 0.7709 0.8380
-12.0915 -70.8141 1.2539 0.7502
15.1083 -46.5457 0.8542 0.8222
19.5023 -42.0121 0.8085 0.8309
15.8212 -19.7217 0.4413 0.9038
37.9293 -22.3492 0.7684 0.8385
63.2087 -27.6019 1.2039 0.7589
79.2703 -23.7397 1.4444 0.7182
79.4510 5.6713 1.3903 0.7271
17.1975 5.5610 0.3155 0.9302
23.3911 14.4779 0.4802 0.8958
24.2311 24.7370 0.6044 0.8706
4.3168 5.6278 0.1238 0.9720
2.4833 5.6697 0.1080 0.9755
0.9827 5.6789 0.1006 0.9772
0.2878 5.6832 0.0993 0.9775
-0.3996 5.6874 0.0995 0.9774
-3.5075 5.6809 0.1165 0.9736
-4.5440 5.6902 0.1271 0.9713
-5.7835 5.6778 0.1415 0.9681
-7.4481 5.7262 0.1640 0.9631
-9.6998 5.7446 0.1968 0.9559
-19.1039 5.7675 0.3483 0.9233
-91.3957 4.7303 1.5974 0.6934
-74.2932 -34.1867 1.4275 0.7210
-33.6835 -34.2341 0.8383 0.8252
-28.9487 -37.5670 0.8278 0.8272
-18.6090 -31.3421 0.6362 0.8643
-16.0823 -36.4963 0.6961 0.8525
-12.6197 -41.6332 0.7594 0.8403
-12.1080 -69.0572 1.2238 0.7554
14.9338 -46.7148 0.8561 0.8218
20.6822 -45.0780 0.8657 0.8200
23.0952 -29.0528 0.6478 0.8620
27.6434 -27.2594 0.6777 0.8561
23.3888 14.3330 0.4788 0.8961
23.7950 18.8724 0.5301 0.8856
24.2297 24.5164 0.6017 0.8712
5.4110 6.9897 0.1543 0.9653
3.7994 6.3668 0.1294 0.9708
2.5134 5.6695 0.1082 0.9755
1.7338 5.6743 0.1036 0.9765
-3.4858 5.7024 0.1167 0.9736
-4.5025 5.6899 0.1267 0.9714
-5.7345 5.6801 0.1409 0.9682
-25.4407 19.7400 0.5621 0.8791
-9.6011 5.7440 0.1953 0.9562
-12.9309 5.7497 0.2470 0.9450
-32.9320 5.8874 0.5839 0.8747
-61.2467 -27.8536 1.1744 0.7640
-33.9804 -34.2298 0.8419 0.8245
-28.9465 -37.2206 0.8230 0.8281
-18.7316 -31.2312 0.6357 0.8644
-16.2761 -36.4951 0.6975 0.8523
23.0409 -37.8816 0.7739 0.8375
48.4752 -37.7859 1.0728 0.7820
37.3108 -22.4345 0.7599 0.8402
57.1130 10.5762 1.0139 0.7927
17.7520 5.5663 0.3247 0.9283
23.3866 14.1890 0.4775 0.8963
24.1671 24.2364 0.5975 0.8720
3.8203 6.3375 0.1292 0.9708
2.5436 5.6693 0.1085 0.9754
1.7614 5.6742 0.1037 0.9765
1.0348 5.6786 0.1008 0.9772
0.3385 5.6829 0.0994 0.9775
-0.3488 5.6871 0.0995 0.9775
-1.7790 5.6959 0.1042 0.9764
-2.5696 5.7008 0.1091 0.9753
-20.0306 33.0982 0.6753 0.8566
-4.4612 5.6896 0.1262 0.9715
-5.6860 5.6824 0.1403 0.9684
-25.2065 19.7385 0.5588 0.8798
-9.5038 5.7434 0.1938 0.9565
-18.6091 5.7993 0.3402 0.9250
-32.0779 5.8821 0.5693 0.8777
-68.7537 -21.3903 1.2568 0.7497
-28.9445 -36.8779 0.8183 0.8290
-18.9333 -31.2512 0.6378 0.8640
-15.4209 -34.1679 0.6543 0.8607
-12.6116 -40.3107 0.7373 0.8445
-12.2589 -66.4367 1.1792 0.7632
28.0212 -90.4210 1.6523 0.6847
23.0386 -38.2603 0.7796 0.8364
23.0919 -29.5854 0.6551 0.8606
27.1528 -27.2564 0.6715 0.8573
37.3094 -22.6603 0.7620 0.8398
60.9452 -27.5879 1.1677 0.7652
18.0283 5.5649 0.3293 0.9273
38.4814 17.1914 0.7357 0.8448
23.3844 14.0456 0.4761 0.8966
23.7928 18.5282 0.5264 0.8864
24.2270 24.0813 0.5962 0.8723
23.2604 29.5008 0.6557 0.8605
3.8411 6.3084 0.1289 0.9709
2.5738 5.6692 0.1087 0.9754
1.0608 5.6785 0.1008 0.9772
0.3626 5.6631 0.0991 0.9776
-1.0212 5.6912 0.1009 0.9771
-1.7512 5.6957 0.1040 0.9764
-20.0286 33.4296 0.6802 0.8556
-4.4203 5.6893 0.1258 0.9716
-5.6379 5.6846 0.1397 0.9685
-7.1972 5.6878 0.1601 0.9640
-9.4081 5.7428 0.1924 0.9569
-12.6221 5.7475 0.2421 0.9460
-18.3161 5.7975 0.3353 0.9260
-68.2470 -20.9002 1.2459 0.7516
-74.3099 -32.9995 1.4192 0.7223
-34.5817 -34.2211 0.8492 0.8231
-28.9424 -36.5394 0.8136 0.8299
-12.6077 -39.6781 0.7267 0.8466
20.2215 -45.6725 0.8719 0.8189
23.0903 -29.8562 0.6588 0.8599
26.9107 -27.2549 0.6686 0.8579
44.6047 -27.3636 0.9134 0.8111
60.2208 -27.5834 1.1562 0.7672
49.2998 2.6380 0.8618 0.8208
39.2971 6.9159 0.6965 0.8525
38.4943 16.9921 0.7345 0.8451
23.3822 13.9031 0.4748 0.8969
24.2257 23.8667 0.5936 0.8728
23.2587 29.2300 0.6520 0.8612
3.8618 6.2793 0.1287 0.9709
1.8168 5.6738 0.1040 0.9764
1.0870 5.6783 0.1009 0.9771
0.3866 5.6432 0.0987 0.9776
-3.3657 5.6748 0.1152 0.9739
-4.3796 5.6890 0.1253 0.9717
-5.5901 5.6869 0.1392 0.9686
-9.3137 5.7422 0.1910 0.9572
-91.6642 -15.9218 1.6240 0.6892
-68.2620 -20.5731 1.2444 0.7518
-34.8925 -34.2225 0.8531 0.8224
-11.8046 -19.0991 0.3919 0.9141
-12.8704 -66.4330 1.1811 0.7628
15.7759 -91.4274 1.6194 0.6899
23.0238 -39.0170 0.7908 0.8342
23.0886 -30.1300 0.6626 0.8591
26.6707 -27.2534 0.6656 0.8585
34.0735 -27.2989 0.7621 0.8397
44.1583 -27.3609 0.9067 0.8124
59.5106 -27.5791 1.1449 0.7692
39.1828 6.7162 0.6939 0.8530
38.5472 16.8110 0.7340 0.8452
23.2571 28.9626 0.6484 0.8619
0.4138 5.6701 0.0992 0.9775
-3.3363 5.6826 0.1150 0.9740
-9.2207 5.7416 0.1896 0.9575
-28.9383 -35.8738 0.8045 0.8316
-12.6003 -38.4655 0.7065 0.8505
-13.1772 -66.4311 1.1821 0.7627
20.0065 -67.7431 1.2336 0.7538
23.0869 -30.4073 0.6664 0.8584
26.4329 -27.2519 0.6627 0.8591
33.7622 -27.2970 0.7578 0.8406
43.7184 -27.3582 0.9002 0.8136
38.7427 16.6916 0.7363 0.8447
23.7897 18.0208 0.5209 0.8875
23.2554 28.6981 0.6447 0.8626
3.9030 6.2216 0.1282 0.9710
2.6654 5.6686 0.1093 0.9753
1.8725 5.6735 0.1043 0.9764
-0.2472 5.6865 0.0994 0.9775
-0.9429 5.6908 0.1007 0.9772
-1.6682 5.6952 0.1036 0.9765
-3.3147 5.7039 0.1152 0.9740
-5.4957 5.6913 0.1381 0.9688
-7.0011 5.6862 0.1574 0.9646
-9.1290 5.7411 0.1882 0.9578
-12.1814 5.7443 0.2351 0.9475
-17.4851 5.7924 0.3215 0.9290
-29.0519 5.8635 0.5173 0.8882
-68.2919 -19.9211 1.2417 0.7523
-75.4190 -32.2937 1.4320 0.7202
-21.8420 -34.6459 0.7149 0.8489
-16.1568 -34.1634 0.6596 0.8597
25.1982 -86.7414 1.5767 0.6967
24.3339 -42.0887 0.8486 0.8232
26.1973 -27.2505 0.6598 0.8597
33.4544 -27.2951 0.7536 0.8414
43.2847 -27.3555 0.8938 0.8148
37.4859 6.0825 0.6629 0.8591
19.1921 5.5521 0.3487 0.9232
23.3686 13.4761 0.4709 0.8977
23.7887 17.8540 0.5192 0.8878
24.2218 23.2339 0.5859 0.8743
23.2538 28.4365 0.6412 0.8633
3.9235 6.1929 0.1280 0.9711
2.6962 5.6684 0.1096 0.9752
1.9005 5.6733 0.1044 0.9763
1.1657 5.6778 0.1012 0.9771
5.0794 61.9993 1.0858 0.7797
-0.2219 5.6863 0.0993 0.9775
-1.6406 5.6950 0.1034 0.9766
-2.4181 5.6998 0.1081 0.9755
-4.2593 5.6882 0.1240 0.9720
-9.0386 5.7405 0.1869 0.9581
-28.3798 5.8594 0.5058 0.8905
-1.9194 5.6968 -0.1049 0.9762
-3.6264 5.7018 -0.1179 0.9733
-4.6563 5.6738 -0.1281 0.9711
-5.9137 5.6527 -0.1428 0.9678
-7.6653 5.7321 -0.1671 0.9624
-10.0052 5.7465 -0.2014 0.9549
-36.8393 5.9114 -0.6513 0.8613
-65.8414 2.5271 -1.1501 0.7683
-72.1609 -45.7822 -1.4917 0.7104
-21.6851 -22.6362 -0.5472 0.8821
-13.6958 -23.7847 -0.4791 0.8960
-10.9158 -25.6956 -0.4873 0.8943
-9.2161 -57.0285 -1.0083 0.7937
19.5076 -95.2475 -1.6971 0.6778
13.2201 -39.5273 -0.7275 0.8464
19.8934 -41.8748 -0.8092 0.8307
23.0499 -36.4203 -0.7523 0.8416
23.1000 -28.2757 -0.6373 0.8641
28.3964 -27.2640 -0.6871 0.8543
40.7954 -23.5515 -0.8222 0.8282
66.3617 -28.2783 -1.2591 0.7493
85.9358 6.9032 -1.5048 0.7083
52.7711 10.7468 -0.9400 0.8062
16.4598 5.4847 -0.3028 0.9329
26.5576 16.7666 -0.5482 0.8819
23.6977 19.3161 -0.5336 0.8849
24.2338 25.1842 -0.6101 0.8695
5.2923 7.0281 -0.1536 0.9654
3.7363 6.4553 -0.1302 0.9706
2.4236 5.6701 -0.1076 0.9756
1.6514 5.6748 -0.1032 0.9766
0.9308 5.6793 -0.1005 0.9772
-0.4505 5.6877 -0.0996 0.9774
-1.8912 5.6966 -0.1048 0.9763
-3.5919 5.7034 -0.1176 0.9734
-5.8638 5.6551 -0.1422 0.9679
-7.5941 5.7316 -0.1661 0.9627
-9.9019 5.7458 -0.1998 0.9552
-13.3314 5.7159 -0.2532 0.9436
-19.8725 5.8071 -0.3614 0.9205
-35.7804 5.9049 -0.6330 0.8650
-66.0453 2.8293 -1.1539 0.7676
-98.4859 -7.6909 -1.7243 0.6735
-58.9660 -11.8719 -1.0499 0.7861
-67.8725 -31.9669 -1.3095 0.7407
-72.0956 -45.2921 -1.4861 0.7113
-69.3406 -56.2634 -1.5586 0.6996
-13.9853 -24.0394 -0.4854 0.8947
-10.9523 -25.4662 -0.4839 0.8950
-9.2675 -55.7699 -0.9868 0.7976
18.8942 -57.3394 -1.0538 0.7854
19.6242 -41.7868 -0.8058 0.8314
23.0477 -36.7779 -0.7576 0.8406
23.0984 -28.5320 -0.6408 0.8634
28.1430 -27.2625 -0.6839 0.8549
63.9946 -27.6067 -1.2165 0.7567
53.4704 10.6417 -0.9516 0.8040
16.7480 5.4981 -0.3077 0.9319
36.7393 17.2039 -0.7081 0.8502
3.7574 6.4257 -0.1299 0.9707
2.4534 5.6699 -0.1078 0.9756
1.6788 5.6747 -0.1033 0.9766
0.9567 5.6791 -0.1005 0.9772
-1.1262 5.6919 -0.1013 0.9771
-1.8630 5.6964 -0.1046 0.9763
-3.5482 5.6900 -0.1170 0.9735
-4.5721 5.6734 -0.1272 0.9713
-9.8001 5.7452 -0.1983 0.9556
-13.1741 5.7180 -0.2507 0.9442
-34.7789 5.8987 -0.6157 0.8684
-65.8378 3.1139 -1.1505 0.7682
-98.4831 -7.2500 -1.7237 0.6736
-84.3331 -16.5890 -1.5002 0.7090
-69.6648 -56.0142 -1.5603 0.6993
-22.4579 -23.0291 -0.5615 0.8792
-9.2533 -31.0240 -0.5651 0.8785
18.8543 -96.4156 -1.7148 0.6750
15.1215 -46.5864 -0.8549 0.8221
19.3968 -41.7847 -0.8041 0.8317
23.0455 -37.1407 -0.7629 0.8396
27.8921 -27.2609 -0.6808 0.8555
35.6845 -27.3088 -0.7843 0.8355
40.3019 -23.7473 -0.8165 0.8293
85.9311 6.1338 -1.5037 0.7085
34.1249 15.7949 -0.6564 0.8603
27.0834 16.7633 -0.5560 0.8804
23.6955 18.9658 -0.5298 0.8857
24.2311 24.7370 -0.6044 0.8706
2.4833 5.6697 -0.1080 0.9755
-1.0999 5.6917 -0.1012 0.9771
-1.8350 5.6962 -0.1045 0.9763
-3.5075 5.6809 -0.1165 0.9736
-4.5304 5.6731 -0.1267 0.9714
-9.6998 5.7446 -0.1968 0.9559
-13.0134 5.7172 -0.2481 0.9447
-65.8360 3.4074 -1.1507 0.7682
-84.1647 -27.0090 -1.5429 0.7021
-67.5499 -31.0837 -1.2979 0.7427
-72.0544 -44.3768 -1.4771 0.7128
-69.6133 -55.4647 -1.5536 0.7004
-17.0234 -22.0916 -0.4868 0.8944
-11.1838 -25.3797 -0.4841 0.8950
19.1969 -41.8406 -0.8035 0.8318
23.0952 -29.0528 -0.6478 0.8620
27.6434 -27.2594 -0.6777 0.8561
35.3549 -27.3068 -0.7798 0.8363
39.9601 -23.7860 -0.8118 0.8302
57.3720 10.8884 -1.0193 0.7917
34.4861 15.7761 -0.6619 0.8592
5.4289 7.0128 -0.1548 0.9651
3.7994 6.3668 -0.1294 0.9708
2.5134 5.6695 -0.1083 0.9755
-1.0736 5.6916 -0.1011 0.9771
-1.8070 5.6961 -0.1043 0.9764
-3.4858 5.7024 -0.1167 0.9736
-25.4407 19.7399 -0.5621 0.8791
-9.6011 5.7440 -0.1953 0.9562
-12.8559 5.7164 -0.2456 0.9453
-65.8342 3.7012 -1.1509 0.7681
-98.4776 -6.3690 -1.7225 0.6738
-61.2064 -27.8352 -1.1736 0.7641
-71.9705 -43.8848 -1.4714 0.7137
-17.3773 -22.3445 -0.4941 0.8929
-14.2585 -23.7733 -0.4839 0.8950
-11.2420 -25.2072 -0.4818 0.8955
14.7317 -46.7996 -0.8564 0.8218
23.0409 -37.8816 -0.7739 0.8375
23.0936 -29.3177 -0.6514 0.8613
27.3969 -27.2579 -0.6746 0.8567
35.0291 -27.3048 -0.7752 0.8372
61.5648 -27.5389 -1.1772 0.7635
85.9264 5.3654 -1.5028 0.7086
57.9186 10.7254 -1.0282 0.7901
17.6170 5.5240 -0.3223 0.9288
23.6934 18.6206 -0.5260 0.8864
1.7614 5.6742 -0.1037 0.9765
-20.0306 33.0982 -0.6753 0.8566
-4.4480 5.6727 -0.1258 0.9716
-9.5038 5.7434 -0.1938 0.9565
-18.6091 5.7993 -0.3402 0.9250
-32.0779 5.8821 -0.5693 0.8777
-65.8324 3.9950 -1.1512 0.7681
-84.1862 -15.3957 -1.4938 0.7101
-69.4251 -21.5992 -1.2691 0.7476
-14.3000 -23.6036 -0.4817 0.8955
-9.5506 -30.5266 -0.5583 0.8799
17.8572 -57.6232 -1.0530 0.7856
19.1127 -42.6547 -0.8159 0.8295
23.0386 -38.2603 -0.7796 0.8364
23.0919 -29.5854 -0.6551 0.8606
27.1527 -27.2564 -0.6715 0.8573
45.0577 -27.3664 -0.9202 0.8099
61.4407 -27.8122 -1.1772 0.7635
85.9240 4.9816 -1.5023 0.7087
38.5319 6.9582 -0.6835 0.8550
38.4814 17.1914 -0.7357 0.8448
27.9007 16.7583 -0.5681 0.8779
23.6923 18.4499 -0.5242 0.8868
24.2270 24.0813 -0.5963 0.8723
23.2604 29.5008 -0.6557 0.8605
3.8411 6.3084 -0.1289 0.9709
1.7890 5.6740 -0.1038 0.9765
1.0608 5.6785 -0.1008 0.9772
0.3626 5.6631 -0.0991 0.9776
-1.0212 5.6912 -0.1009 0.9771
-2.5391 5.7006 -0.1089 0.9753
-4.4072 5.6725 -0.1254 0.9717
-18.3161 5.7975 -0.3353 0.9260
-66.0362 4.3023 -1.1551 0.7674
-84.3513 -15.0385 -1.4956 0.7098
-32.7512 -25.3875 -0.7233 0.8472
-23.1560 -22.9146 -0.5686 0.8778
-11.5249 -25.2355 -0.4842 0.8949
-9.7486 -30.6799 -0.5619 0.8792
-9.2053 -48.6733 -0.8647 0.8202
19.1111 -43.1647 -0.8240 0.8279
23.0362 -38.6443 -0.7853 0.8353
23.0903 -29.8562 -0.6588 0.8599
26.9107 -27.2549 -0.6686 0.8579
61.5417 -28.1885 -1.1815 0.7628
49.2914 2.6376 -0.8616 0.8208
38.4943 16.9921 -0.7345 0.8451
23.6913 18.2804 -0.5223 0.8872
2.6042 5.6690 -0.1089 0.9754
1.8168 5.6738 -0.1040 0.9764
1.0870 5.6783 -0.1009 0.9771
-0.9950 5.6911 -0.1008 0.9772
-1.7235 5.6956 -0.1039 0.9765
-12.4021 5.7141 -0.2384 0.9468
-29.9083 5.7598 -0.5316 0.8853
-65.8288 4.5829 -1.1518 0.7680
-68.8894 -20.7621 -1.2559 0.7499
-23.3423 -22.8942 -0.5707 0.8774
-17.6938 -22.1352 -0.4946 0.8928
23.0886 -30.1300 -0.6626 0.8591
61.5330 -28.5163 -1.1838 0.7624
18.5094 5.5336 -0.3372 0.9256
28.4657 16.7548 -0.5765 0.8762
23.6902 18.1118 -0.5205 0.8875
23.2571 28.9626 -0.6484 0.8619
2.6348 5.6688 -0.1091 0.9753
1.1132 5.6781 -0.1010 0.9771
0.4138 5.6701 -0.0992 0.9775
-0.9689 5.6909 -0.1008 0.9772
-1.6958 5.6954 -0.1037 0.9765
-2.4784 5.7002 -0.1085 0.9754
-17.7546 5.7941 -0.3260 0.9280
-29.3458 5.7871 -0.5221 0.8872
-64.5855 4.7854 -1.1304 0.7718
-98.4665 -4.6103 -1.7206 0.6741
-84.2854 -14.2542 -1.4921 0.7104
-66.5820 -28.8613 -1.2667 0.7480
-71.5683 -41.9105 -1.4477 0.7176
-23.6954 -23.0345 -0.5768 0.8762
-9.7465 -29.7536 -0.5465 0.8823
-9.1917 -46.3386 -0.8246 0.8278
15.3122 -91.1580 -1.6135 0.6909
20.0033 -67.7322 -1.2327 0.7539
24.4844 -41.9176 -0.8473 0.8235
23.0869 -30.4073 -0.6664 0.8584
33.7622 -27.2970 -0.7578 0.8406
58.8143 -27.5748 -1.1338 0.7712
86.9773 3.8785 -1.5197 0.7059
18.8718 5.5506 -0.3434 0.9243
23.2554 28.6981 -0.6447 0.8626
2.6654 5.6686 -0.1093 0.9753
1.8725 5.6735 -0.1043 0.9764
1.1394 5.6780 -0.1011 0.9771
4.8020 62.0010 -1.0855 0.7797
-0.2472 5.6865 -0.0994 0.9775
-1.6682 5.6952 -0.1036 0.9765
-4.2865 5.6718 -0.1241 0.9720
-12.1322 5.7211 -0.2341 0.9478
-17.4851 5.7924 -0.3215 0.9290
-98.4638 -4.1712 -1.7202 0.6742
-68.6954 -20.0388 -1.2491 0.7511
-66.3046 -28.3910 -1.2590 0.7493
-71.3907 -41.3811 -1.4403 0.7188
-23.9920 -23.1161 -0.5815 0.8752
-14.7802 -23.4445 -0.4838 0.8951
-9.9223 -29.8404 -0.5489 0.8818
-9.1841 -45.2448 -0.8059 0.8314
25.1982 -86.7414 -1.5767 0.6967
18.3840 -43.0665 -0.8173 0.8292
23.0851 -30.6875 -0.6703 0.8576
43.2847 -27.3555 -0.8938 0.8148
83.2224 -27.7753 -1.5314 0.7040
23.3686 13.4761 -0.4709 0.8977
23.6882 17.7786 -0.5170 0.8883
24.2218 23.2339 -0.5859 0.8743
23.2538 28.4366 -0.6412 0.8633
3.9235 6.1929 -0.1280 0.9711
1.9005 5.6733 -0.1044 0.9763
1.1657 5.6778 -0.1012 0.9771
5.0794 61.9993 -1.0858 0.7797
-0.2219 5.6863 -0.0993 0.9775
-0.9169 5.6906 -0.1006 0.9772
-3.2816 5.7051 -0.1149 0.9740
-4.2476 5.6726 -0.1237 0.9720
-6.8855 5.6434 -0.1554 0.9650
-12.0059 5.7270 -0.2322 0.9482
-28.1430 5.8105 -0.5016 0.8914
-66.1319 -27.9696 -1.2533 0.7503
-71.1624 -40.8269 -1.4321 0.7202
-1.1790 5.6922 -0.3046 0.9770
-1.9194 5.6968 -0.3150 0.9762
-3.6264 5.7018 -0.3541 0.9733
-4.6423 5.6567 -0.3835 0.9711
-5.8948 5.6346 -0.4274 0.9679
-13.4079 5.6782 -0.7631 0.9433
-10.6060 3.0481 -0.5784 0.9568
-33.6487 5.3994 -1.7860 0.8724
-44.6747 -3.6888 -2.3493 0.8356
-43.9051 -9.0430 -2.3493 0.8356
-45.2493 -15.1899 -2.5015 0.8260
-16.5430 -22.0714 -1.4456 0.8954
-13.6618 -23.7256 -1.4348 0.8961
-6.7049 -41.4895 -2.2026 0.8451
-1.8837 -47.6937 -2.5015 0.8260
9.5769 -46.7602 -2.5015 0.8260
13.2201 -39.5273 -2.1843 0.8462
23.0877 -28.2607 -1.9125 0.8640
28.2865 -27.1585 -2.0551 0.8546
35.8395 -26.9251 -2.3493 0.8356
38.2043 -22.0556 -2.3119 0.8380
36.5913 -15.5924 -2.0845 0.8527
47.1110 -7.6672 -2.5015 0.8260
47.6915 -1.9367 -2.5015 0.8260
44.6828 3.5894 -2.3493 0.8356
44.0068 8.9620 -2.3536 0.8354
16.3198 5.4381 -0.9015 0.9334
17.9050 11.3040 -1.1097 0.9187
1.6514 5.6748 -0.3097 0.9766
-0.4505 5.6877 -0.2990 0.9774
-1.8912 5.6966 -0.3146 0.9762
-3.5919 5.7034 -0.3532 0.9734
-4.6002 5.6565 -0.3821 0.9712
-5.8451 5.6370 -0.4256 0.9680
-9.9019 5.7458 -0.6000 0.9552
-45.0224 1.9287 -2.3617 0.8349
-44.6906 -3.4899 -2.3493 0.8356
-45.3165 -14.9884 -2.5015 0.8260
-43.1812 -20.3377 -2.5015 0.8260
-40.4170 -25.3909 -2.5015 0.8260
-21.8931 -22.6506 -1.6509 0.8815
-10.8698 -25.2743 -1.4419 0.8957
-9.1330 -31.1253 -1.7000 0.8782
-6.8975 -41.5077 -2.2052 0.8449
-2.0959 -47.6848 -2.5015 0.8260
9.3688 -46.8024 -2.5015 0.8260
19.0551 -40.5751 -2.3493 0.8356
23.0836 -28.5137 -1.9226 0.8633
28.0341 -27.1569 -2.0455 0.8553
35.7194 -27.0843 -2.3493 0.8356
38.1058 -22.2254 -2.3119 0.8380
36.5783 -15.7796 -2.0878 0.8525
47.6824 -2.1489 -2.5015 0.8260
44.0324 8.7634 -2.3529 0.8354
2.4534 5.6699 -0.3238 0.9756
1.6788 5.6747 -0.3101 0.9766
0.9567 5.6791 -0.3018 0.9772
0.2625 5.6833 -0.2982 0.9775
-0.4251 5.6876 -0.2989 0.9774
-1.1262 5.6919 -0.3041 0.9770
-3.5482 5.6900 -0.3514 0.9735
-9.8001 5.7452 -0.5953 0.9555
-31.2495 5.3001 -1.6611 0.8808
-44.9656 2.1267 -2.3592 0.8350
-44.7057 -3.2911 -2.3493 0.8356
-45.3827 -14.7866 -2.5015 0.8260
-43.2712 -20.1454 -2.5015 0.8260
-16.8152 -22.0233 -1.4522 0.8950
-13.8488 -23.5630 -1.4324 0.8963
-10.9348 -25.1170 -1.4357 0.8961
-7.5450 -44.1872 -2.3493 0.8356
-2.3080 -47.6750 -2.5015 0.8260
9.1604 -46.8436 -2.5015 0.8260
20.7695 -33.4726 -2.0645 0.8540
15.8139 -19.7126 -1.3245 0.9037
44.7129 3.1917 -2.3493 0.8356
37.8855 7.3649 -2.0227 0.8568
17.8406 8.2576 -1.0303 0.9243
17.8999 11.0792 -1.1032 0.9191
18.0613 14.4562 -1.2124 0.9115
4.3168 5.6278 -0.3717 0.9720
3.7785 6.3962 -0.3893 0.9707
1.7062 5.6745 -0.3105 0.9765
0.2878 5.6832 -0.2982 0.9775
-0.3996 5.6874 -0.2988 0.9774
-1.0999 5.6917 -0.3038 0.9770
-3.5075 5.6809 -0.3499 0.9736
-9.6998 5.7446 -0.5908 0.9558
-12.9375 5.6838 -0.7406 0.9450
-44.7199 -3.0922 -2.3493 0.8356
-44.0219 -8.4562 -2.3493 0.8356
-45.4481 -14.5846 -2.5015 0.8260
-13.9656 -23.5214 -1.4336 0.8962
-9.2979 -30.6744 -1.6798 0.8795
-2.5201 -47.6643 -2.5015 0.8260
18.6933 -40.7430 -2.3493 0.8356
20.5398 -33.4336 -2.0565 0.8546
23.0952 -29.0528 -1.9451 0.8619
26.0338 -25.6721 -1.9162 0.8638
35.2180 -27.2011 -2.3321 0.8367
37.9065 -22.5636 -2.3119 0.8380
34.1731 -15.1040 -1.9581 0.8610
47.6614 -2.5731 -2.5015 0.8260
17.1979 5.4768 -0.9459 0.9303
17.8387 8.1606 -1.0281 0.9244
18.0585 14.3226 -1.2079 0.9118
23.7266 24.0073 -1.7689 0.8735
5.4289 7.0128 -0.4648 0.9651
3.7994 6.3668 -0.3886 0.9707
1.0087 5.6788 -0.3023 0.9772
-0.3742 5.6873 -0.2987 0.9774
-1.8070 5.6961 -0.3132 0.9763
-2.6003 5.7010 -0.3284 0.9752
-5.6984 5.6443 -0.4203 0.9684
-7.2196 5.6019 -0.4789 0.9641
-9.6011 5.7440 -0.5863 0.9562
-30.4424 5.4423 -1.6207 0.8835
-45.0249 2.5313 -2.3634 0.8347
-44.0590 -8.2603 -2.3493 0.8356
-45.5125 -14.3821 -2.5015 0.8260
-40.7523 -24.8492 -2.5015 0.8260
-22.4787 -22.6437 -1.6721 0.8800
-14.1127 -23.5302 -1.4380 0.8959
-9.3848 -30.4722 -1.6710 0.8801
-7.9378 -44.1183 -2.3493 0.8356
-2.7322 -47.6526 -2.5015 0.8260
3.0276 -47.6347 -2.5015 0.8260
8.7433 -46.9232 -2.5015 0.8260
13.4595 -42.7583 -2.3493 0.8356
20.3658 -33.4835 -2.0539 0.8547
25.3456 -25.2170 -1.8737 0.8666
45.6008 -14.0997 -2.5015 0.8260
47.6495 -2.7852 -2.5015 0.8260
44.7396 2.7936 -2.3493 0.8356
44.1039 8.1672 -2.3507 0.8356
17.4958 5.4860 -0.9609 0.9292
18.0557 14.1900 -1.2035 0.9121
2.5436 5.6693 -0.3257 0.9754
-1.0474 5.6914 -0.3033 0.9771
-1.7790 5.6959 -0.3127 0.9764
-2.5696 5.7008 -0.3277 0.9753
-4.4408 5.6636 -0.3772 0.9716
-7.1536 5.6018 -0.4762 0.9643
-9.5038 5.7434 -0.5820 0.9565
-18.6091 5.7993 -1.0215 0.9249
-30.1517 5.5289 -1.6065 0.8845
-44.7457 -2.6941 -2.3493 0.8356
-44.0954 -8.0640 -2.3493 0.8356
-43.5363 -19.5659 -2.5015 0.8260
-40.8625 -24.6675 -2.5015 0.8260
-22.7372 -22.7012 -1.6838 0.8792
-17.1635 -21.8680 -1.4569 0.8946
-11.2928 -25.0211 -1.4387 0.8959
-9.5381 -30.4868 -1.6741 0.8799
8.5342 -46.9617 -2.5015 0.8260
13.2691 -42.8178 -2.3493 0.8356
18.3300 -40.9078 -2.3493 0.8356
23.1959 -29.7187 -1.9757 0.8598
37.7041 -22.9001 -2.3119 0.8380
47.6367 -2.9971 -2.5015 0.8260
44.7515 2.5946 -2.3493 0.8356
17.8925 10.7469 -1.0939 0.9198
23.7240 23.5813 -1.7530 0.8746
23.7644 30.1399 -2.0115 0.8575
2.5738 5.6692 -0.3263 0.9754
1.7890 5.6740 -0.3118 0.9765
-0.3234 5.6870 -0.2985 0.9774
-1.7512 5.6957 -0.3123 0.9764
-2.5391 5.7006 -0.3270 0.9753
-15.8854 26.5141 -1.6199 0.8836
-7.0884 5.6018 -0.4735 0.9645
-12.5238 5.7027 -0.7212 0.9464
-45.0220 2.9332 -2.3645 0.8347
-44.1308 -7.8678 -2.3493 0.8356
-45.6387 -13.9765 -2.5015 0.8260
-40.9719 -24.4855 -2.5015 0.8260
-17.4098 -21.9797 -1.4695 0.8938
-11.6865 -19.0975 -1.1734 0.9142
-11.3640 -24.8833 -1.4336 0.8962
-9.5827 -30.1579 -1.6584 0.8810
-8.3301 -44.0459 -2.3493 0.8356
-3.1560 -47.6264 -2.5015 0.8260
13.0785 -42.8764 -2.3493 0.8356
22.9325 -38.4702 -2.3472 0.8358
23.1943 -29.9907 -1.9869 0.8591
24.8889 -25.2072 -1.8565 0.8677
37.6019 -23.0676 -2.3119 0.8380
32.9230 -15.0800 -1.8978 0.8650
46.8896 -8.9220 -2.5015 0.8260
44.7627 2.3953 -2.3493 0.8356
39.1073 6.8825 -2.0810 0.8530
18.1597 5.5171 -0.9947 0.9268
17.8901 10.6375 -1.0908 0.9200
23.7227 23.3711 -1.7452 0.8751
3.8618 6.2793 -0.3863 0.9709
1.0870 5.6783 -0.3030 0.9771
0.3866 5.6432 -0.2964 0.9776
-0.2980 5.6868 -0.2984 0.9774
-0.9950 5.6911 -0.3028 0.9771
-1.7235 5.6956 -0.3119 0.9764
-2.5087 5.7004 -0.3264 0.9754
-3.3657 5.6748 -0.3458 0.9739
-7.0238 5.6017 -0.4708 0.9647
-9.3137 5.7422 -0.5734 0.9571
-12.3910 5.7089 -0.7150 0.9468
-18.0314 5.7958 -0.9926 0.9269
-29.2276 5.6287 -1.5599 0.8876
-45.0191 3.1342 -2.3651 0.8346
-44.1654 -7.6714 -2.3493 0.8356
-45.7004 -13.7734 -2.5015 0.8260
-43.7086 -19.1778 -2.5015 0.8260
-41.0804 -24.3030 -2.5015 0.8260
-32.8079 -25.1986 -2.1680 0.8473
-23.1753 -22.7303 -1.7012 0.8781
-9.6113 -29.7882 -1.6404 0.8822
-8.5260 -44.0084 -2.3493 0.8356
-3.3681 -47.6119 -2.5015 0.8260
2.3914 -47.6709 -2.5015 0.8260
8.1161 -47.0358 -2.5015 0.8260
12.9119 -43.0150 -2.3537 0.8354
17.9653 -41.0692 -2.3493 0.8356
21.2684 -36.0423 -2.1932 0.8457
23.1926 -30.2658 -1.9983 0.8584
24.6656 -25.2045 -1.8482 0.8683
37.4989 -23.2346 -2.3119 0.8380
32.5774 -15.0974 -1.8817 0.8660
46.8494 -9.1305 -2.5015 0.8260
18.5093 5.5336 -1.0125 0.9255
17.8397 7.7802 -1.0200 0.9250
17.8877 10.5286 -1.0878 0.9202
23.7610 29.5901 -1.9888 0.8590
3.8824 6.2504 -0.3856 0.9710
1.8446 5.6736 -0.3127 0.9764
1.1132 5.6781 -0.3032 0.9771
0.4138 5.6701 -0.2979 0.9775
-0.2726 5.6866 -0.2984 0.9775
-0.9689 5.6909 -0.3025 0.9771
-1.6958 5.6954 -0.3114 0.9765
-3.3363 5.6826 -0.3453 0.9740
-5.5083 5.6538 -0.4137 0.9689
-12.2605 5.7151 -0.7089 0.9473
-17.7546 5.7941 -0.9788 0.9279
-45.0153 3.3354 -2.3656 0.8346
-44.7916 -2.0972 -2.3500 0.8356
-45.7612 -13.5700 -2.5015 0.8260
-43.7935 -18.9832 -2.5015 0.8260
