ply
format ascii 1.0
element vertex 1557
property float32 x
property float32 y
property float32 z
property float32 I
end_header
-13.2378 -22.7960 -1.3815 0.8998
-6.6753 -40.3120 -2.1414 0.8490
-2.0723 -47.6833 -2.5013 0.8260
25.2465 -31.1825 -2.1027 0.8515
28.0325 -27.1569 -2.0455 0.8553
35.7146 -27.0865 -2.3491 0.8357
38.7155 -22.5903 -2.3491 0.8357
45.7781 -13.5041 -2.5013 0.8260
44.0344 8.7351 -2.3527 0.8354
20.4819 9.5717 -1.1848 0.9134
20.8304 12.9971 -1.2867 0.9063
25.6754 20.6995 -1.7284 0.8763
6.1158 6.2867 -0.4597 0.9655
1.6868 5.6746 -0.3103 0.9766
-1.1142 5.6788 -0.3033 0.9771
-2.6252 5.6481 -0.3264 0.9754
-4.4946 5.5989 -0.3763 0.9717
-5.8565 5.7210 -0.4291 0.9677
-7.4916 5.7310 -0.4943 0.9629
-12.8299 5.6020 -0.7337 0.9455
-31.3794 5.3976 -1.6687 0.8803
-45.1050 2.2423 -2.3668 0.8345
-44.7520 -3.1826 -2.3513 0.8355
-43.3234 -20.0269 -2.5013 0.8260
-37.2813 -29.8010 -2.5013 0.8260
-23.1641 -23.6143 -1.7336 0.8759
-16.9568 -22.0708 -1.4586 0.8945
-10.6186 -24.1818 -1.3841 0.8996
-2.4690 -47.6645 -2.5013 0.8260
14.5716 -45.4496 -2.5013 0.8260
18.7237 -40.7263 -2.3491 0.8357
22.9214 -28.7975 -1.9289 0.8629
27.7065 -27.2917 -2.0382 0.8558
38.5262 -22.9117 -2.3491 0.8357
34.1810 -15.0943 -1.9582 0.8610
47.0035 -8.2867 -2.5013 0.8260
47.6592 -2.5682 -2.5013 0.8260
44.7241 2.9936 -2.3491 0.8357
44.0797 8.3635 -2.3513 0.8355
20.1432 6.4120 -1.1079 0.9188
20.9283 9.5690 -1.2060 0.9119
21.2178 12.9947 -1.3039 0.9051
6.1588 6.2264 -0.4590 0.9655
4.3846 5.6580 -0.3751 0.9717
3.3845 5.6642 -0.3458 0.9739
2.5177 5.6695 -0.3251 0.9755
1.0133 5.6787 -0.3023 0.9772
0.3181 5.6830 -0.2983 0.9775
-1.0639 5.6718 -0.3024 0.9772
-4.4184 5.5988 -0.3738 0.9718
-5.7592 5.7204 -0.4254 0.9680
-7.3628 5.7302 -0.4890 0.9633
-12.5444 5.6021 -0.7200 0.9465
-29.2815 5.2880 -1.5594 0.8876
-44.7976 -2.8113 -2.3524 0.8354
-45.5396 -14.2877 -2.5013 0.8260
-43.4886 -19.6657 -2.5013 0.8260
-23.8175 -23.8795 -1.7676 0.8736
-10.7922 -24.0319 -1.3806 0.8999
-6.6403 -36.3367 -1.9359 0.8625
-2.8656 -47.6422 -2.5013 0.8260
2.8903 -47.6408 -2.5013 0.8260
8.6041 -46.9464 -2.5013 0.8260
16.7960 -37.3493 -2.1462 0.8487
23.1716 -38.3704 -2.3491 0.8357
25.2399 -32.2577 -2.1466 0.8487
27.3195 -27.3622 -2.0264 0.8565
38.3342 -23.2315 -2.3491 0.8357
45.5470 -14.2641 -2.5013 0.8260
47.6362 -2.9647 -2.5013 0.8260
44.7475 2.6213 -2.3491 0.8357
20.1403 6.2269 -1.1048 0.9190
21.3910 9.5661 -1.2280 0.9104
4.4601 5.6576 -0.3776 0.9716
3.4485 5.6638 -0.3475 0.9738
2.5743 5.6692 -0.3263 0.9754
1.7899 5.6740 -0.3118 0.9765
-1.0186 5.6912 -0.3030 0.9771
-3.3729 5.6381 -0.3443 0.9740
-5.6635 5.7198 -0.4218 0.9683
-9.3675 5.7304 -0.5755 0.9570
-12.2934 5.6132 -0.7083 0.9473
-18.2443 5.7971 -1.0032 0.9262
-44.8400 -2.4395 -2.3534 0.8354
-45.6570 -13.9082 -2.5013 0.8260
-43.6507 -19.3032 -2.5013 0.8260
-17.7052 -22.2679 -1.4909 0.8923
-8.3743 -26.1664 -1.4398 0.8958
-6.6251 -34.6225 -1.8474 0.8683
2.4937 -47.6632 -2.5013 0.8260
8.2132 -47.0164 -2.5013 0.8260
15.9349 -36.2377 -2.0746 0.8534
22.3433 -37.7044 -2.2969 0.8390
26.8658 -27.3595 -2.0096 0.8576
32.6948 -15.0931 -1.8872 0.8657
46.8591 -9.0678 -2.5013 0.8260
47.6099 -3.3610 -2.5013 0.8260
44.7678 2.2488 -2.3491 0.8357
21.8710 9.5632 -1.2510 0.9088
20.3262 11.9881 -1.2367 0.9098
25.6690 19.6576 -1.6944 0.8785
6.2444 6.1063 -0.4577 0.9656
3.5132 5.6634 -0.3493 0.9737
1.1110 5.6781 -0.3032 0.9771
0.4130 5.6824 -0.2986 0.9774
-0.2738 5.6867 -0.2984 0.9775
-0.9698 5.6909 -0.3025 0.9771
-3.3113 5.6412 -0.3428 0.9741
-5.5694 5.7192 -0.4184 0.9685
-7.1133 5.7287 -0.4787 0.9641
-9.2069 5.7379 -0.5685 0.9575
-5.9336 2.7692 -0.3432 0.9741
-17.7218 5.7939 -0.9771 0.9280
-45.0982 3.3724 -2.3701 0.8343
-43.4827 -2.0029 -2.2812 0.8400
-44.2028 -7.4377 -2.3491 0.8357
-43.8098 -18.9393 -2.5013 0.8260
-41.2114 -24.0752 -2.5013 0.8260
-38.0136 -28.8611 -2.5013 0.8260
-25.7817 -25.0024 -1.8822 0.8660
-11.1899 -23.8475 -1.3805 0.8999
-6.7908 -33.9549 -1.8147 0.8705
7.8217 -47.0831 -2.5013 0.8260
13.4325 -45.7992 -2.5013 0.8260
26.4195 -27.3567 -1.9931 0.8587
33.4763 -27.1904 -2.2602 0.8414
28.6838 -18.0426 -1.7759 0.8731
32.4112 -15.2907 -1.8781 0.8663
45.3033 -15.0202 -2.5013 0.8260
47.5803 -3.7571 -2.5013 0.8260
44.7849 1.8762 -2.3491 0.8357
41.0229 6.7272 -2.1786 0.8466
18.6120 5.4167 -1.0159 0.9253
20.2695 8.6627 -1.1552 0.9155
20.3221 11.7588 -1.2305 0.9102
4.6140 5.6566 -0.3826 0.9712
3.5786 5.6630 -0.3511 0.9735
1.1601 5.6778 -0.3037 0.9771
-0.2264 5.6864 -0.2982 0.9775
-2.3995 5.6470 -0.3216 0.9757
-3.2502 5.6442 -0.3413 0.9742
-24.9447 15.8359 -1.5485 0.8884
-17.2257 5.7908 -0.9524 0.9298
-45.0896 3.7495 -2.3712 0.8342
-44.9152 -1.6944 -2.3556 0.8352
-43.9659 -18.5740 -2.5013 0.8260
-41.4103 -23.7314 -2.5013 0.8260
-38.2525 -28.5437 -2.5013 0.8260
-26.7167 -25.4812 -1.9349 0.8625
-18.3818 -22.3450 -1.5164 0.8906
-14.1980 -22.2622 -1.3838 0.8996
-6.8893 -33.0155 -1.7675 0.8736
1.7000 -47.6981 -2.5013 0.8260
7.4296 -47.1466 -2.5013 0.8260
13.0509 -45.9094 -2.5013 0.8260
17.3580 -41.3269 -2.3491 0.8357
22.2065 -38.9369 -2.3491 0.8357
24.8502 -33.4476 -2.1838 0.8463
25.9806 -27.3540 -1.9771 0.8598
31.9175 -26.3681 -2.1697 0.8472
45.1768 -15.3967 -2.5013 0.8260
46.7016 -9.8465 -2.5013 0.8260
47.5473 -4.1529 -2.5013 0.8260
47.3422 1.5888 -2.4825 0.8272
19.2942 5.4415 -1.0506 0.9228
20.3179 11.5318 -1.2244 0.9107
20.3863 15.0805 -1.3290 0.9034
6.3297 5.9868 -0.4566 0.9657
4.6925 5.6561 -0.3852 0.9710
3.6446 5.6626 -0.3529 0.9734
20.6219 42.5588 -2.4785 0.8274
0.5082 5.6818 -0.2990 0.9774
-3.1896 5.6471 -0.3399 0.9744
-4.1253 5.6011 -0.3646 0.9725
-6.8741 5.7272 -0.4689 0.9648
-5.8607 2.8549 -0.3417 0.9742
-45.3395 -12.5836 -2.4660 0.8282
-44.1190 -18.2075 -2.5013 0.8260
-38.4886 -28.2245 -2.5013 0.8260
-29.0679 -27.2654 -2.0887 0.8525
-18.8764 -22.5607 -1.5416 0.8889
-14.3294 -22.0613 -1.3787 0.9000
-9.3715 -19.1373 -1.1167 0.9182
-8.7040 -25.0264 -1.3886 0.8993
-6.7977 -31.2734 -1.6772 0.8797
7.0370 -47.2067 -2.5013 0.8260
17.0134 -41.4699 -2.3491 0.8357
25.2258 -34.5501 -2.2420 0.8425
37.5397 -24.4945 -2.3491 0.8357
45.0471 -15.7721 -2.5013 0.8260
46.6181 -10.2348 -2.5013 0.8260
47.6918 1.2033 -2.5002 0.8261
41.0186 6.0274 -2.1728 0.8470
20.0247 5.4681 -1.0879 0.9202
20.2634 8.2640 -1.1469 0.9161
6.3721 5.9273 -0.4561 0.9657
3.7114 5.6622 -0.3548 0.9732
1.2588 5.6772 -0.3048 0.9770
0.5558 5.6816 -0.2992 0.9774
-0.1316 5.6858 -0.2981 0.9775
-0.8240 5.6900 -0.3013 0.9772
-1.5382 5.6793 -0.3084 0.9767
-2.2891 5.6465 -0.3193 0.9759
-3.1295 5.6501 -0.3385 0.9745
-5.2963 5.7175 -0.4084 0.9693
-8.7153 5.7385 -0.5469 0.9591
-5.8871 2.9287 -0.3446 0.9740
-24.5094 5.4879 -1.3163 0.9043
-30.7422 -0.6477 -1.6115 0.8841
-44.7411 -12.0174 -2.4279 0.8306
-41.7996 -23.0390 -2.5013 0.8260
-11.7573 -23.5118 -1.3777 0.9001
-8.8923 -24.8982 -1.3856 0.8995
37.3346 -24.8060 -2.3491 0.8357
42.4106 -15.2463 -2.3619 0.8348
47.4716 -4.9437 -2.5013 0.8260
20.8089 5.4966 -1.1279 0.9174
20.2604 8.0668 -1.1429 0.9164
4.8529 5.6551 -0.3905 0.9706
3.7788 5.6618 -0.3567 0.9731
2.8499 5.6402 -0.3312 0.9750
2.0525 5.6724 -0.3161 0.9761
1.3084 5.6769 -0.3053 0.9769
-0.0843 5.6855 -0.2980 0.9775
-2.2346 5.6467 -0.3183 0.9760
-3.9881 5.6079 -0.3606 0.9728
-5.1920 5.6994 -0.4040 0.9696
-8.5580 5.7376 -0.5400 0.9596
-11.1642 5.6702 -0.6562 0.9511
-8.3451 3.0392 -0.4652 0.9651
-44.4259 -5.9624 -2.3491 0.8357
-44.1387 -11.4626 -2.3899 0.8330
-44.4159 -17.4707 -2.5013 0.8260
-41.9898 -22.6903 -2.5013 0.8260
-19.4879 -22.5193 -1.5607 0.8876
-9.1015 -24.8295 -1.3859 0.8995
21.2276 -39.4791 -2.3491 0.8357
25.2183 -35.7751 -2.2939 0.8392
31.2725 -27.1768 -2.1713 0.8471
41.0351 -15.1387 -2.2922 0.8393
47.4289 -5.3386 -2.5013 0.8260
21.5598 2.8023 -1.1394 0.9166
21.6209 5.5190 -1.1694 0.9145
4.9347 5.6546 -0.3933 0.9704
2.9229 5.6670 -0.3342 0.9748
2.1059 5.6720 -0.3171 0.9761
1.3582 5.6766 -0.3059 0.9769
-1.4383 5.6840 -0.3073 0.9768
-2.1814 5.6492 -0.3174 0.9760
-3.0076 5.6498 -0.3354 0.9747
-3.9206 5.6112 -0.3587 0.9730
-6.5329 5.7251 -0.4552 0.9658
-8.4045 5.7366 -0.5333 0.9601
-10.9527 5.6779 -0.6466 0.9518
-15.4691 5.7800 -0.8654 0.9360
-23.3599 5.6403 -1.2594 0.9082
-30.4192 -0.1346 -1.5942 0.8853
-43.5423 -10.9218 -2.3526 0.8354
-44.5597 -17.1005 -2.5013 0.8260
-42.1772 -22.3401 -2.5013 0.8260
-39.1812 -27.2550 -2.5013 0.8260
-15.1168 -22.0485 -1.4010 0.8985
-12.1282 -23.2768 -1.3755 0.9002
-9.3488 -24.8619 -1.3920 0.8991
-7.3498 -30.1647 -1.6271 0.8831
0.1117 -47.7282 -2.5013 0.8260
5.8564 -47.3677 -2.5013 0.8260
20.8983 -39.6544 -2.3491 0.8357
30.7482 -27.1736 -2.1505 0.8484
36.9165 -25.4240 -2.3491 0.8357
39.7086 -20.7950 -2.3491 0.8357
46.3481 -11.3953 -2.5013 0.8260
47.3828 -5.7330 -2.5013 0.8260
41.0122 4.9841 -2.1652 0.8475
22.5093 5.5466 -1.2149 0.9113
20.1636 7.6419 -1.1301 0.9173
20.3023 10.6457 -1.2014 0.9123
20.3654 14.0410 -1.2964 0.9057
6.4990 5.7495 -0.4547 0.9658
5.0178 5.6541 -0.3962 0.9702
3.9160 5.6609 -0.3607 0.9728
2.9826 5.6667 -0.3356 0.9747
2.1597 5.6717 -0.3181 0.9760
1.4081 5.6763 -0.3065 0.9768
0.6993 5.6807 -0.3000 0.9773
0.0103 5.6849 -0.2979 0.9775
-0.6794 5.6892 -0.3003 0.9773
-1.3887 5.6864 -0.3068 0.9768
-2.9474 5.6496 -0.3340 0.9748
-4.9331 5.5996 -0.3911 0.9706
-6.4234 5.7244 -0.4509 0.9661
-8.2548 5.7357 -0.5268 0.9605
-10.7319 5.6772 -0.6363 0.9525
-15.0787 5.7776 -0.8463 0.9374
20.6540 9.8624 -2.0024 0.9122
2.4059 5.6702 -0.5389 0.9756
-1.8938 5.6627 -0.5224 0.9763
-2.6758 5.6338 -0.5457 0.9753
-5.9554 5.7216 -0.7225 0.9674
-28.4788 -2.2637 -2.4994 0.8916
-28.0206 -5.6797 -2.5013 0.8915
-18.6426 -19.3240 -2.3491 0.8978
-13.6068 -18.0188 -1.9754 0.9133
-13.0714 -22.5093 -2.2773 0.9008
-4.3865 -26.4900 -2.3491 0.8978
12.1583 -25.8763 -2.5013 0.8915
16.8959 -20.8684 -2.3491 0.8978
24.6940 -14.4089 -2.5013 0.8915
26.2490 -11.3314 -2.5013 0.8915
28.1965 -4.7294 -2.5013 0.8915
28.5608 -1.3008 -2.5013 0.8915
26.3375 5.2246 -2.3491 0.8978
20.5871 6.7425 -1.8953 0.9167
20.6512 9.6509 -1.9943 0.9125
20.8307 12.9972 -2.1481 0.9061
21.2122 17.1012 -2.3838 0.8964
6.1158 6.2867 -0.7673 0.9654
4.3101 5.6585 -0.6223 0.9718
0.2707 5.6833 -0.4978 0.9774
-0.4164 5.6875 -0.4989 0.9774
-1.1142 5.6788 -0.5063 0.9770
-1.8423 5.6651 -0.5212 0.9764
-2.6184 5.6336 -0.5435 0.9754
-5.8565 5.7210 -0.7163 0.9677
-9.7010 5.7147 -0.9850 0.9558
-12.6204 5.5105 -1.2048 0.9462
-19.3779 5.8041 -1.7698 0.9220
-26.8176 1.3332 -2.3491 0.8978
-28.0669 -5.4464 -2.5013 0.8915
-27.2071 -8.7854 -2.5013 0.8915
-25.9517 -11.9966 -2.5013 0.8915
-24.3189 -15.0334 -2.5013 0.8915
-7.7576 -25.7057 -2.3491 0.8978
1.9688 -28.5225 -2.5013 0.8915
5.3879 -28.0781 -2.5013 0.8915
8.7288 -27.2253 -2.5013 0.8915
14.9751 -24.3377 -2.5001 0.8916
22.4461 -17.3196 -2.4804 0.8924
26.1538 -11.5495 -2.5013 0.8915
28.1562 -4.9639 -2.5013 0.8915
28.5490 -1.5384 -2.5013 0.8915
26.7908 1.7933 -2.3491 0.8978
26.3801 5.0052 -2.3491 0.8978
20.5836 6.5521 -1.8899 0.9169
6.1588 6.2264 -0.7662 0.9654
4.3846 5.6580 -0.6262 0.9717
2.5177 5.6695 -0.5427 0.9754
-1.7911 5.6675 -0.5200 0.9764
-2.5616 5.6334 -0.5414 0.9755
-3.4260 5.6201 -0.5759 0.9739
-5.7592 5.7204 -0.7102 0.9679
-9.5322 5.7227 -0.9727 0.9563
-28.1447 -1.7662 -2.4672 0.8929
-27.2793 -8.5587 -2.5013 0.8915
-26.0507 -11.7802 -2.5013 0.8915
-18.9616 -19.0110 -2.3491 0.8978
-16.5353 -21.1553 -2.3491 0.8978
-10.6784 -23.7784 -2.2805 0.9006
-7.9713 -25.6402 -2.3491 0.8978
-1.7166 -28.5388 -2.5013 0.8915
11.7260 -26.0751 -2.5013 0.8915
18.9715 -19.0012 -2.3491 0.8978
22.0886 -17.3388 -2.4568 0.8934
24.4508 -14.8178 -2.5013 0.8915
26.0568 -11.7667 -2.5013 0.8915
28.1139 -5.1980 -2.5013 0.8915
28.5352 -1.7759 -2.5013 0.8915
27.3834 1.6041 -2.3998 0.8957
20.5801 6.3629 -1.8846 0.9171
12.5772 5.6246 -1.2054 0.9462
6.2017 6.1663 -0.7651 0.9655
4.4601 5.6576 -0.6303 0.9715
1.7899 5.6740 -0.5205 0.9764
-3.3640 5.6233 -0.5733 0.9740
-9.3675 5.7304 -0.9607 0.9569
-18.2443 5.7971 -1.6748 0.9260
-26.3827 4.9916 -2.3491 0.8978
-27.4363 -1.4927 -2.4039 0.8955
-28.1536 -4.9785 -2.5013 0.8915
-24.5657 -14.6266 -2.5013 0.8915
-22.6264 -17.4774 -2.5013 0.8915
-19.1192 -18.8526 -2.3491 0.8978
-13.6466 -22.2042 -2.2802 0.9006
-10.8703 -23.6766 -2.2793 0.9007
-5.0464 -26.3722 -2.3491 0.8978
-1.9540 -28.5235 -2.5013 0.8915
1.4938 -28.5513 -2.5013 0.8915
8.2744 -27.3669 -2.5013 0.8915
14.5754 -24.5961 -2.5013 0.8915
16.3697 -21.2837 -2.3491 0.8978
18.8127 -19.1584 -2.3491 0.8978
21.7591 -17.3748 -2.4361 0.8942
27.2117 -8.7713 -2.5013 0.8915
12.8624 5.6241 -1.2282 0.9452
22.0245 12.9897 -2.2371 0.9024
21.6139 16.5522 -2.3818 0.8965
6.2444 6.1063 -0.7641 0.9655
3.5132 5.6634 -0.5831 0.9736
1.8419 5.6737 -0.5219 0.9763
1.1110 5.6781 -0.5062 0.9770
-0.9698 5.6909 -0.5051 0.9771
-1.6893 5.6723 -0.5178 0.9765
-3.3026 5.6263 -0.5708 0.9741
-7.1133 5.7287 -0.7991 0.9640
-9.2069 5.7379 -0.9491 0.9574
-17.7218 5.7939 -1.6312 0.9279
-26.3402 5.2109 -2.3491 0.8978
-28.1941 -4.7440 -2.5013 0.8915
-22.7710 -17.2885 -2.5013 0.8915
-19.3430 -18.7583 -2.3574 0.8975
-16.8850 -20.8772 -2.3491 0.8978
-13.8387 -22.1024 -2.2815 0.9006
-11.0621 -23.5749 -2.2783 0.9007
4.6854 -28.2039 -2.5013 0.8915
11.2904 -26.2666 -2.5013 0.8915
14.3703 -24.7165 -2.5013 0.8915
16.2126 -21.4465 -2.3521 0.8977
18.6526 -19.3143 -2.3491 0.8978
21.4521 -17.4240 -2.4179 0.8950
24.2008 -15.2227 -2.5013 0.8915
25.8573 -12.1987 -2.5013 0.8915
27.1377 -8.9974 -2.5013 0.8915
28.0235 -5.6652 -2.5013 0.8915
28.5017 -2.2506 -2.5013 0.8915
26.4968 4.3451 -2.3491 0.8978
13.1587 5.6237 -1.2520 0.9442
20.7074 11.9817 -2.0931 0.9084
3.5786 5.6630 -0.5861 0.9735
1.8941 5.6733 -0.5233 0.9763
0.4606 5.6821 -0.4988 0.9774
-0.9210 5.6906 -0.5043 0.9771
-2.3961 5.6391 -0.5360 0.9757
-4.1833 5.5819 -0.6103 0.9724
-6.9925 5.7279 -0.7908 0.9644
-22.9540 14.5721 -2.3787 0.8966
-5.8803 2.8042 -0.5700 0.9742
-26.7584 2.2251 -2.3491 0.8978
-26.8317 -1.0122 -2.3491 0.8978
-26.3366 -11.1263 -2.5013 0.8915
-24.8057 -14.2157 -2.5013 0.8915
-22.9141 -17.0983 -2.5013 0.8915
-17.0582 -20.7359 -2.3491 0.8978
-14.0311 -22.0003 -2.2829 0.9005
-11.2537 -23.4733 -2.2775 0.9008
-2.4285 -28.4871 -2.5013 0.8915
4.4505 -28.2419 -2.5013 0.8915
7.8178 -27.5008 -2.5013 0.8915
11.0715 -26.3597 -2.5013 0.8915
16.0997 -21.6697 -2.3618 0.8973
24.0733 -15.4236 -2.5013 0.8915
25.7549 -12.4135 -2.5013 0.8915
27.9754 -5.8983 -2.5013 0.8915
28.4820 -2.4877 -2.5013 0.8915
26.5321 4.1245 -2.3491 0.8978
22.1907 6.2584 -2.0172 0.9116
13.4668 5.6233 -1.2768 0.9431
20.7013 11.7494 -2.0825 0.9088
20.7833 15.3742 -2.2617 0.9014
6.3297 5.9868 -0.7622 0.9656
12.0246 24.8161 -2.4126 0.8952
1.9466 5.6730 -0.5247 0.9762
1.2094 5.6775 -0.5079 0.9770
0.5082 5.6818 -0.4991 0.9774
-0.1790 5.6861 -0.4977 0.9774
-5.3859 5.7181 -0.6872 0.9690
-6.8741 5.7272 -0.7828 0.9647
-8.8768 5.7395 -0.9248 0.9584
-16.7544 5.7879 -1.5508 0.9313
-26.8391 -0.7890 -2.3491 0.8978
-28.2691 -4.2741 -2.5013 0.8915
-27.5490 -7.6460 -2.5013 0.8915
-26.4283 -10.9067 -2.5013 0.8915
-24.9232 -14.0088 -2.5013 0.8915
-20.3140 -19.0542 -2.4367 0.8942
-17.2302 -20.5933 -2.3491 0.8978
-14.2235 -21.8982 -2.2845 0.9005
-8.6450 -24.8568 -2.3025 0.8997
-5.7032 -26.2381 -2.3491 0.8978
4.2153 -28.2779 -2.5013 0.8915
7.5887 -27.5649 -2.5013 0.8915
10.8517 -26.4509 -2.5013 0.8915
18.3286 -19.6220 -2.3491 0.8978
25.6507 -12.6274 -2.5013 0.8915
26.9842 -9.4478 -2.5013 0.8915
27.9253 -6.1309 -2.5013 0.8915
28.4603 -2.7246 -2.5013 0.8915
19.3112 5.2732 -1.7514 0.9228
13.7874 5.6229 -1.3027 0.9420
20.6952 11.5193 -2.0722 0.9093
20.7817 15.1070 -2.2478 0.9020
4.7722 5.6556 -0.6474 0.9707
2.8013 5.6606 -0.5526 0.9750
1.9994 5.6727 -0.5262 0.9761
0.5558 5.6816 -0.4994 0.9773
-0.1316 5.6858 -0.4976 0.9774
-3.1214 5.6353 -0.5636 0.9745
-4.0451 5.5889 -0.6036 0.9727
-5.2963 5.7175 -0.6819 0.9692
-8.7153 5.7385 -0.9129 0.9590
-26.8448 -0.5656 -2.3491 0.8978
-28.3037 -4.0387 -2.5013 0.8915
-23.1955 -16.7147 -2.5013 0.8915
-20.8491 -19.2326 -2.4816 0.8924
-9.4984 -18.9945 -1.8580 0.9183
10.6312 -26.5403 -2.5013 0.8915
13.7488 -25.0675 -2.5013 0.8915
15.8918 -22.1507 -2.3851 0.8963
18.0104 -19.6058 -2.3292 0.8986
20.6231 -17.6230 -2.3733 0.8968
27.8733 -6.3631 -2.5013 0.8915
28.4366 -2.9614 -2.5013 0.8915
26.5970 3.6824 -2.3491 0.8978
14.1212 5.6224 -1.3298 0.9408
20.6894 11.2916 -2.0621 0.9097
20.7801 14.8431 -2.2342 0.9025
6.4145 5.8679 -0.7606 0.9657
3.7788 5.6618 -0.5955 0.9730
-0.0843 5.6855 -0.4975 0.9774
-2.2346 5.6467 -0.5313 0.9759
-3.9771 5.5924 -0.6004 0.9728
-8.5580 5.7376 -0.9014 0.9595
-11.0900 5.6325 -1.0882 0.9513
-24.9683 5.8092 -2.2428 0.9022
-26.6945 2.8923 -2.3491 0.8978
-26.8486 -0.3422 -2.3491 0.8978
-28.3363 -3.8030 -2.5013 0.8915
-27.6725 -7.1864 -2.5013 0.8915
-26.6061 -10.4654 -2.5013 0.8915
-23.3338 -16.5211 -2.5013 0.8915
-21.1323 -19.1708 -2.4963 0.8918
-14.7090 -21.8411 -2.3038 0.8997
-3.1388 -28.4176 -2.5013 0.8915
0.3048 -28.5888 -2.5013 0.8915
3.7441 -28.3442 -2.5013 0.8915
15.7950 -22.4071 -2.3985 0.8958
17.8386 -19.7462 -2.3281 0.8987
20.3700 -17.7022 -2.3611 0.8973
25.4370 -13.0525 -2.5013 0.8915
27.8194 -6.5948 -2.5013 0.8915
28.4110 -3.1979 -2.5013 0.8915
21.6209 5.5190 -1.9522 0.9143
4.9347 5.6546 -0.6566 0.9703
3.8470 5.6613 -0.5988 0.9729
1.3582 5.6766 -0.5107 0.9768
-0.0370 5.6852 -0.4974 0.9774
-2.9997 5.6349 -0.5585 0.9747
-8.4045 5.7366 -0.8903 0.9600
-22.7100 5.4834 -2.0440 0.9105
-27.7313 -6.9559 -2.5013 0.8915
-26.6923 -10.2436 -2.5013 0.8915
-21.3206 -19.0206 -2.4997 0.8916
-17.7389 -20.1567 -2.3491 0.8978
-14.9998 -21.8778 -2.3207 0.8990
-9.2302 -24.5465 -2.2943 0.9001
0.0669 -28.5903 -2.5013 0.8915
3.5081 -28.3744 -2.5013 0.8915
10.1881 -26.7136 -2.5013 0.8915
17.8331 -20.0734 -2.3491 0.8978
25.3275 -13.2638 -2.5013 0.8915
27.7636 -6.8261 -2.5013 0.8915
26.6546 3.2392 -2.3491 0.8978
22.5093 5.5466 -2.0282 0.9111
20.6083 7.8105 -1.9281 0.9153
20.6780 10.8427 -2.0427 0.9105
20.7727 14.3218 -2.2075 0.9037
2.9826 5.6667 -0.5602 0.9746
1.4081 5.6763 -0.5117 0.9768
0.0103 5.6849 -0.4974 0.9774
-0.6794 5.6892 -0.5013 0.9773
-1.3887 5.6864 -0.5121 0.9768
-4.9024 5.5647 -0.6488 0.9707
-6.4234 5.7244 -0.7528 0.9660
-10.6969 5.6587 -1.0587 0.9526
18.1317 6.1058 -2.3491 0.9258
17.2779 8.2503 -2.3509 0.9257
8.8935 5.6524 -1.2939 0.9584
7.2947 5.9818 -1.1583 0.9627
6.0726 6.3472 -1.0786 0.9652
4.2365 5.6589 -0.8680 0.9719
2.4059 5.6702 -0.7563 0.9755
1.6356 5.6749 -0.7252 0.9765
-3.9088 19.0796 -2.3913 0.9245
-1.8938 5.6627 -0.7331 0.9762
-5.9554 5.7216 -1.0140 0.9673
-9.7408 5.6295 -1.3814 0.9557
-12.3991 5.2915 -1.6553 0.9471
-18.8816 3.0863 -2.3491 0.9258
-20.3077 -1.6142 -2.5013 0.9212
-10.6582 -2.1604 -1.3353 0.9571
-9.2137 -3.0601 -1.1921 0.9616
-18.4198 -8.7016 -2.5013 0.9212
-15.8063 -12.8519 -2.5013 0.9212
-10.2251 -17.6079 -2.5001 0.9212
-5.7232 -19.5513 -2.5013 0.9212
-3.3281 -20.0981 -2.5013 0.9212
-0.8845 -20.3525 -2.5013 0.9212
1.5719 -20.3110 -2.5013 0.9212
4.0055 -19.9741 -2.5013 0.9212
6.3808 -19.3467 -2.5013 0.9212
12.8190 -15.8330 -2.5013 0.9212
16.2316 -12.3103 -2.5013 0.9212
17.5954 -10.2669 -2.5013 0.9212
18.7034 -8.0741 -2.5013 0.9212
19.5393 -5.7639 -2.5013 0.9212
20.0911 -3.3699 -2.5013 0.9212
20.3507 -0.9269 -2.5013 0.9212
18.7665 3.7227 -2.3491 0.9258
18.1819 5.9547 -2.3491 0.9258
7.2791 5.8684 -1.1480 0.9630
6.1158 6.2867 -1.0769 0.9653
4.3101 5.6585 -0.8734 0.9717
0.2707 5.6833 -0.6986 0.9773
-2.6162 5.6287 -0.7621 0.9753
-4.4565 5.5514 -0.8741 0.9717
-12.2389 5.3439 -1.6397 0.9476
-18.3277 5.4895 -2.3491 0.9258
-18.8553 3.2433 -2.3491 0.9258
-19.1086 0.9500 -2.3491 0.9258
-20.3204 -1.4451 -2.5013 0.9212
-11.1474 -2.1631 -1.3943 0.9553
-9.2120 -2.9746 -1.1886 0.9617
-10.3738 -17.5266 -2.5007 0.9212
-5.8857 -19.5030 -2.5013 0.9212
-3.4952 -20.0697 -2.5013 0.9212
-1.0538 -20.3445 -2.5013 0.9212
8.5095 -18.5093 -2.5013 0.9212
10.6758 -17.3504 -2.5013 0.9212
18.6356 -8.2295 -2.5013 0.9212
19.4907 -5.9263 -2.5013 0.9212
20.0624 -3.5370 -2.5013 0.9212
7.3025 5.7876 -1.1441 0.9631
6.1588 6.2264 -1.0753 0.9653
3.3845 5.6642 -0.8102 0.9738
2.5178 5.6695 -0.7617 0.9753
-0.3688 5.6872 -0.6998 0.9773
-1.0639 5.6718 -0.7086 0.9770
-1.7911 5.6675 -0.7298 0.9763
-3.4168 5.6052 -0.8060 0.9739
-9.4628 5.6810 -1.3552 0.9565
-18.2814 5.6418 -2.3491 0.9258
-19.1000 1.1090 -2.3491 0.9258
-9.2198 -2.8926 -1.1865 0.9618
-18.5621 -8.3938 -2.5013 0.9212
-12.5454 -16.0506 -2.5013 0.9212
-10.5220 -17.4441 -2.5013 0.9212
-3.6621 -20.0399 -2.5013 0.9212
1.2337 -20.3343 -2.5013 0.9212
6.0579 -19.4502 -2.5013 0.9212
8.3552 -18.5795 -2.5013 0.9212
10.5310 -17.4386 -2.5013 0.9212
12.5537 -16.0441 -2.5013 0.9212
14.3937 -14.4163 -2.5013 0.9212
16.0245 -12.5787 -2.5013 0.9212
19.4407 -6.0883 -2.5013 0.9212
20.0322 -3.7038 -2.5013 0.9212
20.3324 -1.2654 -2.5013 0.9212
18.8259 3.4099 -2.3491 0.9258
17.4664 7.8110 -2.3493 0.9258
9.4113 5.6567 -1.3482 0.9567
6.2017 6.1663 -1.0738 0.9654
4.4601 5.6576 -0.8846 0.9714
3.4485 5.6638 -0.8142 0.9736
2.5743 5.6692 -0.7645 0.9752
1.7899 5.6740 -0.7305 0.9763
1.0621 5.6784 -0.7093 0.9770
-1.0186 5.6912 -0.7099 0.9770
-2.5055 5.6339 -0.7571 0.9755
-3.3551 5.6084 -0.8024 0.9740
-4.3124 5.5589 -0.8638 0.9720
-5.6635 5.7198 -0.9883 0.9681
-7.2367 5.7295 -1.1333 0.9635
-9.3278 5.7061 -1.3426 0.9569
-11.9271 5.4459 -1.6099 0.9485
-18.2338 5.7938 -2.3491 0.9258
-18.7987 3.5567 -2.3491 0.9258
-19.0901 1.2679 -2.3491 0.9258
-20.0605 -3.5473 -2.5013 0.9212
-9.2339 -2.8129 -1.1852 0.9618
-18.6313 -8.2391 -2.5013 0.9212
-16.1221 -12.4533 -2.5013 0.9212
-14.5058 -14.3035 -2.5013 0.9212
-8.4871 -18.4858 -2.4976 0.9213
-6.2095 -19.4023 -2.5013 0.9212
-1.3923 -20.3241 -2.5013 0.9212
3.5056 -20.0679 -2.5013 0.9212
10.3856 -17.5256 -2.5013 0.9212
12.4197 -16.1480 -2.5013 0.9212
15.9192 -12.7117 -2.5013 0.9212
17.3337 -10.7029 -2.5013 0.9212
18.4960 -8.5384 -2.5013 0.9212
19.3894 -6.2499 -2.5013 0.9212
20.0007 -3.8704 -2.5013 0.9212
20.3461 1.0220 -2.5013 0.9212
17.5297 7.6649 -2.3491 0.9258
2.6252 5.6558 -0.7656 0.9752
1.1110 5.6781 -0.7104 0.9770
0.4130 5.6824 -0.6996 0.9773
-0.2738 5.6867 -0.6990 0.9773
-0.9698 5.6909 -0.7088 0.9770
-1.6893 5.6723 -0.7267 0.9764
-2.4506 5.6365 -0.7547 0.9755
-4.2415 5.5626 -0.8589 0.9722
-5.5694 5.7192 -0.9802 0.9683
-7.1133 5.7287 -1.1214 0.9639
-9.1952 5.7307 -1.3303 0.9573
-18.1850 5.9453 -2.3491 0.9258
-18.7684 3.7130 -2.3491 0.9258
-20.3502 -0.9374 -2.5013 0.9212
-9.2461 -2.7327 -1.1838 0.9619
-17.5901 -10.2759 -2.5013 0.9212
-14.6243 -14.1823 -2.5013 0.9212
-12.8107 -15.8396 -2.5013 0.9212
-10.8109 -17.2666 -2.5013 0.9212
-8.6403 -18.4137 -2.4974 0.9213
-6.3708 -19.3500 -2.5013 0.9212
-3.9951 -19.9762 -2.5013 0.9212
-1.5614 -20.3118 -2.5013 0.9212
0.8951 -20.3521 -2.5013 0.9212
3.3385 -20.0963 -2.5013 0.9212
5.7334 -19.5483 -2.5013 0.9212
8.0448 -18.7160 -2.5013 0.9212
10.2394 -17.6115 -2.5013 0.9212
12.2849 -16.2508 -2.5013 0.9212
15.8129 -12.8437 -2.5013 0.9212
17.2440 -10.8468 -2.5013 0.9212
18.4243 -8.6921 -2.5013 0.9212
19.9678 -4.0367 -2.5013 0.9212
20.3539 0.8527 -2.5013 0.9212
16.6080 9.6097 -2.3560 0.9256
7.5766 5.7029 -1.1644 0.9625
6.2871 6.0465 -1.0710 0.9655
3.5786 5.6630 -0.8225 0.9734
2.6827 5.6558 -0.7686 0.9751
1.1601 5.6778 -0.7116 0.9769
-0.2264 5.6864 -0.6988 0.9773
-1.6387 5.6746 -0.7252 0.9765
-4.1715 5.5662 -0.8541 0.9724
-5.4769 5.7186 -0.9722 0.9686
-16.2253 10.3005 -2.3598 0.9255
-5.8802 2.8042 -0.7999 0.9741
-20.3573 -0.7680 -2.5013 0.9212
-9.2573 -2.6524 -1.1824 0.9619
-17.6750 -10.1292 -2.5013 0.9212
-4.1613 -19.9422 -2.5013 0.9212
-1.7304 -20.2981 -2.5013 0.9212
5.5705 -19.5954 -2.5013 0.9212
7.8889 -18.7823 -2.5013 0.9212
15.7055 -12.9748 -2.5013 0.9212
17.1531 -10.9899 -2.5013 0.9212
18.3514 -8.8451 -2.5013 0.9212
19.2827 -6.5717 -2.5013 0.9212
20.2945 -1.7726 -2.5013 0.9212
18.9051 2.9389 -2.3491 0.9258
17.6548 7.3721 -2.3491 0.9258
7.6456 5.6557 -1.1677 0.9624
6.3297 5.9868 -1.0698 0.9655
8.4711 17.4825 -2.3853 0.9247
-0.1790 5.6861 -0.6985 0.9773
-0.8725 5.6903 -0.7068 0.9771
-3.1730 5.6177 -0.7922 0.9743
-4.1023 5.5698 -0.8494 0.9725
-6.8741 5.7272 -1.0986 0.9646
-20.3629 -0.5986 -2.5013 0.9212
-20.1428 -3.0455 -2.5013 0.9212
-17.7587 -9.9818 -2.5013 0.9212
-14.8583 -13.9369 -2.5013 0.9212
-13.0726 -15.6242 -2.5013 0.9212
-11.0967 -17.0842 -2.5013 0.9212
-8.9454 -18.2671 -2.4974 0.9213
-4.3270 -19.9069 -2.5013 0.9212
-1.8992 -20.2830 -2.5013 0.9212
3.0036 -20.1491 -2.5013 0.9212
5.4072 -19.6410 -2.5013 0.9212
9.9448 -17.7794 -2.5013 0.9212
15.5970 -13.1051 -2.5013 0.9212
17.0611 -11.1323 -2.5013 0.9212
19.2273 -6.7320 -2.5013 0.9212
19.8978 -4.3685 -2.5013 0.9212
20.2790 -1.9414 -2.5013 0.9212
18.4564 5.0398 -2.3491 0.9258
17.7156 7.2249 -2.3491 0.9258
16.7582 9.3279 -2.3549 0.9256
6.3721 5.9273 -1.0686 0.9655
3.7114 5.6622 -0.8313 0.9731
2.8013 5.6606 -0.7755 0.9749
1.9994 5.6727 -0.7385 0.9761
0.5558 5.6816 -0.7009 0.9773
-0.1316 5.6858 -0.6983 0.9773
-1.5382 5.6793 -0.7225 0.9766
-3.1130 5.6202 -0.7889 0.9744
-6.7581 5.7265 -1.0876 0.9649
-5.8869 2.9286 -0.8073 0.9739
-8.3258 2.9540 -1.0847 0.9650
-19.0374 1.9025 -2.3491 0.9258
-20.3672 -0.4291 -2.5013 0.9212
-20.1675 -2.8778 -2.5013 0.9212
-11.2385 -16.9913 -2.5013 0.9212
-9.0975 -18.1928 -2.4975 0.9213
-6.8518 -19.1849 -2.5013 0.9212
-2.0679 -20.2665 -2.5013 0.9212
0.3867 -20.3681 -2.5013 0.9212
5.2436 -19.6854 -2.5013 0.9212
7.5752 -18.9110 -2.5013 0.9212
15.4873 -13.2344 -2.5013 0.9212
19.1706 -6.8917 -2.5013 0.9212
19.8608 -4.5339 -2.5013 0.9212
20.2622 -2.1101 -2.5013 0.9212
18.9514 2.6238 -2.3491 0.9258
17.7751 7.0772 -2.3491 0.9258
16.8314 9.1860 -2.3544 0.9256
7.9141 5.6530 -1.1942 0.9616
4.8529 5.6551 -0.9150 0.9704
2.0525 5.6724 -0.7407 0.9760
1.3084 5.6769 -0.7153 0.9768
0.6036 5.6813 -0.7015 0.9772
-0.7757 5.6897 -0.7051 0.9771
-2.2346 5.6467 -0.7456 0.9758
-3.0521 5.6201 -0.7853 0.9746
-5.1920 5.6994 -0.9466 0.9694
-6.6444 5.7258 -1.0770 0.9653
-8.5580 5.7376 -1.2651 0.9593
-10.9103 5.5412 -1.5025 0.9519
-8.3342 3.0353 -1.0891 0.9649
-19.0209 2.0609 -2.3491 0.9258
-20.1907 -2.7098 -2.5013 0.9212
-9.3168 -2.4195 -1.1819 0.9620
-15.0882 -13.6877 -2.5013 0.9212
-13.3308 -15.4045 -2.5013 0.9212
0.2172 -20.3706 -2.5013 0.9212
2.6678 -20.1963 -2.5013 0.9212
7.4175 -18.9734 -2.5013 0.9212
11.7372 -16.6507 -2.5013 0.9212
13.6563 -15.1167 -2.5013 0.9212
19.1126 -7.0510 -2.5013 0.9212
19.8224 -4.6990 -2.5013 0.9212
18.5378 4.7320 -2.3491 0.9258
17.8333 6.9291 -2.3491 0.9258
8.0543 5.6525 -1.2082 0.9611
3.8470 5.6613 -0.8404 0.9728
2.9229 5.6670 -0.7829 0.9746
2.1059 5.6720 -0.7429 0.9759
0.6514 5.6810 -0.7021 0.9772
-0.0370 5.6852 -0.6981 0.9773
-2.1814 5.6492 -0.7435 0.9759
-2.9917 5.6200 -0.7817 0.9747
-4.9538 5.5296 -0.9116 0.9705
-6.5329 5.7251 -1.0666 0.9656
-15.4691 5.7800 -2.0276 0.9356
-19.0030 2.2191 -2.3491 0.9258
-20.3716 -0.0901 -2.5013 0.9212
-20.2126 -2.5417 -2.5013 0.9212
-18.0024 -9.5354 -2.5013 0.9212
-15.2016 -13.5617 -2.5013 0.9212
-13.4586 -15.2930 -2.5013 0.9212
-11.5197 -16.8019 -2.5013 0.9212
-9.4001 -18.0409 -2.4978 0.9213
-4.8226 -19.7927 -2.5013 0.9212
-2.4050 -20.2293 -2.5013 0.9212
0.0477 -20.3717 -2.5013 0.9212
2.4997 -20.2178 -2.5013 0.9212
4.9152 -19.7699 -2.5013 0.9212
7.2594 -19.0344 -2.5013 0.9212
9.4979 -18.0222 -2.5013 0.9212
13.5300 -15.2298 -2.5013 0.9212
19.7826 -4.8638 -2.5013 0.9212
20.2243 -2.4470 -2.5013 0.9212
20.3718 0.0053 -2.5013 0.9212
17.8904 6.7804 -2.3491 0.9258
6.4990 5.7495 -1.0654 0.9656
5.0178 5.6541 -0.9282 0.9700
3.9160 5.6609 -0.8452 0.9726
2.9826 5.6667 -0.7863 0.9745
2.1597 5.6717 -0.7452 0.9758
0.6993 5.6807 -0.7028 0.9772
-0.6794 5.6892 -0.7035 0.9772
-1.3887 5.6864 -0.7187 0.9767
-2.1285 5.6516 -0.7415 0.9760
-2.9319 5.6198 -0.7783 0.9748
-10.5282 5.5695 -1.4624 0.9531
-15.0787 5.7776 -1.9827 0.9370
14.0563 4.7334 -2.3491 0.9417
12.5213 7.9581 -2.3498 0.9417
7.2947 5.9818 -1.4941 0.9625
3.2583 5.6650 -1.0351 0.9739
2.4059 5.6702 -0.9756 0.9754
1.6356 5.6749 -0.9354 0.9764
0.9162 5.6793 -0.9111 0.9770
0.2233 5.6836 -0.9009 0.9772
-0.4640 5.6878 -0.9039 0.9772
-3.0094 14.6898 -2.3750 0.9411
-7.6233 5.7318 -1.5106 0.9621
-9.7407 5.6295 -1.7819 0.9555
-14.2431 4.1372 -2.3491 0.9417
-15.7793 0.6529 -2.5013 0.9380
-10.0706 -2.0413 -1.6275 0.9592
-13.3637 -8.4157 -2.5013 0.9380
-12.2535 -9.9632 -2.5013 0.9380
-10.9650 -11.3658 -2.5013 0.9380
-7.9308 -13.6571 -2.5013 0.9380
-4.4368 -15.1567 -2.5013 0.9380
-2.5800 -15.5806 -2.5013 0.9380
4.9466 -14.9981 -2.5013 0.9380
8.3879 -13.3812 -2.5013 0.9380
9.9376 -12.2742 -2.5013 0.9380
12.5832 -9.5433 -2.5013 0.9380
13.6405 -7.9592 -2.5013 0.9380
14.4994 -6.2593 -2.5013 0.9380
15.5752 -2.6124 -2.5013 0.9380
15.7765 -0.7185 -2.5013 0.9380
15.5125 1.1681 -2.4639 0.9389
14.5484 2.8860 -2.3491 0.9417
14.0952 4.6163 -2.3491 0.9417
12.5849 7.8523 -2.3494 0.9417
6.1158 6.2867 -1.3891 0.9651
4.3101 5.6585 -1.1266 0.9716
2.4616 5.6698 -0.9790 0.9753
1.6868 5.6746 -0.9376 0.9763
0.2707 5.6833 -0.9012 0.9772
-1.8423 5.6651 -0.9435 0.9762
-2.6162 5.6287 -0.9831 0.9752
-4.4287 5.5167 -1.1205 0.9718
-9.6004 5.6555 -1.7648 0.9559
-13.5926 5.9350 -2.3491 0.9417
-14.6172 2.5143 -2.3491 0.9417
-14.3353 -6.6267 -2.5013 0.9380
-13.4333 -8.3042 -2.5013 0.9380
-9.6217 -12.5234 -2.5013 0.9380
-8.0441 -13.5906 -2.5013 0.9380
-4.5628 -15.1193 -2.5013 0.9380
-2.7096 -15.5586 -2.5013 0.9380
2.9762 -15.5098 -2.5013 0.9380
4.8216 -15.0388 -2.5013 0.9380
8.2762 -13.4505 -2.5013 0.9380
11.2511 -11.0827 -2.5013 0.9380
13.5738 -8.0724 -2.5013 0.9380
14.4469 -6.3797 -2.5013 0.9380
15.1098 -4.5942 -2.5013 0.9380
15.5529 -2.7420 -2.5013 0.9380
15.6162 1.0453 -2.4789 0.9386
12.6482 7.7463 -2.3491 0.9417
7.3188 5.8006 -1.4791 0.9629
4.3846 5.6580 -1.1337 0.9714
1.7382 5.6743 -0.9399 0.9763
1.0133 5.6787 -0.9136 0.9769
-2.5606 5.6314 -0.9798 0.9753
-3.4056 5.5868 -1.0363 0.9738
-4.3576 5.5217 -1.1141 0.9719
-5.7592 5.7204 -1.2857 0.9677
-14.1723 4.3737 -2.3491 0.9417
-8.6316 -2.7081 -1.4328 0.9640
-13.5019 -8.1921 -2.5013 0.9380
-12.4176 -9.7579 -2.5013 0.9380
-11.1527 -11.1817 -2.5013 0.9380
-9.7256 -12.4429 -2.5013 0.9380
-0.9482 -15.7643 -2.5013 0.9380
0.9564 -15.7638 -2.5013 0.9380
2.8470 -15.5341 -2.5013 0.9380
9.7320 -12.4379 -2.5013 0.9380
11.1585 -11.1759 -2.5013 0.9380
12.4227 -9.7514 -2.5013 0.9380
15.0710 -4.7199 -2.5013 0.9380
15.7623 -0.9810 -2.5013 0.9380
14.1700 4.3811 -2.3491 0.9417
13.5396 6.0550 -2.3491 0.9417
12.7123 7.6408 -2.3491 0.9417
4.4601 5.6576 -1.1410 0.9712
3.4485 5.6638 -1.0503 0.9735
2.5743 5.6692 -0.9861 0.9751
1.7899 5.6740 -0.9423 0.9762
1.0621 5.6784 -0.9150 0.9769
0.3655 5.6827 -0.9019 0.9772
-0.3213 5.6870 -0.9022 0.9772
-1.0186 5.6912 -0.9157 0.9769
-1.7401 5.6699 -0.9394 0.9763
-2.5055 5.6339 -0.9766 0.9753
-3.3446 5.5909 -1.0319 0.9740
-4.2874 5.5267 -1.1078 0.9721
-5.6635 5.7198 -1.2749 0.9679
-7.2367 5.7295 -1.4619 0.9633
-15.7315 1.0448 -2.4971 0.9381
-11.2275 -1.9854 -1.8059 0.9549
-8.2692 -13.4548 -2.5013 0.9380
-6.5894 -14.3524 -2.5013 0.9380
-4.8138 -15.0413 -2.5013 0.9380
-2.9681 -15.5114 -2.5013 0.9380
0.8252 -15.7712 -2.5013 0.9380
4.5706 -15.1169 -2.5013 0.9380
6.3571 -14.4568 -2.5013 0.9380
9.6282 -12.5184 -2.5013 0.9380
11.0651 -11.2684 -2.5013 0.9380
12.3411 -9.8545 -2.5013 0.9380
14.3387 -6.6193 -2.5013 0.9380
15.0312 -4.8451 -2.5013 0.9380
15.7536 -1.1121 -2.5013 0.9380
15.7131 0.7893 -2.4919 0.9383
14.2060 4.2630 -2.3491 0.9417
13.5895 5.9421 -2.3491 0.9417
7.5468 5.7794 -1.5055 0.9622
6.2444 6.1063 -1.3833 0.9652
4.5365 5.6571 -1.1485 0.9711
3.5132 5.6634 -1.0556 0.9734
2.6252 5.6558 -0.9876 0.9751
1.8419 5.6737 -0.9448 0.9761
-0.2738 5.6867 -0.9017 0.9772
-0.9698 5.6909 -0.9143 0.9769
-1.6893 5.6723 -0.9374 0.9763
-2.4506 5.6365 -0.9735 0.9754
-3.2841 5.5948 -1.0275 0.9741
-4.2179 5.5315 -1.1017 0.9722
-5.5694 5.7192 -1.2644 0.9682
-5.9333 2.7691 -1.0371 0.9738
-14.5499 2.8784 -2.3491 0.9417
-15.7088 1.1747 -2.4950 0.9382
-8.8834 -3.8403 -1.5328 0.9616
-12.5783 -9.5498 -2.5013 0.9380
-11.3372 -10.9946 -2.5013 0.9380
-8.3809 -13.3855 -2.5013 0.9380
-4.9388 -15.0007 -2.5013 0.9380
-1.2104 -15.7463 -2.5013 0.9380
0.6939 -15.7776 -2.5013 0.9380
2.5881 -15.5793 -2.5013 0.9380
7.9379 -13.6529 -2.5013 0.9380
13.3681 -8.4087 -2.5013 0.9380
14.2831 -6.7383 -2.5013 0.9380
14.9904 -4.9700 -2.5013 0.9380
15.4797 -3.1294 -2.5013 0.9380
15.7438 -1.2432 -2.5013 0.9380
14.2410 4.1446 -2.3491 0.9417
13.6385 5.8288 -2.3491 0.9417
12.8377 7.4282 -2.3491 0.9417
6.2871 6.0465 -1.3816 0.9653
3.5786 5.6630 -1.0610 0.9732
2.6827 5.6558 -0.9915 0.9750
1.8941 5.6733 -0.9473 0.9761
0.4606 5.6821 -0.9029 0.9772
-1.6387 5.6746 -0.9355 0.9764
-2.3961 5.6391 -0.9704 0.9755
-3.2240 5.5988 -1.0233 0.9742
-5.4769 5.7186 -1.2541 0.9684
-6.9925 5.7279 -1.4316 0.9641
-12.5267 7.9524 -2.3501 0.9417
-14.0587 4.7262 -2.3491 0.9417
-14.5254 2.9994 -2.3491 0.9417
-15.7816 -0.5954 -2.5013 0.9380
-15.5951 -2.4908 -2.5013 0.9380
-13.7022 -7.8525 -2.5013 0.9380
-11.4283 -10.8998 -2.5013 0.9380
-8.4920 -13.3153 -2.5013 0.9380
-6.8274 -14.2408 -2.5013 0.9380
-3.2260 -15.4598 -2.5013 0.9380
-1.3414 -15.7357 -2.5013 0.9380
4.3184 -15.1909 -2.5013 0.9380
7.8240 -13.7185 -2.5013 0.9380
9.4185 -12.6770 -2.5013 0.9380
10.8760 -11.4510 -2.5013 0.9380
12.1754 -10.0585 -2.5013 0.9380
13.2976 -8.5197 -2.5013 0.9380
14.2265 -6.8570 -2.5013 0.9380
14.9485 -5.0946 -2.5013 0.9380
15.4531 -3.2581 -2.5013 0.9380
14.6558 2.2783 -2.3491 0.9417
14.2750 4.0260 -2.3491 0.9417
13.6866 5.7150 -2.3491 0.9417
12.8990 7.3211 -2.3491 0.9417
7.8106 5.7778 -1.5388 0.9614
6.3297 5.9868 -1.3799 0.9653
3.6446 5.6626 -1.0666 0.9731
6.5259 13.4680 -2.3704 0.9412
1.9466 5.6730 -0.9499 0.9760
-0.1790 5.6861 -0.9010 0.9772
-0.8725 5.6903 -0.9118 0.9770
-1.5883 5.6770 -0.9337 0.9764
-2.3420 5.6416 -0.9675 0.9756
-4.0811 5.5410 -1.0900 0.9725
-8.8768 5.7395 -1.6742 0.9581
-14.0189 4.8429 -2.3491 0.9417
-14.4999 3.1202 -2.3491 0.9417
-14.8701 1.3612 -2.3650 0.9413
-15.6153 -2.3610 -2.5013 0.9380
-8.6968 -2.4137 -1.4295 0.9641
-8.6188 -3.5569 -1.4768 0.9629
-13.7671 -7.7382 -2.5013 0.9380
-8.6025 -13.2442 -2.5013 0.9380
-6.9456 -14.1835 -2.5013 0.9380
-5.1878 -14.9164 -2.5013 0.9380
-3.3544 -15.4324 -2.5013 0.9380
0.4312 -15.7869 -2.5013 0.9380
4.1918 -15.2263 -2.5013 0.9380
7.7095 -13.7832 -2.5013 0.9380
9.3126 -12.7549 -2.5013 0.9380
10.7804 -11.5411 -2.5013 0.9380
12.0912 -10.1595 -2.5013 0.9380
13.2263 -8.6301 -2.5013 0.9380
14.1690 -6.9751 -2.5013 0.9380
15.4254 -3.3866 -2.5013 0.9380
13.7336 5.6010 -2.3491 0.9417
12.0152 8.7343 -2.3527 0.9416
6.3721 5.9273 -1.3784 0.9654
4.7722 5.6556 -1.1720 0.9705
3.7114 5.6622 -1.0723 0.9730
2.8013 5.6606 -1.0003 0.9747
1.9994 5.6727 -0.9526 0.9759
0.5558 5.6816 -0.9042 0.9771
-0.1316 5.6858 -0.9008 0.9772
-0.8240 5.6900 -0.9106 0.9770
-2.2882 5.6442 -0.9646 0.9756
-3.1050 5.6058 -1.0150 0.9744
-5.2963 5.7175 -1.2344 0.9689
-6.7581 5.7265 -1.4030 0.9648
-8.7153 5.7385 -1.6527 0.9586
-14.7583 1.4749 -2.3491 0.9417
-15.6344 -2.2309 -2.5013 0.9380
-8.6083 -3.4690 -1.4700 0.9631
-13.8310 -7.6234 -2.5013 0.9380
-12.8128 -9.2329 -2.5013 0.9380
-10.2347 -12.0276 -2.5013 0.9380
-7.0634 -14.1252 -2.5013 0.9380
-5.3118 -14.8727 -2.5013 0.9380
-1.6031 -15.7112 -2.5013 0.9380
0.2998 -15.7900 -2.5013 0.9380
9.2062 -12.8319 -2.5013 0.9380
10.6839 -11.6304 -2.5013 0.9380
12.0063 -10.2597 -2.5013 0.9380
13.1540 -8.7399 -2.5013 0.9380
14.8616 -5.3427 -2.5013 0.9380
15.3967 -3.5148 -2.5013 0.9380
15.7079 -1.6358 -2.5013 0.9380
14.3400 3.7878 -2.3491 0.9417
6.4145 5.8679 -1.3769 0.9654
3.7788 5.6618 -1.0781 0.9728
2.8499 5.6402 -1.0009 0.9747
1.3084 5.6769 -0.9227 0.9767
0.6036 5.6813 -0.9049 0.9771
-2.2346 5.6467 -0.9618 0.9757
-3.0458 5.6086 -1.0108 0.9745
-3.9471 5.5502 -1.0787 0.9728
-8.5580 5.7376 -1.6319 0.9591
-10.7349 5.4522 -1.9070 0.9524
-14.4460 3.3611 -2.3491 0.9417
-14.7456 1.5977 -2.3491 0.9417
-12.8891 -9.1260 -2.5013 0.9380
-11.6969 -10.6111 -2.5013 0.9380
-1.7338 -15.6973 -2.5013 0.9380
0.1684 -15.7919 -2.5013 0.9380
5.7503 -14.7087 -2.5013 0.9380
7.4791 -13.9096 -2.5013 0.9380
9.0991 -12.9081 -2.5013 0.9380
10.5868 -11.7189 -2.5013 0.9380
11.9205 -10.3593 -2.5013 0.9380
14.0509 -7.2100 -2.5013 0.9380
15.3669 -3.6428 -2.5013 0.9380
15.7922 0.1355 -2.5013 0.9380
14.7081 1.9118 -2.3491 0.9417
13.8250 5.3716 -2.3491 0.9417
6.4568 5.8086 -1.3756 0.9654
4.9347 5.6546 -1.1887 0.9701
3.8470 5.6613 -1.0841 0.9727
2.9229 5.6670 -1.0099 0.9745
2.1059 5.6720 -0.9583 0.9758
-2.9871 5.6113 -1.0068 0.9746
-3.8811 5.5548 -1.0733 0.9729
-6.5329 5.7251 -1.3758 0.9654
-8.4045 5.7366 -1.6117 0.9596
-10.5646 5.4767 -1.8847 0.9530
-13.8936 5.1914 -2.3491 0.9417
-14.7317 1.7203 -2.3491 0.9417
-15.7927 -0.0699 -2.5013 0.9380
-15.6694 -1.9704 -2.5013 0.9380
-8.9304 -13.0254 -2.5013 0.9380
-7.2975 -14.0056 -2.5013 0.9380
-3.7386 -15.3439 -2.5013 0.9380
7.3631 -13.9713 -2.5013 0.9380
13.0067 -8.9576 -2.5013 0.9380
13.9904 -7.3267 -2.5013 0.9380
15.6785 -1.8970 -2.5013 0.9380
14.4011 3.5486 -2.3491 0.9417
13.8692 5.2564 -2.3491 0.9417
13.1355 6.8877 -2.3491 0.9417
12.2236 8.4276 -2.3516 0.9416
6.4990 5.7495 -1.3743 0.9655
3.9160 5.6609 -1.0902 0.9725
2.9826 5.6667 -1.0142 0.9744
2.1597 5.6717 -0.9612 0.9757
0.0103 5.6849 -0.9004 0.9772
-0.6794 5.6892 -0.9075 0.9771
-2.1285 5.6516 -0.9565 0.9758
-2.9289 5.6141 -1.0029 0.9747
-8.2548 5.7357 -1.5921 0.9601
-13.8500 5.3068 -2.3491 0.9417
11.4533 3.8569 -2.3491 0.9519
10.9057 5.2075 -2.3491 0.9519
6.0726 6.3472 -1.7075 0.9648
4.2365 5.6589 -1.3741 0.9716
3.2582 5.6650 -1.2703 0.9737
0.9162 5.6793 -1.1182 0.9768
0.2233 5.6836 -1.1056 0.9771
-2.4415 11.9173 -2.3646 0.9516
-2.6519 5.5836 -1.2015 0.9751
-3.4959 5.5258 -1.2710 0.9737
-4.4430 5.4412 -1.3655 0.9718
-5.9554 5.7216 -1.6053 0.9669
-9.7407 5.6295 -2.1869 0.9552
-11.1154 4.7436 -2.3491 0.9519
-7.9057 -2.6256 -1.6192 0.9666
-7.7999 -3.6847 -1.6768 0.9655
-8.9345 -9.2610 -2.5013 0.9489
0.9929 -12.8299 -2.5013 0.9489
2.5301 -12.6171 -2.5013 0.9489
6.8346 -10.9032 -2.5013 0.9489
12.6910 -2.1287 -2.5013 0.9489
11.8543 2.3515 -2.3491 0.9519
6.1158 6.2867 -1.7049 0.9649
3.3211 5.6646 -1.2764 0.9736
2.4616 5.6698 -1.2015 0.9751
1.6868 5.6746 -1.1507 0.9762
0.9647 5.6790 -1.1197 0.9768
-1.1142 5.6788 -1.1249 0.9767
-2.5969 5.5872 -1.1976 0.9752
-3.4345 5.5301 -1.2654 0.9738
-4.3831 5.4600 -1.3610 0.9719
-5.8565 5.7210 -1.5914 0.9672
-7.4916 5.7310 -1.8335 0.9623
-11.5771 3.4676 -2.3491 0.9519
-10.2203 -1.9832 -2.0237 0.9585
-7.9230 -2.5584 -1.6184 0.9666
-7.7906 -3.6013 -1.6683 0.9656
-10.9457 -6.7664 -2.5013 0.9489
-9.0113 -9.1864 -2.5013 0.9489
-7.8399 -10.2043 -2.5013 0.9489
-5.1738 -11.7823 -2.5013 0.9489
-3.7179 -12.3195 -2.5013 0.9489
0.8861 -12.8377 -2.5013 0.9489
2.4250 -12.6377 -2.5013 0.9489
5.3752 -11.6918 -2.5013 0.9489
6.7436 -10.9597 -2.5013 0.9489
10.1880 -7.8611 -2.5013 0.9489
11.7716 -5.1983 -2.5013 0.9489
12.6728 -2.2342 -2.5013 0.9489
12.8496 -0.6924 -2.5013 0.9489
12.7792 0.8554 -2.4896 0.9491
10.9909 5.0253 -2.3491 0.9519
4.3846 5.6580 -1.3914 0.9713
3.3845 5.6642 -1.2826 0.9735
1.0133 5.6787 -1.1213 0.9768
-0.3688 5.6872 -1.1078 0.9770
-9.4628 5.6810 -2.1454 0.9560
-11.0349 4.9280 -2.3491 0.9519
-11.5478 3.5638 -2.3491 0.9519
-11.8929 2.1478 -2.3491 0.9519
-10.7400 -1.9915 -2.1232 0.9565
-7.9246 -10.1387 -2.5013 0.9489
-5.2717 -11.7389 -2.5013 0.9489
-2.3133 -12.6586 -2.5013 0.9489
2.3198 -12.6574 -2.5013 0.9489
3.8266 -12.2861 -2.5013 0.9489
6.6522 -11.0155 -2.5013 0.9489
11.7279 -5.2961 -2.5013 0.9489
12.2801 -3.8458 -2.5013 0.9489
12.6538 -2.3396 -2.5013 0.9489
12.8434 -0.7993 -2.5013 0.9489
12.8113 0.7505 -2.4945 0.9490
11.0323 4.9337 -2.3491 0.9519
10.3582 6.2258 -2.3491 0.9519
7.4191 5.7802 -1.8281 0.9624
6.2017 6.1663 -1.7000 0.9650
3.4485 5.6638 -1.2889 0.9733
2.5743 5.6692 -1.2103 0.9749
1.7899 5.6740 -1.1565 0.9760
1.0621 5.6784 -1.1229 0.9767
-1.0186 5.6912 -1.1238 0.9767
-3.3134 5.5386 -1.2545 0.9740
-9.3278 5.7061 -2.1255 0.9564
-10.9935 5.0196 -2.3491 0.9519
-11.5178 3.6598 -2.3491 0.9519
-11.8746 2.2466 -2.3491 0.9519
-12.8400 0.8528 -2.5013 0.9489
-7.9569 -2.4239 -1.6168 0.9667
-7.7966 -3.4478 -1.6571 0.9659
-11.0568 -6.5833 -2.5013 0.9489
-10.1839 -7.8664 -2.5013 0.9489
-9.1629 -9.0351 -2.5013 0.9489
-5.3692 -11.6946 -2.5013 0.9489
-0.8795 -12.8382 -2.5013 0.9489
0.6724 -12.8507 -2.5013 0.9489
2.2144 -12.6763 -2.5013 0.9489
3.7242 -12.3175 -2.5013 0.9489
6.5603 -11.0704 -2.5013 0.9489
7.8452 -10.2002 -2.5013 0.9489
9.0160 -9.1817 -2.5013 0.9489
11.6834 -5.3935 -2.5013 0.9489
12.6339 -2.4448 -2.5013 0.9489
12.8363 -0.9062 -2.5013 0.9489
12.8427 0.6451 -2.4995 0.9490
11.9093 2.0549 -2.3491 0.9519
11.0730 4.8417 -2.3491 0.9519
7.5468 5.7794 -1.8477 0.9620
6.2444 6.1063 -1.6977 0.9650
4.5365 5.6571 -1.4095 0.9709
3.5132 5.6634 -1.2955 0.9732
2.6252 5.6558 -1.2120 0.9749
1.8419 5.6737 -1.1595 0.9760
0.4130 5.6824 -1.1075 0.9771
-0.9698 5.6909 -1.1222 0.9768
-1.6810 5.6445 -1.1448 0.9763
-3.2535 5.5428 -1.2493 0.9742
-5.5694 5.7192 -1.5517 0.9680
-7.1133 5.7287 -1.7753 0.9635
-11.4869 3.7555 -2.3491 0.9519
-11.8555 2.3454 -2.3491 0.9519
-12.8324 0.9596 -2.5013 0.9489
-12.8546 -0.5921 -2.5013 0.9489
-7.9750 -2.3571 -1.6165 0.9667
-7.7992 -3.3717 -1.6516 0.9660
-11.1112 -6.4910 -2.5013 0.9489
-10.2490 -7.7814 -2.5013 0.9489
-8.0922 -10.0054 -2.5013 0.9489
-6.8289 -10.9068 -2.5013 0.9489
-5.4663 -11.6495 -2.5013 0.9489
2.1088 -12.6943 -2.5013 0.9489
3.6216 -12.3481 -2.5013 0.9489
6.4679 -11.1247 -2.5013 0.9489
7.7600 -10.2652 -2.5013 0.9489
9.9886 -8.1130 -2.5013 0.9489
10.8925 -6.8516 -2.5013 0.9489
11.6381 -5.4905 -2.5013 0.9489
12.2144 -4.0497 -2.5013 0.9489
12.6131 -2.5499 -2.5013 0.9489
11.6038 3.3771 -2.3491 0.9519
11.1129 4.7494 -2.3491 0.9519
10.4604 6.0526 -2.3491 0.9519
7.6772 5.7786 -1.8678 0.9616
6.2871 6.0465 -1.6955 0.9651
4.6140 5.6566 -1.4189 0.9707
2.6827 5.6558 -1.2168 0.9748
-0.9210 5.6906 -1.1205 0.9768
-1.6309 5.6475 -1.1426 0.9763
-4.1080 5.4814 -1.3315 0.9725
-6.9925 5.7279 -1.7570 0.9638
-10.2029 6.4772 -2.3491 0.9519
-5.8801 2.8041 -1.2663 0.9738
-11.4553 3.8510 -2.3491 0.9519
-12.7072 -2.0296 -2.5013 0.9489
-7.9939 -2.2904 -1.6164 0.9667
-7.8016 -3.2959 -1.6463 0.9661
-10.3134 -7.6958 -2.5013 0.9489
-9.3120 -8.8814 -2.5013 0.9489
-8.1752 -9.9377 -2.5013 0.9489
-6.9195 -10.8495 -2.5013 0.9489
-1.0930 -12.8217 -2.5013 0.9489
0.4584 -12.8601 -2.5013 0.9489
3.5187 -12.3778 -2.5013 0.9489
4.9832 -11.8642 -2.5013 0.9489
6.3751 -11.1781 -2.5013 0.9489
7.6743 -10.3294 -2.5013 0.9489
9.9207 -8.1958 -2.5013 0.9489
11.5920 -5.5872 -2.5013 0.9489
12.5914 -2.6548 -2.5013 0.9489
12.8194 -1.1197 -2.5013 0.9489
11.9418 1.8564 -2.3491 0.9519
11.6315 3.2804 -2.3491 0.9519
4.6925 5.6561 -1.4286 0.9705
5.2962 10.9302 -2.3609 0.9517
1.9466 5.6730 -1.1658 0.9759
1.2094 5.6775 -1.1284 0.9766
0.5082 5.6818 -1.1088 0.9770
-0.1790 5.6861 -1.1058 0.9771
-1.5809 5.6504 -1.1405 0.9764
-4.9678 5.2742 -1.4084 0.9709
-8.8768 5.7395 -2.0547 0.9578
-8.2736 2.8582 -1.7015 0.9650
-12.8036 1.1720 -2.4992 0.9490
-12.7236 -1.9237 -2.5013 0.9489
-8.0125 -2.2238 -1.6164 0.9667
-11.2177 -6.3052 -2.5013 0.9489
-10.3771 -7.6097 -2.5013 0.9489
-5.6594 -11.5569 -2.5013 0.9489
-2.7333 -12.5746 -2.5013 0.9489
-1.1997 -12.8122 -2.5013 0.9489
3.4156 -12.4067 -2.5013 0.9489
4.8843 -11.9053 -2.5013 0.9489
6.2819 -11.2308 -2.5013 0.9489
7.5881 -10.3929 -2.5013 0.9489
8.7840 -9.4039 -2.5013 0.9489
10.7770 -7.0319 -2.5013 0.9489
12.1453 -4.2524 -2.5013 0.9489
12.8097 -1.2263 -2.5013 0.9489
12.8642 0.3246 -2.5013 0.9489
11.1904 4.5638 -2.3491 0.9519
10.5596 5.8777 -2.3491 0.9519
6.3721 5.9273 -1.6916 0.9652
4.7722 5.6556 -1.4384 0.9703
3.7114 5.6622 -1.3160 0.9728
1.9994 5.6727 -1.1691 0.9758
0.5558 5.6816 -1.1097 0.9770
-0.8240 5.6900 -1.1176 0.9768
-4.9044 5.2945 -1.4028 0.9710
-6.7581 5.7265 -1.7218 0.9645
-5.8867 2.9285 -1.2780 0.9736
-8.2431 2.9247 -1.7002 0.9650
-12.8654 -0.2711 -2.5013 0.9489
-12.7392 -1.8178 -2.5013 0.9489
-10.4400 -7.5231 -2.5013 0.9489
-9.4585 -8.7252 -2.5013 0.9489
-7.0990 -10.7329 -2.5013 0.9489
-4.3281 -12.1186 -2.5013 0.9489
-2.8378 -12.5514 -2.5013 0.9489
0.2443 -12.8659 -2.5013 0.9489
1.7913 -12.7430 -2.5013 0.9489
3.3122 -12.4347 -2.5013 0.9489
6.1882 -11.2827 -2.5013 0.9489
9.7829 -8.3598 -2.5013 0.9489
10.7181 -7.1214 -2.5013 0.9489
12.1095 -4.3533 -2.5013 0.9489
12.5455 -2.8639 -2.5013 0.9489
12.7990 -1.3329 -2.5013 0.9489
12.8664 0.2175 -2.5013 0.9489
11.9711 1.6574 -2.3491 0.9519
10.6082 5.7896 -2.3491 0.9519
6.4145 5.8679 -1.6899 0.9652
4.8529 5.6551 -1.4485 0.9701
2.0525 5.6724 -1.1726 0.9757
1.3084 5.6769 -1.1324 0.9765
0.6036 5.6813 -1.1105 0.9770
-0.0843 5.6855 -1.1053 0.9771
-0.7757 5.6897 -1.1162 0.9769
-1.4815 5.6562 -1.1365 0.9765
-3.0189 5.5590 -1.2296 0.9746
-3.9086 5.4961 -1.3109 0.9729
-4.8416 5.3147 -1.3975 0.9711
-6.6444 5.7258 -1.7049 0.9649
-10.7752 5.4726 -2.3491 0.9519
-11.7708 2.7387 -2.3491 0.9519
-12.7642 1.3830 -2.4956 0.9490
-8.0950 -2.1022 -1.6257 0.9665
-7.8192 -3.0756 -1.6333 0.9663
-10.5023 -7.4360 -2.5013 0.9489
-9.5308 -8.6461 -2.5013 0.9489
-8.4207 -9.7306 -2.5013 0.9489
-4.4288 -12.0821 -2.5013 0.9489
-1.4128 -12.7905 -2.5013 0.9489
7.4141 -10.5178 -2.5013 0.9489
8.6263 -9.5487 -2.5013 0.9489
9.7130 -8.4409 -2.5013 0.9489
10.6585 -7.2103 -2.5013 0.9489
12.0729 -4.4539 -2.5013 0.9489
12.5212 -2.9683 -2.5013 0.9489
12.7875 -1.4394 -2.5013 0.9489
12.8678 0.1104 -2.5013 0.9489
9.8922 6.9424 -2.3491 0.9519
6.4568 5.8086 -1.6882 0.9652
4.9347 5.6546 -1.4588 0.9699
3.8470 5.6613 -1.3305 0.9725
2.9229 5.6670 -1.2394 0.9744
-0.0370 5.6852 -1.1051 0.9771
-1.4322 5.6597 -1.1348 0.9765
-2.1682 5.6148 -1.1699 0.9758
-2.9613 5.5629 -1.2250 0.9746
-3.8434 5.5008 -1.3044 0.9730
-6.5329 5.7251 -1.6885 0.9652
-10.7292 5.5621 -2.3491 0.9519
-11.7477 2.8365 -2.3491 0.9519
-12.8681 -0.0569 -2.5013 0.9489
-8.1770 -2.0510 -1.6387 0.9662
-7.8246 -3.0028 -1.6291 0.9664
-10.5638 -7.3483 -2.5013 0.9489
-8.5014 -9.6601 -2.5013 0.9489
-7.2767 -10.6133 -2.5013 0.9489
-4.5292 -12.0448 -2.5013 0.9489
-3.0463 -12.5025 -2.5013 0.9489
1.5790 -12.7710 -2.5013 0.9489
4.5856 -12.0235 -2.5013 0.9489
5.9996 -11.3841 -2.5013 0.9489
7.3263 -10.5791 -2.5013 0.9489
8.5465 -9.6202 -2.5013 0.9489
9.6424 -8.5215 -2.5013 0.9489
11.3997 -5.9699 -2.5013 0.9489
12.7751 -1.5457 -2.5013 0.9489
12.8683 0.0033 -2.5013 0.9489
12.3226 1.4975 -2.4129 0.9507
11.7342 2.8915 -2.3491 0.9519
10.7031 5.6122 -2.3491 0.9519
6.4990 5.7495 -1.6867 0.9653
2.9826 5.6667 -1.2447 0.9742
2.1597 5.6717 -1.1797 0.9756
0.0103 5.6849 -1.1050 0.9771
-2.1159 5.6180 -1.1669 0.9758
-2.9042 5.5668 -1.2205 0.9747
-4.7171 5.3544 -1.3871 0.9713
-6.4234 5.7244 -1.6725 0.9655
-8.2548 5.7357 -1.9539 0.9599
-10.6826 5.6512 -2.3491 0.9519
-11.2852 4.3241 -2.3491 0.9519
9.1821 4.3845 -2.3491 0.9591
8.5875 5.4580 -2.3491 0.9591
4.2365 5.6589 -1.6320 0.9714
2.4059 5.6702 -1.4220 0.9750
1.6356 5.6749 -1.3635 0.9760
0.2233 5.6836 -1.3132 0.9769
-1.8674 5.5837 -1.3593 0.9761
-2.6281 5.5334 -1.4143 0.9752
-3.4627 5.4733 -1.4952 0.9738
-4.3508 5.3283 -1.5881 0.9722
-7.6233 5.7318 -2.2020 0.9616
-8.8098 5.0915 -2.3491 0.9591
-9.7713 2.8383 -2.3491 0.9591
-10.0420 1.6414 -2.3491 0.9591
-10.8252 0.4479 -2.5013 0.9565
-10.8004 -0.8585 -2.5013 0.9565
-7.4240 -3.5071 -1.8956 0.9669
-8.4064 -6.8351 -2.5013 0.9565
-7.5224 -7.7973 -2.5013 0.9565
-4.2734 -9.9561 -2.5013 0.9565
-3.0438 -10.3981 -2.5013 0.9565
-0.4704 -10.8243 -2.5013 0.9565
2.1303 -10.6230 -2.5013 0.9565
4.6075 -9.8060 -2.5013 0.9565
7.7817 -7.5386 -2.5013 0.9565
8.6326 -6.5471 -2.5013 0.9565
9.3579 -5.4603 -2.5013 0.9565
9.9472 -4.2941 -2.5013 0.9565
10.3918 -3.0655 -2.5013 0.9565
10.6852 -1.7922 -2.5013 0.9565
10.8233 -0.4929 -2.5013 0.9565
10.7648 0.8106 -2.4923 0.9567
9.9807 1.9799 -2.3491 0.9591
9.6698 3.1670 -2.3491 0.9591
9.2183 4.3079 -2.3491 0.9591
7.2940 5.8804 -2.1631 0.9623
4.3101 5.6585 -1.6422 0.9712
3.3211 5.6646 -1.5160 0.9734
1.6868 5.6746 -1.3667 0.9760
0.2707 5.6833 -1.3136 0.9769
-1.1142 5.6788 -1.3360 0.9765
-3.4020 5.4778 -1.4887 0.9739
-5.8565 5.7210 -1.8901 0.9669
-8.7671 5.1646 -2.3491 0.9591
-9.3251 4.0717 -2.3491 0.9591
-9.7474 2.9195 -2.3491 0.9591
-10.0280 1.7249 -2.3491 0.9591
-10.8211 0.5380 -2.5013 0.9565
-10.8072 -0.7686 -2.5013 0.9565
-10.6361 -2.0639 -2.5013 0.9565
-7.4023 -3.4218 -1.8827 0.9671
-8.4630 -6.7649 -2.5013 0.9565
-7.5871 -7.7345 -2.5013 0.9565
-5.5186 -9.3237 -2.5013 0.9565
-0.5605 -10.8200 -2.5013 0.9565
2.0418 -10.6404 -2.5013 0.9565
4.5257 -9.8440 -2.5013 0.9565
6.7473 -8.4770 -2.5013 0.9565
7.7187 -7.6031 -2.5013 0.9565
9.9111 -4.3767 -2.5013 0.9565
10.3659 -3.1518 -2.5013 0.9565
10.6699 -1.8811 -2.5013 0.9565
9.9969 1.8968 -2.3491 0.9591
9.6959 3.0864 -2.3491 0.9591
7.3188 5.8006 -2.1560 0.9624
