ply
format ascii 1.0
element vertex 1571
property float32 x
property float32 y
property float32 z
property float32 I
end_header
51.5020 -36.2606 7.7337 0.7758
51.5522 -27.6833 7.1847 0.7899
56.1100 -7.3851 6.9489 0.7961
56.0165 -0.5724 6.8783 0.7979
52.2478 12.2927 6.5904 0.8055
46.5015 17.0651 6.0820 0.8190
6.5190 5.6449 1.0588 0.9658
2.2294 5.6713 0.7482 0.9757
1.4729 5.6759 0.7200 0.9766
0.7615 5.6803 0.7037 0.9772
0.0717 5.6845 0.6980 0.9773
-0.6170 5.6888 0.7026 0.9772
-1.3251 5.6931 0.7177 0.9767
-2.0755 5.6977 0.7446 0.9759
-3.8273 5.7085 0.8439 0.9727
-6.2824 5.7236 1.0435 0.9663
-5.1383 2.7911 0.7180 0.9767
-18.8803 -34.5608 4.8355 0.8532
-14.6105 -36.6498 4.8444 0.8530
-12.3005 -88.5324 10.9748 0.6975
18.8217 -82.6593 10.4091 0.7106
16.2108 -32.2979 4.4372 0.8645
49.2971 -45.3464 8.2243 0.7634
51.4974 -37.0009 7.7860 0.7745
51.5483 -28.3209 7.2217 0.7890
56.1313 -7.9359 6.9606 0.7958
56.0133 -1.1093 6.8789 0.7979
51.9942 11.7083 6.5439 0.8067
26.8051 17.6935 3.9436 0.8786
6.6458 5.6441 1.0706 0.9655
5.2249 5.6529 0.9452 0.9695
4.0872 5.6599 0.8572 0.9723
3.1305 5.6657 0.7948 0.9743
2.2923 5.6709 0.7510 0.9757
1.5311 5.6756 0.7218 0.9766
0.8169 5.6800 0.7046 0.9771
-0.5618 5.6884 0.7018 0.9772
-3.7481 5.7080 0.8384 0.9729
-4.8298 5.7146 0.9187 0.9703
-7.8997 5.7335 1.1985 0.9614
-5.1146 2.8420 0.7184 0.9767
-88.7840 24.1793 11.2983 0.6902
-32.2144 -34.5194 5.7974 0.8267
-25.2115 -34.5621 5.2528 0.8416
-19.3112 -34.5582 4.8608 0.8525
-15.0183 -36.6473 4.8629 0.8525
-13.1512 -88.4299 10.9772 0.6975
19.7629 -90.8042 11.4104 0.6876
15.4335 -44.3416 5.7648 0.8276
27.9405 -33.3828 5.3451 0.8391
48.3522 -45.3405 8.1388 0.7656
51.4928 -37.7510 7.8396 0.7731
53.3587 -22.0162 7.0874 0.7925
55.9247 -15.5185 7.1261 0.7914
52.8057 4.8324 6.5108 0.8076
48.1606 16.6336 6.2561 0.8144
5.3257 5.6522 0.9535 0.9692
4.1700 5.6593 0.8631 0.9721
2.3556 5.6705 0.7539 0.9756
0.8725 5.6796 0.7055 0.9771
-0.5033 5.6494 0.6964 0.9774
-6.0439 5.7221 1.0219 0.9670
-7.7412 5.7325 1.1827 0.9619
-5.1356 2.9185 0.7253 0.9765
50.0096 -22.1004 4.7835 0.8029
55.9227 -17.0218 5.1142 0.7908
56.1014 -3.0425 4.9154 0.7980
56.0502 3.7310 4.9146 0.7981
55.6328 10.5328 4.9537 0.7966
51.8235 16.4726 4.7575 0.8038
27.3968 16.7614 2.8099 0.8790
3.3781 5.6463 0.5757 0.9739
2.5217 5.6695 0.5429 0.9754
-0.3639 5.6719 0.4972 0.9774
-1.0634 5.6915 0.5066 0.9770
-4.4680 5.6710 0.6316 0.9714
-5.7496 5.7203 0.7096 0.9680
-7.3497 5.7301 0.8154 0.9633
-9.5481 5.7436 0.9748 0.9562
-12.8759 5.7641 1.2342 0.9449
-68.1846 -68.2055 8.4376 0.6789
-27.0432 -34.5159 3.8362 0.8386
-8.6377 -19.1716 1.8397 0.9190
-10.2787 -55.8468 4.9680 0.7961
16.5244 -90.8478 8.0786 0.6902
14.5707 -47.0081 4.3057 0.8207
19.0279 -42.4701 4.0715 0.8296
44.9807 -45.1830 5.5779 0.7741
51.9236 -40.8833 5.7819 0.7669
51.5298 -31.3350 5.2764 0.7849
51.8202 15.9262 4.7430 0.8044
27.9900 16.7578 2.8541 0.8772
7.2658 5.6403 0.8047 0.9637
5.7026 5.6499 0.7023 0.9683
26.3616 43.1181 4.4215 0.8163
2.5869 5.6691 0.5452 0.9753
1.8016 5.6739 0.5208 0.9764
1.0733 5.6784 0.5056 0.9771
-1.7356 5.6956 0.5209 0.9764
-2.5213 5.7005 0.5453 0.9753
-3.3976 5.7059 0.5810 0.9737
-5.6397 5.7196 0.7027 0.9683
-9.3421 5.7424 0.9594 0.9569
-12.0161 -37.2240 3.4221 0.8547
55.9155 -18.1980 5.1445 0.7897
56.0947 -4.1220 4.9209 0.7978
52.3502 2.4778 4.5852 0.8102
56.1786 9.5245 4.9851 0.7955
18.7610 5.5697 1.7122 0.9244
28.6023 16.7540 2.9001 0.8754
5.8123 5.6492 0.7091 0.9680
4.5650 5.6569 0.6360 0.9712
-0.2555 5.6865 0.4980 0.9774
-2.4560 5.7001 0.5430 0.9754
-3.3236 5.7054 0.5777 0.9738
-17.5129 5.7926 1.6138 0.9286
-29.7800 -36.5436 4.1243 0.8276
-17.3570 -36.6330 3.5465 0.8498
-12.2248 -36.6644 3.3813 0.8563
-10.3211 -50.6073 4.5187 0.8127
14.9829 -92.4003 8.1896 0.6867
51.5239 -32.7006 5.3390 0.7827
55.8563 -26.6294 5.4137 0.7800
55.9118 -18.7913 5.1605 0.7891
56.0489 -11.5709 5.0070 0.7947
56.0914 -4.6626 4.9243 0.7977
56.1753 8.9708 4.9770 0.7958
19.4277 5.5656 1.7681 0.9221
38.3401 16.1940 3.6413 0.8461
26.7189 19.9324 2.9164 0.8747
4.6548 5.6564 0.6409 0.9710
3.5919 5.6297 0.5842 0.9735
2.7190 5.6683 0.5500 0.9751
1.9218 5.6732 0.5240 0.9762
1.1863 5.6777 0.5075 0.9770
0.4860 5.6820 0.4989 0.9774
-0.2009 5.6862 0.4978 0.9774
-3.2505 5.7050 0.5745 0.9740
-4.2242 5.6908 0.6201 0.9719
-5.4262 5.7183 0.6897 0.9688
-8.9490 5.7400 0.9301 0.9582
-11.9307 5.7583 1.1590 0.9482
-16.9555 5.7892 1.5675 0.9306
-30.3947 -36.5764 4.1607 0.8262
-18.2194 -28.2560 2.9414 0.8737
-17.7878 -36.6303 3.5626 0.8492
-12.6157 -36.6620 3.3921 0.8558
24.6706 -43.7854 4.3969 0.8173
51.5196 -33.3949 5.3715 0.7815
55.8523 -27.2877 5.4385 0.7791
56.0455 -12.1314 5.0169 0.7943
56.0881 -5.2043 4.9282 0.7976
56.1719 8.4189 4.9693 0.7961
20.1398 5.5612 1.8279 0.9195
39.3737 16.1877 3.7245 0.8429
26.7164 19.5348 2.8956 0.8756
2.7860 5.6678 0.5525 0.9750
1.2431 5.6773 0.5085 0.9769
-1.5578 5.6945 0.5165 0.9766
-2.3272 5.6993 0.5386 0.9756
-5.3224 5.7177 0.6834 0.9691
-8.7612 5.7388 0.9163 0.9588
-11.6407 5.7565 1.1361 0.9492
-16.4294 5.7859 1.5239 0.9324
-27.7489 -0.6475 2.4282 0.8945
-30.9892 -36.5727 4.1939 0.8249
-13.0093 -36.6596 3.4033 0.8554
-9.9801 -44.5551 3.9947 0.8325
-8.9251 -89.2135 7.8441 0.6977
24.4726 -44.4243 4.4373 0.8157
32.6797 -45.3748 4.8922 0.7989
40.5283 -43.9592 5.2310 0.7866
55.4530 -27.7541 5.4252 0.7796
56.0420 -12.6942 5.0273 0.7940
56.0848 -5.7467 4.9325 0.7974
20.8940 5.5545 1.8915 0.9169
30.5641 16.7419 3.0489 0.8694
4.8386 5.6552 0.6512 0.9706
3.7671 5.6618 0.5950 0.9731
2.8535 5.6674 0.5551 0.9748
0.5959 5.6813 0.4998 0.9773
-0.0918 5.6855 0.4975 0.9774
-1.4992 5.6942 0.5152 0.9766
-2.2636 5.6989 0.5365 0.9757
-3.1067 5.7041 0.5683 0.9743
-8.5790 5.7377 0.9030 0.9594
-11.3619 5.7548 1.1143 0.9501
-66.0812 -17.2286 5.9746 0.7602
-31.5931 -36.5690 4.2280 0.8236
-24.6069 -36.6018 3.8586 0.8377
-13.4053 -36.6572 3.4148 0.8549
-9.5661 -87.1763 7.6727 0.7032
16.9684 -43.3252 4.0708 0.8296
24.1677 -44.8839 4.4599 0.8149
31.8624 -45.1463 4.8344 0.8010
39.6984 -43.8958 5.1780 0.7885
50.6411 -43.9629 5.8671 0.7639
51.7101 -34.9440 5.4602 0.7783
53.7394 -27.5436 5.2832 0.7847
56.0304 0.5016 4.9022 0.7985
46.7194 6.0890 4.1220 0.8276
21.7189 5.5515 1.9613 0.9139
2.9218 5.6670 0.5578 0.9747
1.3575 5.6766 0.5106 0.9768
-0.0373 5.6852 0.4974 0.9774
-2.2004 5.6985 0.5344 0.9758
-3.9887 5.7095 0.6093 0.9724
-5.1202 5.7164 0.6714 0.9697
-11.0935 5.7532 1.0933 0.9511
-29.6259 -0.1232 2.5920 0.8878
-43.6929 -10.9453 3.9407 0.8346
-18.8335 -36.1034 3.5626 0.8492
-13.8042 -36.6547 3.4267 0.8545
-10.6084 -43.4388 3.9121 0.8357
14.3060 -57.6954 5.2006 0.7877
16.9073 -44.4187 4.1581 0.8263
23.7277 -45.0966 4.4582 0.8150
52.4785 -27.5358 5.1849 0.7882
56.0271 -0.0353 4.9017 0.7985
46.5130 5.6091 4.0988 0.8285
32.9336 17.2273 3.2517 0.8614
2.9906 5.6666 0.5606 0.9746
0.7061 5.6806 0.5008 0.9773
0.0172 5.6849 0.4974 0.9774
-0.6722 5.6891 0.5012 0.9773
-1.3828 5.6935 0.5126 0.9767
-2.1377 5.6981 0.5324 0.9759
-3.9075 5.7090 0.6053 0.9726
-5.0218 5.7158 0.6657 0.9699
-6.4055 5.7243 0.7516 0.9661
-8.1927 5.7097 0.8737 0.9607
-5.2023 2.7616 0.5153 0.9766
-7.6185 2.9318 0.7142 0.9678
-73.6724 -38.0892 7.2560 0.7168
-18.8284 -35.2652 3.4975 0.8517
-14.2060 -36.6522 3.4391 0.8540
13.9285 -58.5701 5.2671 0.7853
23.2649 -45.2649 4.4526 0.8152
30.7093 -45.3328 4.7904 0.8026
51.7011 -36.4008 5.5319 0.7758
51.5522 -27.6833 5.1194 0.7906
54.8540 -21.4121 5.1518 0.7894
56.0315 -14.3973 5.0614 0.7927
56.0747 -7.3804 4.9482 0.7968
47.1715 5.2304 4.1523 0.8265
51.7972 12.1866 4.6554 0.8076
44.0324 16.1590 4.1036 0.8283
33.7071 17.2226 3.3116 0.8590
4.0056 5.6604 0.6067 0.9725
2.2294 5.6713 0.5331 0.9758
1.4729 5.6759 0.5130 0.9767
0.7615 5.6803 0.5014 0.9773
-0.6170 5.6888 0.5006 0.9773
-2.0755 5.6977 0.5305 0.9759
-2.8966 5.7028 0.5596 0.9746
-4.9250 5.7152 0.6601 0.9702
-5.1383 2.7911 0.5116 0.9768
-7.5770 2.9996 0.7130 0.9678
-73.9790 -37.3533 7.2506 0.7169
-14.6105 -36.6498 3.4518 0.8535
-1.0743 -61.7137 5.4001 0.7805
19.2116 -84.3719 7.5705 0.7065
29.9361 -45.1169 4.7371 0.8046
56.0205 -1.1094 4.9021 0.7985
51.7940 11.6632 4.6449 0.8080
45.3493 16.1509 4.2117 0.8242
34.5100 17.2176 3.3741 0.8565
5.2249 5.6529 0.6735 0.9696
2.2923 5.6709 0.5351 0.9757
0.8169 5.6800 0.5020 0.9772
-0.5618 5.6884 0.5001 0.9773
-2.8280 5.7024 0.5569 0.9748
-4.8298 5.7146 0.6546 0.9704
-6.1619 5.7228 0.7357 0.9668
-7.8997 5.7335 0.8540 0.9616
-5.1145 2.8420 0.5119 0.9768
-21.3566 5.8162 1.9365 0.9150
-15.0183 -36.6473 3.4650 0.8530
18.9956 -87.2785 7.8146 0.6986
15.5719 -44.7392 4.1445 0.8268
29.3264 -45.1308 4.7088 0.8056
51.4928 -37.7510 5.5860 0.7739
51.5444 -28.9656 5.1728 0.7887
56.0679 -8.4759 4.9610 0.7964
56.0172 -1.6467 4.9030 0.7985
35.3436 17.2125 3.4394 0.8540
26.7024 17.2604 2.7817 0.8801
5.3257 5.6522 0.6794 0.9693
4.1700 5.6593 0.6150 0.9722
1.5895 5.6752 0.5156 0.9766
0.1807 5.6839 0.4975 0.9774
-0.5033 5.6494 0.4962 0.9775
-1.2104 5.6924 0.5092 0.9769
-6.0439 5.7221 0.7282 0.9671
61.0044 -18.5686 3.3419 0.7746
60.9522 -10.7659 3.2438 0.7804
60.9027 -3.3029 3.1965 0.7832
60.8544 4.0508 3.1963 0.7833
36.5966 16.7134 2.1085 0.8512
27.3967 16.7614 1.6832 0.8793
5.5950 5.6506 0.4167 0.9687
4.3894 5.6580 0.3753 0.9717
3.3781 5.6463 0.3448 0.9740
2.5217 5.6695 0.3252 0.9755
1.0171 5.6787 0.3023 0.9772
-0.3639 5.6719 0.2979 0.9775
-1.7922 5.6856 0.3124 0.9764
-2.5784 5.6819 0.3270 0.9753
-3.4626 5.6903 0.3491 0.9737
-4.4680 5.6710 0.3784 0.9715
-12.8759 5.7641 0.7393 0.9451
-18.7326 5.8001 1.0277 0.9245
-32.4059 5.8841 1.7261 0.8764
-27.0432 -34.5159 2.2980 0.8389
-20.8986 -34.5536 2.1163 0.8507
-10.0360 -54.5283 2.9057 0.8009
16.9083 -54.5498 2.9930 0.7955
27.1342 -27.2562 2.0156 0.8572
51.5538 -23.3760 2.9666 0.7971
60.9562 -11.3702 3.2497 0.7801
60.8583 3.4654 3.1946 0.7834
60.6393 10.8797 3.2287 0.7813
36.6969 16.3359 2.1051 0.8514
7.2593 5.6353 0.4816 0.9639
5.7026 5.6499 0.4207 0.9684
4.4765 5.6575 0.3781 0.9715
26.3616 43.1181 2.6486 0.8167
2.5869 5.6691 0.3266 0.9753
1.0733 5.6784 0.3029 0.9771
0.3765 5.6827 0.2985 0.9774
-0.3094 5.6736 0.2978 0.9775
-1.0051 5.6801 0.3023 0.9772
-1.7324 5.6852 0.3115 0.9765
-2.5138 5.6836 0.3257 0.9754
-7.1991 5.7245 0.4820 0.9638
-18.1040 5.7962 0.9962 0.9267
-66.8274 -20.1885 3.6586 0.7561
-35.1229 -34.4665 2.5790 0.8211
-27.6065 -34.5476 2.3176 0.8377
-11.3634 -35.2019 1.9386 0.8623
19.4506 -44.5531 2.5477 0.8231
26.0726 -34.0896 2.2492 0.8421
51.6252 -32.0748 3.1854 0.7839
51.2094 -23.8143 2.9598 0.7975
60.9603 -11.9767 3.2559 0.7797
60.8621 2.8807 3.1932 0.7834
37.3515 16.2001 2.1337 0.8495
28.6022 16.7540 1.7372 0.8757
26.3559 42.1945 2.6072 0.8193
0.4312 5.6823 0.2987 0.9774
-0.2555 5.6865 0.2983 0.9775
-1.6729 5.6848 0.3106 0.9765
-2.4502 5.6865 0.3245 0.9755
-5.5319 5.7190 0.4170 0.9686
-9.1425 5.7412 0.5658 0.9577
-17.5129 5.7926 0.9667 0.9288
-29.1083 5.8639 1.5561 0.8879
-65.6717 -19.1543 3.5851 0.7603
-11.7004 -35.0914 1.9386 0.8623
16.4290 -56.8343 3.1005 0.7890
18.9180 -44.4914 2.5337 0.8239
25.2173 -43.7693 2.6473 0.8168
33.7462 -45.0104 2.9482 0.7983
44.8785 -21.3957 2.6056 0.8194
60.8659 2.2964 3.1921 0.7835
44.8796 7.1670 2.3818 0.8336
19.4277 5.5656 1.0591 0.9222
29.2347 16.7501 1.7658 0.8738
5.9242 5.6486 0.4290 0.9677
2.7190 5.6683 0.3295 0.9751
1.1863 5.6777 0.3040 0.9770
0.4860 5.6820 0.2989 0.9774
-0.2009 5.6862 0.2982 0.9775
-1.6137 5.6843 0.3097 0.9766
-3.2409 5.6881 0.3431 0.9741
-5.4262 5.7183 0.4131 0.9689
-6.9052 5.7103 0.4696 0.9647
-8.9490 5.7400 0.5572 0.9583
-28.6742 -34.5059 2.3513 0.8355
-18.2118 -28.2442 1.7612 0.8741
-12.0062 -34.8909 1.9338 0.8626
-10.0293 -46.8770 2.5123 0.8253
15.9531 -57.2387 3.1141 0.7882
33.1832 -45.1548 2.9367 0.7990
51.5196 -33.3949 3.2176 0.7820
44.6455 -21.8124 2.6041 0.8195
52.2283 -18.1123 2.8971 0.8014
60.9182 -5.6524 3.2063 0.7827
60.8697 1.7124 3.1913 0.7836
44.5834 6.6821 2.3626 0.8348
29.8882 16.7461 1.7955 0.8718
26.7164 19.5348 1.7345 0.8758
6.0383 5.6479 0.4333 0.9674
4.7459 5.6558 0.3869 0.9709
3.6896 5.6623 0.3542 0.9733
2.7860 5.6678 0.3310 0.9750
1.2431 5.6773 0.3046 0.9770
-0.1463 5.6859 0.2981 0.9775
-0.8372 5.6790 0.3008 0.9773
-1.5549 5.6839 0.3088 0.9767
-2.3232 5.6895 0.3221 0.9757
-3.1687 5.6874 0.3412 0.9743
-5.3224 5.7177 0.4094 0.9692
-8.7612 5.7388 0.5489 0.9589
-16.4294 5.7859 0.9129 0.9326
-26.4009 5.8472 1.4171 0.8973
-27.7462 -0.6475 1.4545 0.8948
-88.8407 -36.0281 5.0242 0.6811
-29.2646 -34.5374 2.3724 0.8342
-22.7674 -34.5771 2.1697 0.8472
-15.5567 -31.2694 1.8304 0.8695
-12.3709 -34.8606 1.9386 0.8623
-9.9801 -44.5550 2.3929 0.8329
13.0842 -91.7958 4.8594 0.6898
17.7179 -43.9926 2.4855 0.8270
32.5182 -45.1505 2.9161 0.8002
26.1170 -28.3280 2.0193 0.8570
51.9635 -34.3944 3.2658 0.7791
60.9221 -6.2423 3.2095 0.7825
44.2923 6.2050 2.3439 0.8360
20.9017 5.5565 1.1335 0.9170
30.5642 16.7419 1.8264 0.8697
26.7140 19.1428 1.7224 0.8767
3.7671 5.6618 0.3564 0.9731
2.8535 5.6674 0.3325 0.9749
2.0436 5.6724 0.3160 0.9761
0.5959 5.6813 0.2994 0.9774
-1.4963 5.6835 0.3080 0.9767
-3.0973 5.6867 0.3394 0.9744
-4.0612 5.6963 0.3666 0.9724
-5.2204 5.7171 0.4057 0.9695
-8.5790 5.7377 0.5409 0.9595
-11.3619 5.7548 0.6675 0.9503
-29.6805 -0.4080 1.5556 0.8879
-65.9419 -17.1923 3.5714 0.7611
-29.8234 -34.5207 2.3908 0.8330
-23.2437 -34.5742 2.1834 0.8463
-10.0040 -42.7370 2.3003 0.8388
-9.5661 -87.1763 4.5961 0.7038
17.4284 -44.4997 2.5046 0.8258
31.8624 -45.1463 2.8959 0.8014
31.4270 -27.2826 2.1811 0.8465
61.0308 -22.4847 3.4086 0.7707
60.8774 0.5450 3.1906 0.7836
43.9388 5.7266 2.3222 0.8374
21.7189 5.5515 1.1748 0.9141
31.2639 16.7376 1.8585 0.8676
26.7116 18.7563 1.7105 0.8774
3.8455 5.6613 0.3587 0.9730
2.1051 5.6720 0.3171 0.9761
1.3575 5.6766 0.3059 0.9769
-0.0373 5.6852 0.2980 0.9775
-3.9789 5.6955 0.3641 0.9726
-5.1202 5.7164 0.4022 0.9697
-6.5250 5.7196 0.4547 0.9658
-11.0935 5.7532 0.6549 0.9512
-15.4599 5.7800 0.8650 0.9360
-24.2075 5.8505 1.3052 0.9051
-29.6326 -0.1232 1.5530 0.8881
-43.6878 -10.9440 2.3600 0.8349
-23.7259 -34.5712 2.1974 0.8454
-18.0261 -34.5555 2.0426 0.8555
-13.0369 -34.6171 1.9386 0.8623
17.9572 -47.1769 2.6455 0.8169
31.2157 -45.1424 2.8763 0.8026
26.1102 -29.4333 2.0620 0.8542
48.6463 -33.5575 3.0976 0.7892
60.9300 -7.4259 3.2168 0.7820
60.8812 -0.0384 3.1906 0.7836
22.5986 5.5461 1.2195 0.9110
32.9336 17.2273 1.9478 0.8617
26.7092 18.3749 1.6990 0.8782
3.9250 5.6608 0.3610 0.9728
2.1671 5.6717 0.3182 0.9760
-8.1927 5.7097 0.5233 0.9608
-31.0043 -34.5268 2.4319 0.8304
-24.1974 -34.5437 2.2103 0.8446
17.0018 -45.9881 2.5696 0.8217
30.5778 -45.1385 2.8573 0.8038
26.1067 -30.0039 2.0843 0.8527
30.2279 -27.2753 2.1338 0.8495
51.5522 -27.6833 3.0666 0.7911
61.0399 -23.8267 3.4340 0.7692
60.9339 -8.0200 3.2209 0.7818
23.5479 5.5403 1.2678 0.9077
26.3699 13.4737 1.5519 0.8882
26.7069 17.9985 1.6878 0.8790
5.1258 5.6535 0.3999 0.9699
4.0056 5.6604 0.3634 0.9726
1.4729 5.6759 0.3073 0.9768
0.7615 5.6803 0.3004 0.9773
-0.6163 5.6829 0.2996 0.9774
-1.3226 5.6823 0.3058 0.9769
-2.0718 5.6876 0.3172 0.9760
-3.8174 5.6938 0.3593 0.9729
-4.9250 5.7152 0.3954 0.9702
-6.2824 5.7236 0.4454 0.9665
-5.1382 2.7910 0.3065 0.9769
-7.5755 2.9990 0.4270 0.9679
-22.2138 5.8215 1.2035 0.9121
-31.6041 -34.5231 2.4529 0.8290
-18.8803 -34.5608 2.0639 0.8541
-13.7860 -34.5815 1.9510 0.8615
-9.9391 -37.5587 2.0361 0.8559
-9.1672 -65.9808 3.4911 0.7658
16.2662 -45.3296 2.5239 0.8246
26.1031 -30.5869 2.1074 0.8512
51.5970 -37.0725 3.3296 0.7753
61.0445 -24.5051 3.4474 0.7684
44.6702 4.5200 2.3530 0.8354
45.3494 16.1509 2.5229 0.8246
34.5100 17.2176 2.0212 0.8569
4.0872 5.6599 0.3659 0.9724
2.2923 5.6709 0.3206 0.9758
1.5311 5.6756 0.3081 0.9767
0.1262 5.6842 0.2980 0.9775
-1.2652 5.6819 0.3051 0.9770
-4.8298 5.7146 0.3921 0.9705
-6.1619 5.7228 0.4407 0.9669
-7.8997 5.7335 0.5116 0.9617
-21.3566 5.8162 1.1600 0.9152
-19.3112 -34.5582 2.0747 0.8534
-11.2449 -27.4394 1.5541 0.8880
-11.9566 -80.3971 4.2598 0.7221
19.0114 -87.3509 4.6850 0.6990
22.0665 -45.0364 2.6283 0.8180
29.3264 -45.1308 2.8207 0.8061
29.0794 -27.2682 2.0892 0.8524
51.4928 -37.7510 3.3462 0.7743
51.9928 -29.2176 3.1256 0.7875
61.0492 -25.1893 3.4611 0.7676
60.9419 -9.2127 3.2301 0.7812
60.8927 -1.7900 3.1926 0.7835
48.1608 16.6336 2.6703 0.8154
6.7613 5.6316 0.4612 0.9654
5.3257 5.6522 0.4070 0.9694
4.1700 5.6593 0.3684 0.9722
3.2015 5.6653 0.3410 0.9743
2.3556 5.6705 0.3218 0.9757
1.5895 5.6752 0.3089 0.9767
0.1807 5.6839 0.2980 0.9775
-1.9488 5.6867 0.3150 0.9762
-4.7362 5.7141 0.3890 0.9707
-7.7412 5.7325 0.5048 0.9622
55.8886 10.5813 0.9929 0.7965
26.3738 8.3832 0.4831 0.8952
36.5966 16.7134 0.7023 0.8513
5.5950 5.6506 0.1388 0.9687
4.3894 5.6580 0.1250 0.9718
3.3781 5.6463 0.1148 0.9740
1.0171 5.6787 0.1007 0.9772
-1.0589 5.6670 0.1006 0.9772
-2.5714 5.6663 0.1086 0.9754
-7.3497 5.7301 0.1627 0.9634
-9.5174 5.7252 0.1939 0.9565
-18.7326 5.8001 0.3423 0.9245
-32.4059 5.8841 0.5749 0.8765
-88.2644 -5.4505 1.5436 0.7020
-65.2779 -20.4052 1.1938 0.7606
-71.7110 -32.3354 1.3731 0.7300
-23.0733 -38.1493 0.7782 0.8366
-8.6358 -19.1675 0.3670 0.9193
17.6894 -57.0699 1.0429 0.7874
26.0856 -33.4375 0.7402 0.8440
27.1342 -27.2562 0.6713 0.8574
45.0030 -27.3661 0.9194 0.8100
28.1058 16.8271 0.5718 0.8772
2.5869 5.6691 0.1088 0.9754
1.8016 5.6739 0.1039 0.9765
1.0733 5.6784 0.1009 0.9771
-1.7281 5.6713 0.1035 0.9766
-2.5075 5.6693 0.1082 0.9755
-3.3692 5.6582 0.1149 0.9740
-18.6239 24.1102 0.5318 0.8853
-5.6397 5.7196 0.1402 0.9684
-7.2051 5.7293 0.1607 0.9638
-9.3117 5.7237 0.1908 0.9572
-88.8629 -15.5043 1.5745 0.6971
-65.3089 -19.7297 1.1908 0.7611
-73.5911 -32.3378 1.4031 0.7250
-29.1176 -36.4385 0.8142 0.8298
-23.6754 -38.3106 0.7861 0.8351
-15.7888 -34.1657 0.6570 0.8602
-11.8677 -36.7643 0.6743 0.8568
26.0815 -34.1013 0.7494 0.8422
26.6158 -27.2531 0.6649 0.8586
44.0368 -27.3601 0.9049 0.8127
85.2181 -27.7346 1.5643 0.6987
28.7206 16.8233 0.5810 0.8753
5.8123 5.6492 0.1415 0.9681
4.5650 5.6569 0.1269 0.9713
6.1247 9.8053 0.2018 0.9548
0.4312 5.6823 0.0995 0.9775
-1.6688 5.6709 0.1032 0.9766
-18.2923 24.1560 0.5289 0.8858
-5.5319 5.7190 0.1389 0.9687
-7.0639 5.7284 0.1587 0.9643
-9.1125 5.7223 0.1878 0.9579
-17.5129 5.7926 0.3220 0.9289
-29.6916 -36.4350 0.8204 0.8286
-17.9063 -28.3638 0.5855 0.8744
-10.2621 -50.3178 0.8964 0.8143
24.2671 -42.1200 0.8485 0.8233
26.0774 -34.7817 0.7588 0.8404
26.0955 -27.2377 0.6584 0.8599
43.1003 -27.3544 0.8910 0.8153
46.0102 -21.9353 0.8897 0.8155
42.3101 6.7566 0.7479 0.8425
19.3743 5.5503 0.3518 0.9225
29.3556 16.8194 0.5905 0.8734
26.7892 19.9849 0.5834 0.8748
5.9242 5.6486 0.1429 0.9678
4.6548 5.6564 0.1279 0.9711
3.5919 5.6297 0.1166 0.9736
1.9218 5.6732 0.1046 0.9763
1.1863 5.6777 0.1012 0.9771
-1.6098 5.6705 0.1029 0.9767
-2.3811 5.6753 0.1074 0.9757
-3.2233 5.6571 0.1136 0.9743
-4.2046 5.6644 0.1231 0.9722
-5.4262 5.7183 0.1376 0.9690
-8.9193 5.7209 0.1850 0.9585
-28.3766 -34.1479 0.7750 0.8373
-18.2043 -28.2325 0.5864 0.8742
-12.5661 -36.5178 0.6741 0.8568
21.9382 -52.9995 1.0012 0.7949
23.7294 -42.1150 0.8438 0.8242
40.5032 6.0705 0.7149 0.8489
29.8883 16.7461 0.5980 0.8719
26.7867 19.5862 0.5792 0.8757
6.0383 5.6479 0.1443 0.9675
4.7459 5.6558 0.1289 0.9709
1.9825 5.6728 0.1049 0.9762
-0.1463 5.6859 0.0993 0.9775
-1.5511 5.6701 0.1026 0.9768
-2.3173 5.6751 0.1070 0.9758
-4.1205 5.6638 0.1223 0.9724
-5.3224 5.7177 0.1363 0.9692
-8.7332 5.7205 0.1822 0.9591
-11.5738 5.7235 0.2254 0.9497
-16.4294 5.7859 0.3040 0.9327
-26.3263 5.8307 0.4707 0.8977
-27.7417 -0.6474 0.4844 0.8949
-63.8145 -17.2924 1.1541 0.7676
-88.7819 -36.0043 1.6723 0.6816
-25.2195 -38.3012 0.8005 0.8324
-12.9581 -36.5154 0.6763 0.8564
21.9293 -54.4492 1.0246 0.7907
26.1170 -28.3279 0.6725 0.8571
77.4386 -27.6894 1.4355 0.7196
30.5642 16.7419 0.6083 0.8699
6.8571 6.2916 0.1624 0.9635
3.7671 5.6618 0.1187 0.9732
2.0436 5.6724 0.1052 0.9762
1.3002 5.6770 0.1017 0.9770
-0.0918 5.6855 0.0993 0.9775
-0.7812 5.6752 0.1000 0.9773
-3.0806 5.6560 0.1124 0.9746
-5.2204 5.7171 0.1351 0.9695
-25.2096 5.8375 0.4517 0.9017
-29.6872 -0.4081 0.5182 0.8880
-63.7798 -16.6286 1.1505 0.7682
-29.4954 -34.1410 0.7875 0.8349
-9.5985 -41.0044 0.7351 0.8450
23.3363 -90.3951 1.6296 0.6883
22.6716 -42.1052 0.8347 0.8259
26.0561 -36.9192 0.7888 0.8346
26.1137 -28.8747 0.6796 0.8558
41.3589 5.3903 0.7280 0.8463
44.1219 17.1585 0.8263 0.8275
31.2639 16.7376 0.6190 0.8677
26.7819 18.8057 0.5712 0.8773
6.9092 6.2185 0.1623 0.9635
4.9328 5.6547 0.1310 0.9704
3.8455 5.6613 0.1195 0.9730
2.9218 5.6670 0.1113 0.9748
1.3575 5.6766 0.1019 0.9769
-0.0373 5.6852 0.0992 0.9775
-0.7261 5.6777 0.0999 0.9774
-1.4346 5.6694 0.1021 0.9769
-2.1910 5.6743 0.1062 0.9760
-3.0103 5.6555 0.1118 0.9747
-3.9559 5.6625 0.1206 0.9727
-24.2075 5.8504 0.4347 0.9052
-29.6393 -0.1233 0.5173 0.8882
-9.5878 -39.2596 0.7054 0.8507
-10.4123 -87.1711 1.5324 0.7038
26.1102 -29.4333 0.6868 0.8544
30.8210 -27.2789 0.7184 0.8482
41.9800 -22.0271 0.8275 0.8272
72.7863 -27.6107 1.3588 0.7324
88.4175 -21.8178 1.5896 0.6947
22.5986 5.5461 0.4062 0.9111
45.3847 17.1507 0.8469 0.8236
32.9336 17.2273 0.6488 0.8618
26.7796 18.4232 0.5674 0.8781
6.9612 6.1456 0.1621 0.9635
2.9906 5.6666 0.1118 0.9747
1.4151 5.6763 0.1021 0.9769
0.7061 5.6806 0.0999 0.9774
-1.3769 5.6690 0.1018 0.9769
-2.9409 5.6550 0.1113 0.9748
-3.8752 5.6619 0.1198 0.9729
-6.4055 5.7243 0.1499 0.9662
-7.6133 2.9298 0.1424 0.9679
-25.9279 -37.0141 0.7888 0.8346
-18.8285 -35.2654 0.6978 0.8522
-13.2483 -34.1812 0.6399 0.8636
-9.0845 -70.3251 1.2377 0.7530
26.0474 -38.4508 0.8107 0.8304
30.2279 -27.2753 0.7107 0.8497
38.8148 -27.3280 0.8286 0.8270
41.7144 -22.4004 0.8265 0.8274
70.8312 -27.6487 1.3272 0.7377
83.4398 -21.4399 1.5037 0.7085
23.5479 5.5403 0.4223 0.9078
46.4998 17.0645 0.8646 0.8202
5.1258 5.6535 0.1332 0.9699
4.0056 5.6604 0.1210 0.9726
3.0602 5.6662 0.1124 0.9746
2.2294 5.6713 0.1064 0.9759
1.4729 5.6759 0.1024 0.9768
0.7615 5.6803 0.1000 0.9773
-1.3194 5.6686 0.1016 0.9770
-2.0667 5.6735 0.1054 0.9761
-2.8721 5.6545 0.1107 0.9749
-4.9250 5.7152 0.1317 0.9703
-8.0625 5.7345 0.1727 0.9612
-22.1782 5.8122 0.4002 0.9124
-82.2482 -8.7208 1.4437 0.7183
-70.3547 -35.5235 1.3757 0.7296
-31.2557 -34.1426 0.8080 0.8310
-11.4937 -43.4334 0.7842 0.8355
22.9321 -45.6892 0.8923 0.8150
40.9355 -22.4902 0.8153 0.8296
82.2984 -21.9898 1.4869 0.7112
42.4997 4.3004 0.7456 0.8429
46.7295 16.6424 0.8659 0.8200
26.7749 17.6736 0.5600 0.8795
3.1305 5.6657 0.1130 0.9744
2.2923 5.6709 0.1068 0.9758
1.5311 5.6756 0.1026 0.9768
0.1262 5.6842 0.0992 0.9775
-0.5615 5.6855 0.0997 0.9774
-2.8047 5.6554 0.1102 0.9751
-3.7171 5.6607 0.1182 0.9733
-4.8298 5.7146 0.1306 0.9705
-6.1619 5.7228 0.1468 0.9669
-7.8997 5.7335 0.1704 0.9617
-21.3361 5.8106 0.3860 0.9153
-70.8813 -34.9405 1.3794 0.7290
-31.8589 -34.1385 0.8151 0.8296
-11.9078 -43.3149 0.7841 0.8355
31.4791 -90.4418 1.6715 0.6817
27.3554 -42.0977 0.8764 0.8180
26.0995 -31.1831 0.7098 0.8499
29.0794 -27.2682 0.6958 0.8526
37.2463 -27.3065 0.8061 0.8313
25.6522 5.5186 0.4580 0.9003
35.3436 17.2125 0.6862 0.8545
26.7024 17.2604 0.5550 0.8806
7.1167 5.9276 0.1617 0.9636
3.2015 5.6653 0.1136 0.9743
2.3556 5.6705 0.1072 0.9757
1.5895 5.6752 0.1029 0.9767
0.1807 5.6839 0.0993 0.9775
-1.2052 5.6679 0.1011 0.9771
-6.0439 5.7221 0.1453 0.9673
-5.1354 2.9183 0.1031 0.9766
89.2725 5.9424 -1.5617 0.6991
51.8236 16.4726 -0.9492 0.8045
34.5384 15.7734 -0.6628 0.8591
7.2502 5.7404 -0.1614 0.9637
3.3781 5.6463 -0.1148 0.9740
1.0171 5.6787 -0.1007 0.9772
-1.0580 5.6622 -0.1005 0.9772
-1.7835 5.6578 -0.1035 0.9765
-2.5649 5.6521 -0.1083 0.9755
-3.4244 5.6275 -0.1150 0.9740
-4.4680 5.6710 -0.1260 0.9715
-5.7496 5.7203 -0.1416 0.9681
-7.3497 5.7301 -0.1627 0.9634
-12.8759 5.7641 -0.2462 0.9451
-62.8168 3.7087 -1.0984 0.7774
-88.2524 -5.4498 -1.5434 0.7021
-65.8741 -20.5915 -1.2047 0.7587
-72.2692 -32.5870 -1.3838 0.7282
-68.3904 -41.3922 -1.3954 0.7263
-17.8299 -22.7568 -0.5046 0.8908
21.9627 -49.0204 -0.9376 0.8066
34.6755 -27.3026 -0.7704 0.8381
45.0030 -27.3661 -0.9194 0.8100
89.2672 5.0831 -1.5607 0.6993
60.3891 10.8348 -1.0709 0.7824
51.9204 15.9571 -0.9482 0.8047
27.9901 16.7578 -0.5694 0.8776
26.7239 20.7454 -0.5905 0.8734
5.7026 5.6499 -0.1401 0.9684
2.5869 5.6691 -0.1088 0.9754
1.8016 5.6739 -0.1039 0.9765
0.3765 5.6827 -0.0994 0.9775
-0.3094 5.6736 -0.0992 0.9775
-2.5012 5.6552 -0.1079 0.9756
-30.6719 5.8735 -0.5451 0.8826
-81.2115 -14.1693 -1.4390 0.7191
-65.4151 -19.7618 -1.1928 0.7608
-81.2765 -35.7150 -1.5496 0.7011
-68.1867 -40.3810 -1.3833 0.7283
-26.3371 -25.8448 -0.6441 0.8628
-18.2490 -22.8373 -0.5103 0.8896
-13.7965 -22.3250 -0.4581 0.9003
-8.1941 -25.3840 -0.4656 0.8988
-6.4108 -90.1995 -1.5784 0.6964
27.0519 -90.3280 -1.6459 0.6858
26.0815 -34.1013 -0.7494 0.8422
33.9946 -27.2984 -0.7610 0.8399
44.0368 -27.3601 -0.9049 0.8127
60.2829 -28.0338 -1.1604 0.7665
85.5394 -27.8392 -1.5702 0.6978
62.1979 10.5450 -1.1012 0.7769
28.6023 16.7540 -0.5786 0.8758
26.7214 20.3359 -0.5861 0.8743
5.8123 5.6492 -0.1415 0.9681
20.8416 33.3663 -0.6867 0.8544
1.8615 5.6735 -0.1042 0.9764
1.1297 5.6780 -0.1011 0.9771
0.4312 5.6823 -0.0995 0.9775
-0.2555 5.6865 -0.0994 0.9775
-0.9469 5.6674 -0.1003 0.9773
-2.4380 5.6582 -0.1075 0.9757
-3.2779 5.6268 -0.1137 0.9743
-18.1401 23.9550 -0.5245 0.8867
-5.5319 5.7190 -0.1389 0.9687
-12.0299 5.6646 -0.2321 0.9482
-17.5129 5.7926 -0.3220 0.9289
-81.1716 -13.3619 -1.4359 0.7196
-65.4589 -19.0922 -1.1902 0.7613
-62.7019 -26.8389 -1.1905 0.7612
-27.2829 -26.2646 -0.6610 0.8594
-13.9711 -22.1303 -0.4568 0.9006
-11.2756 -23.7978 -0.4597 0.9000
-8.4380 -25.3071 -0.4656 0.8988
-6.2745 -30.7656 -0.5481 0.8820
26.1094 -90.3222 -1.6411 0.6865
16.8367 -39.5965 -0.7510 0.8419
24.1431 -41.9049 -0.8442 0.8241
33.3300 -27.2943 -0.7520 0.8417
43.1003 -27.3544 -0.8910 0.8153
58.7829 -28.0246 -1.1367 0.7706
37.0110 15.6327 -0.7013 0.8515
29.2347 16.7501 -0.5881 0.8739
5.9242 5.6486 -0.1429 0.9678
4.6548 5.6564 -0.1279 0.9711
3.5919 5.6297 -0.1166 0.9736
2.7190 5.6683 -0.1097 0.9752
-3.2058 5.6265 -0.1130 0.9744
-4.1799 5.6312 -0.1224 0.9723
-5.4262 5.7183 -0.1376 0.9690
-11.7342 5.6635 -0.2274 0.9492
-95.4399 -3.1427 -1.6668 0.6825
-64.5729 -18.1641 -1.1709 0.7646
-70.1263 -51.7934 -1.5217 0.7056
-6.6076 -73.1164 -1.2814 0.7455
16.3902 -39.5965 -0.7480 0.8424
23.6082 -41.8999 -0.8395 0.8250
32.6810 -27.2903 -0.7432 0.8434
43.7106 -21.3556 -0.8492 0.8231
52.2098 -18.1059 -0.9646 0.8017
41.5004 17.0620 -0.7832 0.8357
26.7164 19.5348 -0.5777 0.8760
3.6896 5.6623 -0.1180 0.9733
2.7860 5.6678 -0.1102 0.9751
0.5409 5.6817 -0.0996 0.9774
-0.1463 5.6859 -0.0993 0.9775
-0.8363 5.6726 -0.1001 0.9773
-1.5473 5.6564 -0.1024 0.9768
-2.3115 5.6608 -0.1067 0.9758
-4.0965 5.6308 -0.1215 0.9725
-5.3224 5.7177 -0.1363 0.9692
-6.7915 5.7267 -0.1551 0.9651
-8.7332 5.7205 -0.1822 0.9591
-11.4502 5.6623 -0.2230 0.9502
-16.4294 5.7859 -0.3040 0.9327
-27.7361 -0.6472 -0.4843 0.8949
-81.2913 -11.7857 -1.4338 0.7199
-63.8014 -17.2889 -1.1538 0.7676
-81.3894 -33.0064 -1.5330 0.7037
-66.9464 -37.0889 -1.3359 0.7363
-14.5854 -22.1510 -0.4629 0.8993
-6.6628 -29.7455 -0.5321 0.8852
23.3562 -87.0174 -1.5726 0.6974
26.0687 -36.1956 -0.7786 0.8366
26.1170 -28.3279 -0.6725 0.8571
41.3107 -27.3434 -0.8647 0.8202
43.4660 -21.7546 -0.8484 0.8233
77.4385 -27.6893 -1.4355 0.7196
90.8338 -20.5750 -1.6257 0.6889
68.6622 1.2731 -1.1987 0.7598
4.8386 5.6552 -0.1299 0.9707
2.8535 5.6674 -0.1108 0.9749
2.0436 5.6724 -0.1052 0.9762
1.3002 5.6770 -0.1017 0.9770
0.5959 5.6813 -0.0997 0.9774
-0.0918 5.6855 -0.0993 0.9775
-0.7812 5.6752 -0.1000 0.9773
-1.4891 5.6561 -0.1021 0.9769
-2.2483 5.6605 -0.1063 0.9759
-4.0142 5.6304 -0.1207 0.9727
-5.2204 5.7171 -0.1351 0.9695
-25.0318 5.7964 -0.4485 0.9023
-29.6939 -0.4082 -0.5184 0.8880
-81.2201 -10.9817 -1.4306 0.7204
-81.4003 -32.1057 -1.5274 0.7046
-19.6886 -22.7897 -0.5257 0.8865
-11.9831 -23.5184 -0.4607 0.8998
-9.0492 -24.7452 -0.4599 0.9000
-6.8844 -29.4098 -0.5272 0.8862
-6.1996 -56.4967 -0.9921 0.7966
18.2830 -46.6816 -0.8751 0.8183
22.5095 -41.8041 -0.8288 0.8270
26.1137 -28.8747 -0.6796 0.8558
31.4270 -27.2826 -0.7264 0.8466
40.4549 -27.3381 -0.8523 0.8226
41.5115 -21.2763 -0.8142 0.8298
75.6712 -27.8785 -1.4076 0.7242
43.9926 5.7336 -0.7744 0.8374
44.1219 17.1585 -0.8263 0.8275
26.7116 18.7563 -0.5697 0.8776
6.9092 6.2185 -0.1623 0.9635
4.9328 5.6547 -0.1310 0.9704
-1.4312 5.6558 -0.1018 0.9769
-2.1856 5.6601 -0.1059 0.9760
-2.9975 5.6314 -0.1114 0.9748
-3.9331 5.6300 -0.1199 0.9729
-6.5313 5.7251 -0.1516 0.9659
-10.9341 5.6705 -0.2150 0.9519
-15.4599 5.7800 -0.2881 0.9361
-23.6265 5.7100 -0.4243 0.9073
-62.7945 7.3479 -1.1036 0.7765
-81.1909 -10.1861 -1.4283 0.7208
-43.6712 -10.9399 -0.7858 0.8352
-81.1940 -31.1282 -1.5178 0.7062
-15.3112 -22.3101 -0.4723 0.8974
-12.2002 -23.3875 -0.4604 0.8998
-9.2920 -24.6732 -0.4602 0.8999
23.1760 -93.4676 -1.6809 0.6803
30.8210 -27.2789 -0.7184 0.8482
43.4596 -22.8035 -0.8567 0.8217
74.3964 -28.2214 -1.3889 0.7274
45.3847 17.1507 -0.8469 0.8236
32.9336 17.2273 -0.6488 0.8618
26.7092 18.3749 -0.5659 0.8784
3.9250 5.6608 -0.1202 0.9728
2.1671 5.6717 -0.1060 0.9760
0.7061 5.6806 -0.0999 0.9774
-0.6712 5.6803 -0.0998 0.9774
-2.1233 5.6598 -0.1055 0.9761
-3.8531 5.6296 -0.1191 0.9731
-5.0218 5.7158 -0.1328 0.9700
-6.4055 5.7243 -0.1499 0.9662
-8.1927 5.7097 -0.1743 0.9608
-5.2021 2.7615 -0.1028 0.9767
-7.6107 2.9288 -0.1423 0.9679
-22.7476 5.7289 -0.4095 0.9104
-88.5907 11.2284 -1.5587 0.6996
-95.4169 0.5176 -1.6655 0.6827
-46.5097 -11.1783 -0.8349 0.8258
-69.5380 -47.3498 -1.4685 0.7142
-20.7329 -23.0885 -0.5416 0.8833
-12.2939 -23.0262 -0.4556 0.9008
-7.1919 -28.2700 -0.5092 0.8899
20.9185 -56.5826 -1.0530 0.7856
26.1067 -30.0039 -0.6942 0.8529
30.2279 -27.2753 -0.7107 0.8497
70.8453 -27.6542 -1.3275 0.7377
89.0953 -22.8930 -1.6057 0.6921
43.9873 4.8774 -0.7725 0.8377
23.5479 5.5403 -0.4223 0.9078
46.4998 17.0645 -0.8646 0.8202
26.3699 13.4737 -0.5169 0.8883
26.7069 17.9985 -0.5621 0.8791
5.1258 5.6535 -0.1332 0.9699
3.0602 5.6662 -0.1124 0.9746
0.7615 5.6803 -0.1000 0.9773
-0.6163 5.6829 -0.0998 0.9774
-2.0615 5.6594 -0.1051 0.9762
-3.7741 5.6292 -0.1183 0.9733
-7.5726 2.9978 -0.1422 0.9679
-21.9883 5.7624 -0.3968 0.9131
-95.3383 13.0131 -1.6796 0.6805
-71.1298 -7.5419 -1.2485 0.7511
-81.3326 -29.4058 -1.5096 0.7075
-65.4461 -33.0450 -1.2797 0.7458
-69.2615 -46.1964 -1.4532 0.7167
-12.9616 -18.1314 -0.3890 0.9147
-12.6137 -23.0897 -0.4592 0.9001
-7.2999 -27.5855 -0.4981 0.8921
21.9577 -96.4318 -1.7263 0.6732
29.6477 -27.2717 -0.7031 0.8512
38.0281 -27.3232 -0.8173 0.8292
43.2566 -23.7654 -0.8615 0.8208
89.0897 -23.8044 -1.6096 0.6915
46.7295 16.6424 -0.8659 0.8200
34.5100 17.2176 -0.6732 0.8570
26.7046 17.6272 -0.5585 0.8798
7.0650 6.0001 -0.1618 0.9636
4.0872 5.6599 -0.1219 0.9725
0.1262 5.6842 -0.0992 0.9775
-2.0002 5.6591 -0.1048 0.9763
-3.6961 5.6289 -0.1175 0.9734
-7.8997 5.7335 -0.1704 0.9617
-14.1819 5.7721 -0.2673 0.9406
-21.1612 5.7630 -0.3828 0.9160
-35.1117 5.1359 -0.6194 0.8677
-55.2421 -12.1617 -0.9873 0.7975
-81.4699 -28.5757 -1.5070 0.7079
-69.0868 -45.1288 -1.4404 0.7188
-16.2924 -22.3350 -0.4826 0.8953
-12.7548 -22.8254 -0.4564 0.9007
-10.0229 -24.4577 -0.4614 0.8997
27.2489 -41.9338 -0.8729 0.8187
29.0794 -27.2682 -0.6958 0.8526
37.2627 -27.3185 -0.8065 0.8312
51.9928 -29.2176 -1.0410 0.7877
26.7024 17.2604 -0.5550 0.8806
7.1167 5.9276 -0.1617 0.9636
5.3257 5.6522 -0.1356 0.9694
3.2015 5.6653 -0.1136 0.9743
2.3556 5.6705 -0.1072 0.9757
0.8725 5.6796 -0.1003 0.9773
0.1807 5.6839 -0.0993 0.9775
-0.5033 5.6494 -0.0990 0.9776
-1.9392 5.6587 -0.1044 0.9764
-2.7320 5.6442 -0.1095 0.9752
-3.6192 5.6285 -0.1168 0.9736
-6.0439 5.7221 -0.1453 0.9673
45.6622 -13.8987 -2.5015 0.8260
47.6606 -2.5848 -2.5015 0.8260
21.0053 6.6767 -1.1551 0.9155
21.0645 9.6200 -1.2136 0.9114
21.2398 12.9945 -1.3049 0.9051
4.3894 5.6580 -0.3753 0.9717
3.3781 5.6463 -0.3448 0.9740
2.5217 5.6695 -0.3252 0.9755
-0.3639 5.6719 -0.2979 0.9775
-2.5585 5.6380 -0.3245 0.9755
-5.7496 5.7203 -0.4250 0.9680
-44.8357 -2.7687 -2.3542 0.8353
-44.0835 -8.1276 -2.3493 0.8356
-45.5568 -14.2406 -2.5015 0.8260
-40.8341 -24.7141 -2.5015 0.8260
-37.5628 -29.4490 -2.5015 0.8260
-24.9633 -24.9710 -1.8505 0.8681
-17.4473 -22.2685 -1.4826 0.8929
-8.6243 -19.1418 -1.1003 0.9193
-6.1013 -33.1499 -1.7665 0.8737
-2.9208 -47.5340 -2.4958 0.8263
18.3282 -40.9083 -2.3493 0.8356
27.2393 -27.3617 -2.0234 0.8567
32.6857 -25.7359 -2.1802 0.8465
38.3009 -23.2906 -2.3493 0.8356
46.9213 -8.7523 -2.5015 0.8260
47.6336 -3.0415 -2.5015 0.8260
44.7540 2.5484 -2.3493 0.8356
21.4880 9.5655 -1.2327 0.9101
21.6997 12.9917 -1.3255 0.9037
26.4224 20.5113 -1.7530 0.8746
5.7026 5.6499 -0.4207 0.9684
4.4765 5.6575 -0.3781 0.9715
2.5869 5.6691 -0.3266 0.9753
1.8016 5.6739 -0.3120 0.9764
1.0733 5.6784 -0.3029 0.9771
0.3765 5.6827 -0.2985 0.9774
-2.4950 5.6411 -0.3233 0.9756
-3.3346 5.6001 -0.3416 0.9742
-18.2729 23.6558 -1.5665 0.8872
-7.2051 5.7293 -0.4824 0.9638
-9.2658 5.6955 -0.5700 0.9574
-12.5475 5.7621 -0.7236 0.9462
-44.1594 -7.7047 -2.3493 0.8356
-45.5946 -13.7741 -2.4962 0.8263
-41.0691 -24.3216 -2.5015 0.8260
-18.0384 -22.5739 -1.5144 0.8907
-13.6356 -22.0646 -1.3593 0.9013
-10.8477 -23.4735 -1.3552 0.9016
-6.0689 -31.2862 -1.6702 0.8802
-3.1779 -44.7137 -2.3493 0.8356
2.3709 -47.6717 -2.5015 0.8260
25.5919 -33.4611 -2.2077 0.8447
26.7188 -27.3586 -2.0041 0.8580
33.8630 -27.1927 -2.2761 0.8403
29.3279 -18.2214 -1.8095 0.8708
33.0593 -15.3738 -1.9107 0.8641
45.3874 -14.7715 -2.5015 0.8260
44.7764 2.1193 -2.3493 0.8356
22.1744 12.9888 -1.3468 0.9022
26.4199 20.1064 -1.7400 0.8755
5.8123 5.6492 -0.4248 0.9681
24.9569 39.9548 -2.4689 0.8280
-0.2555 5.6865 -0.2983 0.9775
-1.6607 5.6434 -0.3083 0.9767
-2.4319 5.6442 -0.3221 0.9757
-4.2395 5.5985 -0.3680 0.9723
-5.5319 5.7190 -0.4170 0.9686
-7.0639 5.7284 -0.4766 0.9642
-9.0834 5.7040 -0.5621 0.9579
-11.8974 5.6023 -0.6892 0.9487
-17.5129 5.7926 -0.9667 0.9288
-45.1148 3.5326 -2.3716 0.8342
-44.2312 -7.2810 -2.3493 0.8356
-45.2041 -13.1846 -2.4678 0.8281
-38.1205 -28.7236 -2.5015 0.8260
-28.4197 -27.3589 -2.0674 0.8538
-18.4007 -22.5799 -1.5265 0.8899
-8.3517 -25.0480 -1.3838 0.8996
-6.2521 -30.6558 -1.6397 0.8822
-3.6063 -44.6812 -2.3493 0.8356
1.9137 -47.6923 -2.5015 0.8260
13.2548 -45.8533 -2.5015 0.8260
25.9733 -34.6430 -2.2692 0.8408
45.2437 -15.2059 -2.5015 0.8260
44.7946 1.6900 -2.3493 0.8356
18.7880 5.3823 -1.0242 0.9247
22.6302 9.5585 -1.2874 0.9063
26.4174 19.7075 -1.7273 0.8763
1.1863 5.6777 -0.3040 0.9770
-0.8915 5.6700 -0.3008 0.9773
-2.3692 5.6469 -0.3209 0.9758
-3.1947 5.6069 -0.3382 0.9745
-4.1555 5.5983 -0.3654 0.9725
-6.9261 5.7275 -0.4710 0.9646
-8.9059 5.7124 -0.5545 0.9585
-16.9555 5.7892 -0.9390 0.9307
-45.1003 3.9668 -2.3727 0.8341
-44.9675 -1.4807 -2.3579 0.8351
-44.2990 -6.8567 -2.3493 0.8356
-41.5278 -23.5299 -2.5015 0.8260
-38.3941 -28.3568 -2.5015 0.8260
-32.5907 -30.7776 -2.3493 0.8356
-18.7597 -22.5751 -1.5383 0.8891
-14.1827 -21.9956 -1.3716 0.9005
-11.3710 -23.4162 -1.3642 0.9010
-6.5110 -30.4321 -1.6310 0.8828
-3.7522 -41.5201 -2.1848 0.8462
1.4566 -47.7084 -2.5015 0.8260
7.1879 -47.1863 -2.5015 0.8260
16.9133 -40.8601 -2.3176 0.8377
22.0047 -39.0539 -2.3493 0.8356
26.2245 -27.9030 -2.0068 0.8578
37.6154 -24.3822 -2.3493 0.8356
32.9186 -16.0830 -1.9201 0.8635
45.0959 -15.6389 -2.5015 0.8260
46.6503 -10.0978 -2.5015 0.8260
47.5265 -4.4099 -2.5015 0.8260
41.8135 6.2669 -2.2158 0.8442
19.5987 5.4118 -1.0656 0.9218
21.0866 11.8146 -1.2667 0.9077
21.1566 15.4695 -1.3736 0.9003
6.0383 5.6479 -0.4333 0.9674
4.7459 5.6558 -0.3869 0.9709
3.6896 5.6623 -0.3542 0.9733
2.7860 5.6678 -0.3310 0.9750
1.9825 5.6728 -0.3149 0.9762
1.2431 5.6773 -0.3046 0.9770
0.5409 5.6817 -0.2991 0.9774
-0.1463 5.6859 -0.2981 0.9775
-1.5436 5.6428 -0.3066 0.9768
-3.1257 5.6103 -0.3366 0.9746
-4.0728 5.5981 -0.3628 0.9727
-6.7915 5.7267 -0.4656 0.9650
-11.3647 5.6200 -0.6644 0.9505
-16.4294 5.7859 -0.9129 0.9326
-25.6523 5.6814 -1.3770 0.9001
-27.7306 -0.6471 -1.4537 0.8948
-43.8580 -11.8846 -2.3814 0.8336
-44.2318 -17.9376 -2.5015 0.8260
-41.7515 -23.1307 -2.5015 0.8260
-38.6641 -27.9875 -2.5015 0.8260
-32.8842 -30.4638 -2.3493 0.8356
-19.2746 -22.7474 -1.5626 0.8874
-6.6332 -29.6134 -1.5904 0.8855
-4.4623 -44.6038 -2.3493 0.8356
0.9991 -47.7202 -2.5015 0.8260
6.7352 -47.2530 -2.5015 0.8260
16.7466 -41.5808 -2.3493 0.8356
21.6293 -39.2631 -2.3493 0.8356
26.2212 -28.4409 -2.0273 0.8565
37.3800 -24.7416 -2.3493 0.8356
32.9895 -16.5112 -1.9334 0.8626
47.4820 -4.8652 -2.5015 0.8260
47.7224 0.8849 -2.5015 0.8260
21.0302 8.4114 -1.1870 0.9133
6.8571 6.2916 -0.4877 0.9634
4.8386 5.6552 -0.3901 0.9706
3.7671 5.6618 -0.3564 0.9731
1.3002 5.6770 -0.3052 0.9769
0.5959 5.6813 -0.2994 0.9774
-0.0918 5.6855 -0.2980 0.9775
-0.7812 5.6752 -0.3002 0.9773
-1.4855 5.6425 -0.3058 0.9769
-3.0575 5.6136 -0.3350 0.9747
-3.9911 5.5980 -0.3603 0.9728
-6.6599 5.7259 -0.4603 0.9654
-8.5650 5.7283 -0.5400 0.9596
-11.1202 5.6324 -0.6533 0.9513
-23.7701 5.5042 -1.2787 0.9069
-45.0583 4.8352 -2.3750 0.8340
-43.3765 -11.3091 -2.3493 0.8356
-38.9306 -27.6156 -2.5015 0.8260
-33.1747 -30.1472 -2.3493 0.8356
-14.6416 -21.7789 -1.3753 0.9002
-11.8226 -23.2034 -1.3648 0.9009
-8.9804 -24.5571 -1.3703 0.9006
-4.8896 -44.5590 -2.3493 0.8356
11.9309 -46.2154 -2.5015 0.8260
16.3474 -41.7394 -2.3493 0.8356
23.6085 -33.4511 -2.1457 0.8487
31.3053 -27.1770 -2.1726 0.8470
39.8919 -20.4462 -2.3493 0.8356
46.4481 -10.9902 -2.5015 0.8260
47.4332 -5.3200 -2.5015 0.8260
47.7287 0.4273 -2.5015 0.8260
21.4328 5.4784 -1.1594 0.9152
21.1441 14.8469 -1.3540 0.9017
4.9328 5.6547 -0.3933 0.9704
3.8455 5.6613 -0.3587 0.9730
2.9218 5.6670 -0.3341 0.9748
2.1051 5.6720 -0.3171 0.9761
1.3575 5.6766 -0.3059 0.9769
-0.7261 5.6777 -0.3000 0.9773
-3.9106 5.5978 -0.3579 0.9730
-5.1202 5.7164 -0.4022 0.9697
-6.5313 5.7251 -0.4552 0.9658
-8.3705 5.7152 -0.5312 0.9602
-15.4599 5.7800 -0.8650 0.9360
-29.6891 -0.1235 -1.5560 0.8879
-44.4778 -5.5801 -2.3493 0.8356
-44.5676 -17.0863 -2.5015 0.8260
-42.1872 -22.3261 -2.5015 0.8260
-39.1935 -27.2412 -2.5015 0.8260
-33.4622 -29.8278 -2.3493 0.8356
-15.1110 -22.0184 -1.3995 0.8986
-9.1890 -24.3998 -1.3664 0.9008
-6.9410 -28.4215 -1.5333 0.8894
0.0842 -47.7306 -2.5015 0.8260
11.4873 -46.3277 -2.5015 0.8260
20.8727 -39.6705 -2.3493 0.8356
25.4954 -36.8701 -2.3493 0.8356
29.0389 -25.7016 -2.0323 0.8561
39.9150 -15.1413 -2.2373 0.8428
46.3406 -11.4350 -2.5015 0.8260
47.3800 -5.7745 -2.5015 0.8260
41.8059 5.0415 -2.2068 0.8448
21.0726 11.0230 -1.2463 0.9091
21.1380 14.5421 -1.3446 0.9023
5.0285 5.6541 -0.3966 0.9701
2.9906 5.6666 -0.3358 0.9747
-0.6712 5.6803 -0.2998 0.9773
-1.3717 5.6475 -0.3046 0.9770
-2.1180 5.6457 -0.3160 0.9761
-3.8312 5.5976 -0.3555 0.9732
-5.0218 5.7158 -0.3987 0.9700
-8.1927 5.7097 -0.5233 0.9608
-5.2020 2.7614 -0.3087 0.9767
-22.4526 5.6546 -1.2134 0.9114
-33.6891 4.2699 -1.7797 0.8728
-44.5292 -5.1537 -2.3493 0.8356
-42.3992 -21.9208 -2.5015 0.8260
-33.7465 -29.5057 -2.3493 0.8356
-15.4754 -22.0925 -1.4136 0.8976
-12.2695 -22.9805 -1.3653 0.9009
-9.4316 -24.3341 -1.3677 0.9007
11.0428 -46.4357 -2.5015 0.8260
16.5541 -32.2082 -1.8979 0.8650
26.0026 -29.8842 -2.0760 0.8533
30.1109 -27.1697 -2.1255 0.8501
36.6532 -25.8062 -2.3493 0.8356
39.4926 -21.2073 -2.3493 0.8356
46.2289 -11.8785 -2.5015 0.8260
47.3225 -6.2285 -2.5015 0.8260
47.7281 -0.4877 -2.5015 0.8260
23.5479 5.5403 -1.2678 0.9077
7.0132 6.0728 -0.4862 0.9635
5.1258 5.6535 -0.3999 0.9699
3.0602 5.6662 -0.3375 0.9745
2.2294 5.6713 -0.3194 0.9759
0.7615 5.6803 -0.3004 0.9773
-0.6163 5.6829 -0.2996 0.9774
-1.3151 5.6501 -0.3040 0.9770
-2.8563 5.6235 -0.3306 0.9751
-7.5711 2.9972 -0.4267 0.9679
-21.7416 5.6978 -1.1779 0.9139
-31.0422 4.2371 -1.6419 0.8821
-44.5766 -4.7265 -2.3493 0.8356
-44.8869 -16.2289 -2.5015 0.8260
-42.6074 -21.5133 -2.5015 0.8260
-39.7085 -26.4849 -2.5015 0.8260
-12.9588 -18.1275 -1.1678 0.9146
-12.4468 -22.7841 -1.3606 0.9012
-9.6793 -24.2800 -1.3698 0.9006
-5.9494 -42.8205 -2.2657 0.8410
-0.8308 -47.7234 -2.5015 0.8260
10.5971 -46.5394 -2.5015 0.8260
15.8944 -44.2934 -2.4662 0.8282
20.1084 -40.0633 -2.3493 0.8356
24.7839 -37.3520 -2.3493 0.8356
27.3782 -25.1840 -1.9495 0.8616
36.4041 -26.1564 -2.3493 0.8356
39.2875 -21.5848 -2.3493 0.8356
47.2606 -6.6817 -2.5015 0.8260
44.5987 4.5127 -2.3493 0.8356
24.5751 5.5339 -1.3202 0.9040
7.0650 6.0001 -0.4858 0.9636
4.0872 5.6599 -0.3659 0.9724
2.2923 5.6709 -0.3206 0.9758
1.5311 5.6756 -0.3081 0.9767
0.8169 5.6800 -0.3007 0.9773
0.1262 5.6842 -0.2980 0.9775
-0.5615 5.6855 -0.2994 0.9774
-1.9952 5.6451 -0.3138 0.9763
-2.7904 5.6267 -0.3292 0.9752
-3.6754 5.5973 -0.3509 0.9735
-4.8298 5.7146 -0.3921 0.9705
-6.1619 5.7228 -0.4407 0.9669
-5.1143 2.8419 -0.3066 0.9768
-21.0710 5.7385 -1.1445 0.9162
-30.4521 4.4543 -1.6129 0.8840
-45.1159 1.1099 -2.3651 0.8346
-43.7781 -9.6379 -2.3493 0.8356
-45.0404 -15.7980 -2.5015 0.8260
-39.9606 -26.1030 -2.5015 0.8260
-36.5285 -30.7227 -2.5015 0.8260
-12.6820 -22.6951 -1.3625 0.9011
-9.9038 -24.1670 -1.3688 0.9007
-7.3953 -26.9006 -1.4621 0.8943
4.4636 -47.5215 -2.5015 0.8260
10.1506 -46.6388 -2.5015 0.8260
15.6652 -45.0073 -2.4975 0.8262
19.7234 -40.2542 -2.3493 0.8356
24.4248 -37.5878 -2.3493 0.8356
25.9954 -31.0588 -2.1226 0.8502
27.3898 -25.6839 -1.9678 0.8604
45.9927 -12.7625 -2.5015 0.8260
47.1944 -7.1345 -2.5015 0.8260
47.7100 -1.4025 -2.5015 0.8260
44.6399 4.0851 -2.3493 0.8356
21.0133 7.2575 -1.1651 0.9148
21.1207 13.6525 -1.3180 0.9042
5.3257 5.6522 -0.4070 0.9694
4.1700 5.6593 -0.3684 0.9722
3.2015 5.6653 -0.3410 0.9743
2.3556 5.6705 -0.3218 0.9757
-0.5033 5.6494 -0.2972 0.9775
-2.7251 5.6299 -0.3278 0.9753
-6.0439 5.7221 -0.4362 0.9672
-7.7412 5.7325 -0.5048 0.9622
26.7928 1.7834 -2.3493 0.8978
7.2502 5.7404 -0.8091 0.9635
5.5950 5.6506 -0.6957 0.9686
0.3219 5.6830 -0.4980 0.9774
-0.3639 5.6719 -0.4972 0.9774
-1.0580 5.6622 -0.5039 0.9771
-1.7748 5.6302 -0.5165 0.9766
-5.7496 5.7203 -0.7096 0.9680
-7.3497 5.7301 -0.8154 0.9633
-12.8759 5.7641 -1.2342 0.9449
-26.4201 4.7972 -2.3493 0.8978
-27.2016 -1.6798 -2.3844 0.8963
-28.1179 -5.1840 -2.5015 0.8915
-24.4606 -14.8044 -2.5015 0.8915
-22.5010 -17.6407 -2.5015 0.8915
-18.9844 -18.9902 -2.3493 0.8978
-16.5609 -21.1370 -2.3493 0.8978
-13.3026 -21.9945 -2.2488 0.9019
-8.5661 -19.0128 -1.8244 0.9197
-7.7821 -24.9223 -2.2842 0.9005
-1.7535 -28.5379 -2.5015 0.8915
1.6939 -28.5415 -2.5015 0.8915
11.6903 -26.0926 -2.5015 0.8915
14.7457 -24.4960 -2.5015 0.8915
18.9447 -19.0298 -2.3493 0.8978
28.5336 -1.8219 -2.5015 0.8915
26.4301 4.7420 -2.3493 0.8978
21.3607 6.5649 -1.9551 0.9142
5.7026 5.6499 -0.7023 0.9683
4.4765 5.6575 -0.6312 0.9714
14.3551 23.4799 -2.4077 0.8954
2.5869 5.6691 -0.5452 0.9753
-1.0024 5.6648 -0.5033 0.9772
-1.7159 5.6313 -0.5150 0.9766
-9.2657 5.6955 -0.9515 0.9573
-26.7890 1.8395 -2.3493 0.8978
-27.3701 -8.2684 -2.5015 0.8915
-26.1760 -11.5024 -2.5015 0.8915
-16.7627 -20.9773 -2.3493 0.8978
-13.5208 -21.8788 -2.2502 0.9019
-5.1135 -26.3607 -2.3493 0.8978
-2.0270 -28.5198 -2.5015 0.8915
4.8467 -28.1780 -2.5015 0.8915
8.2029 -27.3898 -2.5015 0.8915
16.7375 -21.8841 -2.4104 0.8953
21.7961 -17.5028 -2.4456 0.8938
24.2861 -15.0889 -2.5015 0.8915
28.0554 -5.5120 -2.5015 0.8915
28.5177 1.3498 -2.4978 0.8917
26.4743 4.4884 -2.3493 0.8978
22.1744 12.9888 -2.2483 0.9020
5.8123 5.6492 -0.7091 0.9680
4.5650 5.6569 -0.6360 0.9712
-0.2555 5.6865 -0.4980 0.9774
-0.9469 5.6674 -0.5027 0.9772
-1.6579 5.6340 -0.5138 0.9767
-2.4259 5.6301 -0.5364 0.9757
-11.7776 5.5458 -1.1389 0.9491
-26.3299 5.3042 -2.3498 0.8978
-26.7702 2.0962 -2.3493 0.8978
-26.8279 -1.1410 -2.3493 0.8978
-28.2121 -4.6441 -2.5015 0.8915
-26.2850 -11.2510 -2.5015 0.8915
-24.7399 -14.3327 -2.5015 0.8915
-19.9353 -19.1912 -2.4210 0.8948
-13.7767 -21.8225 -2.2579 0.9016
-10.9998 -23.2158 -2.2476 0.9020
-5.3659 -26.3105 -2.3493 0.8978
-2.3002 -28.4991 -2.5015 0.8915
1.1464 -28.5688 -2.5015 0.8915
4.5764 -28.2231 -2.5015 0.8915
7.9399 -27.4672 -2.5015 0.8915
14.2734 -24.7741 -2.5015 0.8915
16.6251 -22.1744 -2.4247 0.8947
18.5764 -19.3895 -2.3493 0.8978
21.4747 -17.5859 -2.4284 0.8945
24.1403 -15.3211 -2.5015 0.8915
28.0013 -5.7807 -2.5015 0.8915
28.5714 1.0779 -2.5015 0.8915
21.8535 6.2605 -1.9888 0.9128
13.3139 5.6235 -1.2645 0.9436
22.6646 12.9858 -2.2853 0.9004
5.9242 5.6486 -0.7161 0.9677
4.6548 5.6564 -0.6409 0.9710
3.5919 5.6297 -0.5842 0.9735
2.7190 5.6683 -0.5500 0.9751
1.9218 5.6732 -0.5240 0.9762
-0.8915 5.6700 -0.5022 0.9772
-1.6002 5.6367 -0.5126 0.9767
-2.3632 5.6326 -0.5344 0.9758
-3.1863 5.5923 -0.5631 0.9745
-4.1313 5.5657 -0.6064 0.9726
-6.9261 5.7275 -0.7863 0.9646
-8.9059 5.7124 -0.9257 0.9584
-11.5256 5.5627 -1.1197 0.9499
-16.9555 5.7892 -1.5675 0.9306
-26.2870 5.5582 -2.3507 0.8977
-26.7488 2.3527 -2.3493 0.8978
-26.8375 -0.8837 -2.3493 0.8978
-26.3917 -10.9985 -2.5015 0.8915
-24.8761 -14.0950 -2.5015 0.8915
-20.5325 -19.3903 -2.4708 0.8928
-5.6179 -26.2579 -2.3493 0.8978
4.3057 -28.2657 -2.5015 0.8915
7.6763 -27.5420 -2.5015 0.8915
16.5133 -22.4708 -2.4397 0.8941
18.3896 -19.5667 -2.3493 0.8978
21.1720 -17.6798 -2.4132 0.8952
23.9923 -15.5518 -2.5015 0.8915
25.6896 -12.5512 -2.5015 0.8915
28.4695 -2.6416 -2.5015 0.8915
28.5804 0.8040 -2.5015 0.8915
26.5555 3.9801 -2.3493 0.8978
21.4831 12.0368 -2.1544 0.9059
4.7459 5.6558 -0.6459 0.9708
1.9825 5.6728 -0.5257 0.9762
1.2431 5.6773 -0.5085 0.9769
-0.8363 5.6726 -0.5017 0.9772
-3.1176 5.5957 -0.5604 0.9746
-5.3224 5.7177 -0.6834 0.9691
-6.7915 5.7267 -0.7772 0.9650
-8.7332 5.7205 -0.9134 0.9589
-26.2417 5.8120 -2.3515 0.8977
-26.7251 2.6090 -2.3493 0.8978
-26.8448 -0.6265 -2.3493 0.8978
-28.2959 -4.1024 -2.5015 0.8915
-27.5965 -7.4781 -2.5015 0.8915
-26.4959 -10.7450 -2.5015 0.8915
-20.9309 -19.3903 -2.4962 0.8918
-14.4227 -21.9040 -2.2945 0.9001
-11.4351 -22.9849 -2.2460 0.9021
-2.8381 -28.3688 -2.4943 0.8918
0.5985 -28.5855 -2.5015 0.8915
4.0346 -28.3057 -2.5015 0.8915
7.4119 -27.6144 -2.5015 0.8915
13.7959 -25.0432 -2.5015 0.8915
16.4087 -22.7830 -2.4564 0.8934
20.8877 -17.7849 -2.4001 0.8957
26.9224 -9.6265 -2.5015 0.8915
28.4428 -2.9143 -2.5015 0.8915
26.5924 3.7254 -2.3493 0.8978
8.5069 6.0959 -0.9156 0.9588
6.8571 6.2916 -0.8142 0.9633
4.8386 5.6552 -0.6512 0.9706
2.0436 5.6724 -0.5275 0.9761
1.3002 5.6770 -0.5095 0.9769
-0.7812 5.6752 -0.5012 0.9773
-1.4854 5.6421 -0.5104 0.9768
-3.0496 5.5991 -0.5578 0.9747
-5.2204 5.7171 -0.6773 0.9694
-6.6599 5.7259 -0.7684 0.9653
-8.5650 5.7283 -0.9015 0.9595
-25.1904 5.8331 -2.2622 0.9014
-26.6988 2.8650 -2.3493 0.8978
-27.6669 -7.2133 -2.5015 0.8915
-26.5977 -10.4906 -2.5015 0.8915
-23.3203 -16.5424 -2.5015 0.8915
-17.5545 -20.3194 -2.3493 0.8978
-14.7537 -21.9457 -2.3136 0.8993
-6.1202 -26.1453 -2.3493 0.8978
-2.9290 -26.6919 -2.3493 0.8978
0.3246 -28.5899 -2.5015 0.8915
7.1469 -27.6841 -2.5015 0.8915
10.4269 -26.6227 -2.5015 0.8915
13.5551 -25.1743 -2.5015 0.8915
16.3174 -23.1204 -2.4758 0.8926
18.0112 -19.9156 -2.3493 0.8978
20.6144 -17.8959 -2.3883 0.8962
23.6898 -16.0088 -2.5015 0.8915
25.4443 -13.0412 -2.5015 0.8915
27.8235 -6.5834 -2.5015 0.8915
28.5906 0.2560 -2.5015 0.8915
20.6141 5.2691 -1.8615 0.9181
8.5650 6.0141 -0.9156 0.9588
4.9328 5.6547 -0.6565 0.9703
3.8455 5.6613 -0.5988 0.9729
2.1051 5.6720 -0.5293 0.9760
-0.0373 5.6852 -0.4974 0.9774
-5.1202 5.7164 -0.6714 0.9697
-8.3705 5.7152 -0.8867 0.9601
-10.8176 5.6101 -1.0661 0.9522
-26.6701 3.1208 -2.3493 0.8978
-26.8519 -0.1117 -2.3493 0.8978
-23.4778 -16.3182 -2.5015 0.8915
-21.3432 -19.0251 -2.5015 0.8915
-11.8699 -22.7543 -2.2453 0.9021
-9.1188 -24.2134 -2.2636 0.9013
-6.3705 -26.0855 -2.3493 0.8978
-3.1847 -26.6626 -2.3493 0.8978
0.0504 -28.5917 -2.5015 0.8915
6.8811 -27.7514 -2.5015 0.8915
13.3133 -25.3031 -2.5015 0.8915
16.2140 -23.4478 -2.4941 0.8918
17.8195 -20.0874 -2.3493 0.8978
20.3539 -18.0148 -2.3780 0.8966
26.7330 -10.1409 -2.5015 0.8915
28.3817 -3.4591 -2.5015 0.8915
22.2060 2.6779 -1.9568 0.9141
22.5986 5.5461 -2.0358 0.9108
21.3903 8.0833 -2.0006 0.9123
8.6222 5.9317 -0.9156 0.9588
5.0285 5.6541 -0.6620 0.9701
3.9250 5.6608 -0.6027 0.9727
2.9906 5.6666 -0.5606 0.9746
1.4151 5.6763 -0.5118 0.9768
-2.1127 5.6316 -0.5262 0.9761
-2.9153 5.6058 -0.5528 0.9749
-3.8095 5.5659 -0.5901 0.9733
-5.2019 2.7614 -0.5153 0.9766
-7.6055 2.9268 -0.7130 0.9678
-21.8444 5.5014 -1.9708 0.9135
-26.6390 3.3763 -2.3493 0.8978
-28.4022 -3.2872 -2.5015 0.8915
-27.8001 -6.6815 -2.5015 0.8915
-26.7939 -9.9788 -2.5015 0.8915
