ply
format ascii 1.0
element vertex 1548
property float32 x
property float32 y
property float32 z
property float32 I
end_header
23.8025 21.6694 -0.5619 0.8792
4.0863 6.0906 -0.1280 0.9711
2.8807 5.6673 -0.1110 0.9749
2.0680 5.6723 -0.1054 0.9761
1.3229 5.6769 -0.1017 0.9770
0.6174 5.6791 -0.0997 0.9774
-0.0704 5.6854 -0.0992 0.9775
-3.0795 5.7039 -0.1131 0.9744
-11.2922 5.7706 -0.2213 0.9505
-15.7532 5.7818 -0.2929 0.9351
-32.6117 -0.3338 -0.5693 0.8777
-84.1241 -11.0752 -1.4811 0.7122
-84.1682 -32.8617 -1.5772 0.6966
-70.0725 -37.6371 -1.3884 0.7274
-72.9900 -51.4021 -1.5583 0.6997
-19.5101 -22.4294 -0.5189 0.8879
-15.5623 -22.9814 -0.4845 0.8949
-12.5405 -24.4104 -0.4790 0.8960
-9.0983 -38.2981 -0.6871 0.8543
14.5657 -57.1830 -1.0300 0.7897
22.3879 -41.8978 -0.8292 0.8269
31.2277 -27.2814 -0.7238 0.8471
74.4017 -27.6707 -1.3856 0.7279
43.6263 16.8174 -0.8161 0.8294
32.4132 17.2305 -0.6407 0.8634
24.0491 16.7820 -0.5119 0.8893
23.8002 21.2963 -0.5575 0.8801
23.5022 26.7855 -0.6220 0.8671
4.1253 6.0360 -0.1276 0.9712
2.9421 5.6669 -0.1115 0.9748
-0.0216 5.6851 -0.0992 0.9775
-0.7118 5.6893 -0.1001 0.9773
-2.1826 5.6984 -0.1065 0.9759
-5.0569 5.6760 -0.1327 0.9700
-6.4016 5.6413 -0.1489 0.9664
-8.3546 5.7363 -0.1769 0.9603
-23.7249 5.7981 -0.4263 0.9069
-84.0076 -10.3265 -1.4774 0.7128
-66.7166 -16.5371 -1.1998 0.7596
-84.0738 -31.9954 -1.5702 0.6978
-72.7766 -50.3217 -1.5444 0.7019
-28.8965 -25.6336 -0.6742 0.8568
-19.8969 -22.4809 -0.5240 0.8868
-15.7477 -22.8302 -0.4841 0.8950
-12.7594 -24.3204 -0.4794 0.8959
-9.0227 -74.0970 -1.3029 0.7418
22.1762 -90.2980 -1.6230 0.6894
23.1573 -33.6448 -0.7129 0.8493
39.4425 -27.3319 -0.8376 0.8253
40.4553 -21.3356 -0.7983 0.8328
33.0881 17.2264 -0.6511 0.8614
24.4908 16.7793 -0.5182 0.8880
23.7979 20.9288 -0.5532 0.8809
23.8335 26.6967 -0.6246 0.8666
3.0040 5.6665 -0.1119 0.9747
1.4260 5.6762 -0.1022 0.9769
0.7165 5.6806 -0.0999 0.9774
-0.6621 5.6890 -0.1000 0.9773
-1.3723 5.6934 -0.1022 0.9768
-3.8772 5.6852 -0.1201 0.9728
-6.2912 5.6408 -0.1475 0.9668
-8.2012 5.7354 -0.1747 0.9608
-10.7927 5.7513 -0.2135 0.9523
-22.9369 5.8148 -0.4130 0.9097
-66.0698 -7.5456 -1.1607 0.7664
-49.2996 -11.7712 -0.8847 0.8165
-84.2215 -31.2256 -1.5679 0.6981
-10.5263 -27.0513 -0.5067 0.8904
14.5995 -39.6386 -0.7373 0.8445
-45.0285 1.8781 -2.3619 0.8348
-44.6900 -3.5370 -2.3494 0.8356
-43.9393 -8.8908 -2.3494 0.8356
-45.3060 -15.0296 -2.5016 0.8260
-43.1674 -20.3739 -2.5016 0.8260
-34.7932 -28.2690 -2.3494 0.8356
-16.6457 -22.0260 -1.4469 0.8953
-10.8124 -25.1638 -1.4354 0.8961
-9.1045 -31.0573 -1.6961 0.8784
3.6639 -47.5930 -2.5016 0.8260
14.0238 -42.5798 -2.3494 0.8356
19.0472 -40.5821 -2.3494 0.8356
23.0331 -36.7797 -2.2743 0.8404
28.0078 -27.1567 -2.0445 0.8553
47.0726 -7.9179 -2.5016 0.8260
44.7048 3.3450 -2.3494 0.8356
44.0417 8.7147 -2.3529 0.8354
17.9355 8.3711 -1.0373 0.9238
5.3587 7.0277 -0.4632 0.9652
2.4651 5.6698 -0.3240 0.9755
1.6900 5.6746 -0.3103 0.9766
0.9678 5.6790 -0.3019 0.9772
0.2737 5.6833 -0.2982 0.9775
-2.6460 5.7013 -0.3294 0.9751
-7.4826 5.7310 -0.4939 0.9630
-12.9969 5.6840 -0.7434 0.9448
-45.0315 2.2660 -2.3630 0.8348
-45.4335 -14.6397 -2.5016 0.8260
-40.6180 -25.0739 -2.5016 0.8260
-35.0349 -27.9689 -2.3494 0.8356
-7.7209 -44.1598 -2.3494 0.8356
-2.5014 -47.6683 -2.5016 0.8260
3.2548 -47.6228 -2.5016 0.8260
8.9637 -46.8847 -2.5016 0.8260
13.6573 -42.6987 -2.3494 0.8356
20.5481 -33.4471 -2.0572 0.8545
23.1848 -29.1703 -1.9528 0.8614
26.1727 -25.8174 -1.9267 0.8631
35.2004 -27.2010 -2.3314 0.8368
37.9018 -22.5773 -2.3121 0.8380
34.0757 -15.0773 -1.9528 0.8614
45.6593 -13.9195 -2.5016 0.8260
47.6628 -2.6037 -2.5016 0.8260
44.7319 2.9607 -2.3494 0.8356
17.2411 5.4739 -0.9480 0.9301
17.9319 8.1825 -1.0330 0.9241
23.8171 24.0413 -1.7735 0.8732
4.3755 5.6372 -0.3740 0.9718
3.8468 6.4264 -0.3925 0.9704
2.5231 5.6695 -0.3252 0.9755
1.7432 5.6743 -0.3111 0.9765
1.0180 5.6787 -0.3024 0.9772
0.3227 5.6830 -0.2983 0.9775
-0.3642 5.6872 -0.2987 0.9774
-1.0628 5.6915 -0.3034 0.9771
-1.7950 5.6960 -0.3130 0.9764
-2.5866 5.7009 -0.3281 0.9752
-3.4679 5.6996 -0.3496 0.9736
-4.4575 5.6580 -0.3775 0.9716
-12.7100 5.6892 -0.7298 0.9457
-18.7369 5.8001 -1.0279 0.9244
-30.2188 5.4844 -1.6096 0.8842
-22.6575 -22.6752 -1.6799 0.8795
-17.2035 -21.9688 -1.4623 0.8943
-11.2760 -25.0470 -1.4395 0.8958
-8.1001 -44.0919 -2.3494 0.8356
18.3470 -40.9034 -2.3494 0.8356
23.0243 -38.2102 -2.3380 0.8364
23.2856 -29.8197 -1.9828 0.8594
25.1214 -25.2099 -1.8652 0.8671
37.7064 -22.9021 -2.3121 0.8380
33.2965 -15.0760 -1.9155 0.8638
45.5380 -14.3113 -2.5016 0.8260
47.6387 -3.0131 -2.5016 0.8260
38.6022 6.9512 -2.0556 0.8546
23.8145 23.6292 -1.7582 0.8743
5.5217 6.9891 -0.4668 0.9650
3.8874 6.3695 -0.3911 0.9706
1.0684 5.6784 -0.3028 0.9771
0.3717 5.6827 -0.2985 0.9774
-0.3151 5.6869 -0.2985 0.9774
-1.0122 5.6912 -0.3029 0.9771
-2.5276 5.7005 -0.3268 0.9753
-4.3819 5.6615 -0.3752 0.9717
-7.0592 5.6018 -0.4723 0.9645
-9.3637 5.7425 -0.5757 0.9570
-45.0270 3.0423 -2.3651 0.8346
-44.1538 -7.7552 -2.3494 0.8356
-45.6784 -13.8568 -2.5016 0.8260
-41.0430 -24.3721 -2.5016 0.8260
-32.6992 -25.1965 -2.1634 0.8476
-23.2317 -22.8536 -1.7079 0.8776
-14.3085 -23.2190 -1.4294 0.8965
-8.4787 -44.0206 -2.3494 0.8356
8.1566 -47.0318 -2.5016 0.8260
17.9948 -41.0596 -2.3494 0.8356
22.8065 -38.5950 -2.3494 0.8356
24.6881 -25.2047 -1.8490 0.8682
37.5082 -23.2253 -2.3121 0.8380
32.5737 -15.0873 -1.8813 0.8661
46.8529 -9.1287 -2.5016 0.8260
39.1965 6.7111 -2.0841 0.8528
18.5117 5.5289 -1.0125 0.9255
18.1406 13.8546 -1.1963 0.9126
23.8120 23.2240 -1.7432 0.8753
3.9278 6.3129 -0.3897 0.9707
2.6404 5.6687 -0.3277 0.9753
1.1190 5.6781 -0.3033 0.9771
-0.2661 5.6866 -0.2983 0.9775
-2.4690 5.7002 -0.3256 0.9754
-15.5301 26.5410 -1.6116 0.8841
-4.3073 5.6650 -0.3730 0.9719
-5.4869 5.6500 -0.4128 0.9689
-9.1838 5.7414 -0.5676 0.9575
-12.1972 5.7133 -0.7059 0.9475
-28.4540 5.6709 -1.5205 0.8903
-45.0197 3.4307 -2.3662 0.8346
-45.7958 -13.4637 -2.5016 0.8260
-38.0598 -28.8093 -2.5016 0.8260
-23.7737 -22.9880 -1.7331 0.8759
-17.6943 -21.8127 -1.4720 0.8936
-11.5961 -24.6187 -1.4262 0.8967
-8.8567 -43.9461 -2.3494 0.8356
2.0261 -47.6908 -2.5016 0.8260
12.9727 -44.4784 -2.4281 0.8306
23.2790 -30.8914 -2.0272 0.8565
24.3981 -25.3407 -1.8435 0.8686
45.2853 -15.0918 -2.5016 0.8260
47.5799 -3.8314 -2.5016 0.8260
19.2076 5.5574 -1.0479 0.9230
23.8485 29.1423 -1.9735 0.8600
1.9042 5.6733 -0.3136 0.9763
1.1697 5.6778 -0.3038 0.9770
0.4671 5.6483 -0.2970 0.9776
-0.2171 5.6863 -0.2982 0.9775
-4.2336 5.6685 -0.3708 0.9721
-6.8152 5.6016 -0.4623 0.9653
-9.0090 5.7403 -0.5598 0.9581
-17.1289 5.7902 -0.9476 0.9301
-26.4412 5.5064 -1.4154 0.8975
-45.9098 -13.0696 -2.5016 0.8260
-44.0028 -18.5008 -2.5016 0.8260
-41.4558 -23.6630 -2.5016 0.8260
-38.3059 -28.4813 -2.5016 0.8260
-14.7784 -23.0838 -1.4364 0.8960
-11.7942 -24.4914 -1.4246 0.8968
-9.7912 -28.7611 -1.5923 0.8854
-4.1380 -47.5542 -2.5016 0.8260
1.6163 -47.7065 -2.5016 0.8260
12.9329 -45.8027 -2.4943 0.8264
17.2864 -41.3628 -2.3494 0.8356
22.1397 -38.9813 -2.3494 0.8356
21.2738 -28.7412 -1.8740 0.8666
32.7874 -27.1861 -2.2322 0.8432
39.1922 6.0189 -2.0781 0.8531
17.9297 7.4480 -1.0175 0.9252
17.9722 10.1565 -1.0819 0.9206
18.1304 13.3597 -1.1803 0.9137
23.8454 28.6330 -1.9528 0.8614
4.0076 6.2010 -0.3869 0.9709
1.2206 5.6775 -0.3043 0.9770
4.3347 47.4516 -2.4972 0.8262
-0.1682 5.6860 -0.2981 0.9775
-0.8614 5.6903 -0.3016 0.9772
-1.5816 5.6947 -0.3097 0.9766
-4.1607 5.6719 -0.3687 0.9722
-5.3095 5.6589 -0.4067 0.9694
-8.8388 5.7393 -0.5523 0.9587
-11.7169 5.7358 -0.6837 0.9491
-8.0685 2.8050 -0.4477 0.9664
-25.8233 5.6097 -1.3849 0.8996
-44.9946 4.2077 -2.3684 0.8344
-44.8796 -1.2309 -2.3529 0.8354
-46.0204 -12.6748 -2.5016 0.8260
-44.1601 -18.1221 -2.5016 0.8260
-41.6576 -23.3060 -2.5016 0.8260
-25.3071 -23.6428 -1.8150 0.8705
-14.9980 -22.9895 -1.4385 0.8959
-12.0063 -24.3932 -1.4249 0.8968
-9.9253 -28.3536 -1.5744 0.8866
6.9414 -47.2265 -2.5016 0.8260
16.9305 -41.5098 -2.3494 0.8356
21.8040 -39.1700 -2.3494 0.8356
20.8923 -28.7388 -1.8620 0.8673
24.3927 -26.2224 -1.8769 0.8664
32.2156 -27.1826 -2.2091 0.8446
30.4947 -15.0908 -1.7832 0.8726
47.5070 -4.6486 -2.5016 0.8260
19.3830 2.8064 -1.0264 0.9246
20.5276 5.5588 -1.1146 0.9183
17.9309 7.2686 -1.0140 0.9254
18.1255 13.1174 -1.1726 0.9143
23.3386 27.5397 -1.8919 0.8654
4.0471 6.1456 -0.3856 0.9710
2.8199 5.6676 -0.3318 0.9750
1.2716 5.6772 -0.3049 0.9770
4.7419 47.4094 -2.4970 0.8263
-2.2959 5.6991 -0.3220 0.9757
-3.1433 5.7043 -0.3413 0.9742
-5.2189 5.6589 -0.4034 0.9696
-8.6731 5.7383 -0.5450 0.9592
-8.0387 2.8723 -0.4474 0.9664
-46.1276 -12.2788 -2.5016 0.8260
-41.8563 -22.9472 -2.5016 0.8260
-38.7898 -27.8186 -2.5016 0.8260
-15.1895 -22.8514 -1.4380 0.8959
-10.0418 -27.9148 -1.5547 0.8880
-4.9548 -47.4760 -2.5016 0.8260
0.7963 -47.7272 -2.5016 0.8260
16.5731 -41.6538 -2.3494 0.8356
21.4666 -39.3560 -2.3494 0.8356
44.8813 -16.2541 -2.5016 0.8260
46.5115 -10.7334 -2.5016 0.8260
47.4653 -5.0567 -2.5016 0.8260
47.7288 0.6936 -2.5016 0.8260
21.2329 5.5545 -1.1502 0.9158
23.5007 21.3947 -1.6656 0.8805
4.0863 6.0906 -0.3844 0.9710
2.8807 5.6673 -0.3332 0.9749
2.0680 5.6723 -0.3164 0.9761
1.3229 5.6769 -0.3055 0.9769
-1.4765 5.6941 -0.3083 0.9767
-5.1293 5.6586 -0.4003 0.9699
-8.5117 5.7373 -0.5380 0.9597
-15.7532 5.7818 -0.8794 0.9350
-24.2479 5.7055 -1.3055 0.9050
-38.6335 4.2837 -2.0371 0.8558
-44.4462 -5.8515 -2.3494 0.8356
-44.4650 -17.3604 -2.5016 0.8260
-42.0519 -22.5867 -2.5016 0.8260
-39.0273 -27.4844 -2.5016 0.8260
-15.4530 -22.8200 -1.4443 0.8955
-10.1188 -27.3876 -1.5302 0.8896
-8.8084 -37.0777 -1.9972 0.8584
-5.3624 -47.4317 -2.5016 0.8260
6.1289 -47.3388 -2.5016 0.8260
20.1676 -37.7425 -2.2427 0.8425
31.1069 -27.1758 -2.1647 0.8475
26.5163 -18.0392 -1.6808 0.8794
40.6541 -15.1196 -2.2732 0.8405
46.4175 -11.1328 -2.5016 0.8260
47.7330 0.2835 -2.5016 0.8260
39.1859 4.9878 -2.0702 0.8537
17.9331 6.9130 -1.0072 0.9259
17.9592 9.5469 -1.0659 0.9218
18.6444 13.0105 -1.1915 0.9130
23.4985 21.0263 -1.6525 0.8813
23.5022 26.7855 -1.8675 0.8670
4.1253 6.0360 -0.3832 0.9711
2.9421 5.6669 -0.3346 0.9747
1.3744 5.6765 -0.3061 0.9769
0.6629 5.6456 -0.2979 0.9775
-0.0216 5.6851 -0.2979 0.9775
-0.7118 5.6893 -0.3005 0.9773
-2.1826 5.6984 -0.3198 0.9759
-3.0162 5.7035 -0.3381 0.9745
-5.0411 5.6583 -0.3972 0.9701
-14.8650 5.6012 -0.8325 0.9384
-23.5263 5.7496 -1.2692 0.9075
-35.6677 4.2655 -1.8826 0.8660
-44.4948 -5.4694 -2.3494 0.8356
-44.6125 -16.9779 -2.5016 0.8260
-39.2621 -27.1480 -2.5016 0.8260
-19.6842 -22.2407 -1.5565 0.8878
-15.6564 -22.6978 -1.4451 0.8954
-8.8139 -35.7325 -1.9288 0.8629
5.7218 -47.3897 -2.5016 0.8260
15.8549 -41.9324 -2.3494 0.8356
20.7871 -39.7190 -2.3494 0.8356
22.8541 -33.2044 -2.1125 0.8509
24.0540 -27.2334 -1.9042 0.8646
36.8475 -25.5337 -2.3494 0.8356
30.0515 -15.8488 -1.7805 0.8728
39.6141 -15.1215 -2.2222 0.8438
46.3202 -11.5311 -2.5016 0.8260
47.7337 -0.1267 -2.5016 0.8260
22.7892 5.5449 -1.2292 0.9103
18.2576 9.5053 -1.0787 0.9209
18.9869 13.0084 -1.2062 0.9119
23.8335 26.6967 -1.8755 0.8665
4.1640 5.9816 -0.3820 0.9712
0.7165 5.6806 -0.3001 0.9773
0.0273 5.6848 -0.2979 0.9775
-0.6621 5.6890 -0.3002 0.9773
-1.3723 5.6934 -0.3069 0.9768
-4.9543 5.6579 -0.3941 0.9703
-10.7927 5.7513 -0.6409 0.9522
-22.9369 5.8148 -1.2401 0.9096
-44.9814 0.3126 -2.3574 0.8351
-44.5402 -5.0868 -2.3494 0.8356
-45.6844 -10.9080 -2.4615 0.8285
-39.4939 -26.8095 -2.5016 0.8260
-20.0480 -22.2634 -1.5701 0.8869
-15.8228 -22.5225 -1.4425 0.8956
-5.9650 -45.7087 -2.4158 0.8314
10.9860 -46.4525 -2.5016 0.8260
14.5995 -39.6386 -2.2138 0.8443
-19.9700 5.8077 -1.8195 0.9199
-26.5009 4.3406 -2.3494 0.8978
-28.5046 -2.2560 -2.5016 0.8915
-28.0257 -5.6708 -2.5016 0.8915
-25.8583 -12.2044 -2.5016 0.8915
-18.6521 -19.3194 -2.3494 0.8978
-13.4943 -23.2173 -2.3494 0.8978
-10.6014 -24.6728 -2.3494 0.8978
-7.5544 -25.7696 -2.3494 0.8978
2.1948 -28.5093 -2.5016 0.8915
5.6106 -28.0378 -2.5016 0.8915
8.9448 -27.1586 -2.5016 0.8915
12.1489 -25.8845 -2.5016 0.8915
15.8430 -19.5853 -2.2039 0.9038
24.6904 -14.4215 -2.5016 0.8915
26.2469 -11.3446 -2.5016 0.8915
27.4216 -8.1027 -2.5016 0.8915
28.1976 -4.7430 -2.5016 0.8915
26.3433 5.2127 -2.3494 0.8978
12.2276 5.7070 -1.1806 0.9473
18.4398 11.4928 -1.9010 0.9165
18.5419 14.9332 -2.0829 0.9088
19.0851 19.5987 -2.3933 0.8960
5.3587 7.0277 -0.7732 0.9651
2.4651 5.6698 -0.5409 0.9755
1.6900 5.6746 -0.5180 0.9765
0.9678 5.6790 -0.5040 0.9771
-0.4133 5.6875 -0.4989 0.9774
-1.1136 5.6918 -0.5074 0.9770
-1.8490 5.6963 -0.5240 0.9762
-2.6460 5.7013 -0.5499 0.9751
-5.7449 5.6184 -0.7030 0.9682
-9.7391 5.7448 -0.9893 0.9556
-26.4626 4.5682 -2.3494 0.8978
-26.8201 1.3496 -2.3494 0.8978
-25.9622 -11.9818 -2.5016 0.8915
-24.3312 -15.0198 -2.5016 0.8915
-22.3463 -17.8394 -2.5016 0.8915
-18.8174 -19.1585 -2.3494 0.8978
-16.3744 -21.2842 -2.3494 0.8978
-10.8131 -24.5808 -2.3494 0.8978
-7.7756 -25.7037 -2.3494 0.8978
-4.9246 -28.1664 -2.5016 0.8915
-1.4984 -28.5544 -2.5016 0.8915
1.9497 -28.5271 -2.5016 0.8915
5.3694 -28.0850 -2.5016 0.8915
14.0569 -22.8811 -2.3494 0.8978
15.6814 -19.7299 -2.2050 0.9038
24.5656 -14.6332 -2.5016 0.8915
27.3510 -8.3381 -2.5016 0.8915
26.8732 1.7787 -2.3562 0.8975
26.3871 4.9861 -2.3494 0.8978
18.5335 14.6657 -2.0677 0.9095
4.3755 5.6372 -0.6243 0.9718
2.5231 5.6695 -0.5429 0.9754
1.7432 5.6743 -0.5193 0.9764
-0.3642 5.6872 -0.4986 0.9774
-1.0628 5.6915 -0.5065 0.9770
-1.7950 5.6960 -0.5225 0.9763
-2.5866 5.7009 -0.5477 0.9752
-3.4679 5.6996 -0.5837 0.9736
-4.4575 5.6580 -0.6302 0.9715
-9.5487 5.7437 -0.9749 0.9562
-18.7369 5.8001 -1.7160 0.9243
-26.4224 4.7954 -2.3494 0.8978
-26.8075 1.5800 -2.3494 0.8978
-28.5391 -1.7658 -2.5016 0.8915
-28.1191 -5.1883 -2.5016 0.8915
-27.2901 -8.5354 -2.5016 0.8915
-26.0642 -11.7582 -2.5016 0.8915
-24.4593 -14.8102 -2.5016 0.8915
-16.5567 -21.1428 -2.3494 0.8978
-11.4754 -18.9850 -1.9408 0.9148
-11.0239 -24.4870 -2.3494 0.8978
-7.9961 -25.6359 -2.3494 0.8978
-1.7437 -28.5405 -2.5016 0.8915
5.1279 -28.1301 -2.5016 0.8915
8.4767 -27.3083 -2.5016 0.8915
11.7022 -26.0894 -2.5016 0.8915
13.8597 -23.0010 -2.3494 0.8978
16.5277 -21.1654 -2.3494 0.8978
18.9552 -19.0221 -2.3494 0.8978
26.0480 -11.7940 -2.5016 0.8915
26.4290 4.7592 -2.3494 0.8978
17.3213 5.3359 -1.5857 0.9298
18.4276 11.0501 -1.8799 0.9173
19.4088 19.2577 -2.3921 0.8960
0.3717 5.6827 -0.4982 0.9774
-0.3151 5.6869 -0.4983 0.9774
-1.7412 5.6957 -0.5211 0.9764
-2.5276 5.7005 -0.5456 0.9753
-3.3999 5.6975 -0.5805 0.9737
-4.3819 5.6615 -0.6263 0.9717
-5.5601 5.6279 -0.6921 0.9687
-7.0061 5.5597 -0.7825 0.9647
-9.3637 5.7425 -0.9610 0.9569
-26.3802 5.0223 -2.3494 0.8978
-28.5396 -1.5198 -2.5004 0.8916
-27.3624 -8.3005 -2.5016 0.8915
-22.6496 -17.4527 -2.5016 0.8915
-16.7377 -20.9997 -2.3494 0.8978
-11.6894 -18.9690 -1.9494 0.9144
-8.2161 -25.5663 -2.3494 0.8978
-5.4057 -28.0657 -2.5006 0.8916
-1.9889 -28.5244 -2.5016 0.8915
1.4592 -28.5564 -2.5016 0.8915
11.4776 -26.1890 -2.5016 0.8915
16.3452 -21.3067 -2.3494 0.8978
24.3105 -15.0532 -2.5016 0.8915
25.9457 -12.0174 -2.5016 0.8915
27.2036 -8.8069 -2.5016 0.8915
28.0659 -5.4683 -2.5016 0.8915
28.5201 -2.0501 -2.5016 0.8915
28.5121 1.3955 -2.4975 0.8917
26.4689 4.5319 -2.3494 0.8978
12.9081 5.6241 -1.2318 0.9450
18.5173 14.1422 -2.0385 0.9107
19.5683 19.0850 -2.3914 0.8961
3.9278 6.3129 -0.6505 0.9706
1.8502 5.6736 -0.5221 0.9763
0.4207 5.6824 -0.4985 0.9774
-0.9618 5.6909 -0.5049 0.9771
-5.4699 5.6325 -0.6869 0.9690
-6.8843 5.5600 -0.7742 0.9651
-22.7987 -17.2575 -2.5016 0.8915
-16.9176 -20.8551 -2.3494 0.8978
-11.4431 -24.2939 -2.3494 0.8978
-2.2339 -28.5063 -2.5016 0.8915
1.2137 -28.5679 -2.5016 0.8915
13.4624 -23.2358 -2.3494 0.8978
16.1615 -21.4463 -2.3494 0.8978
18.6255 -19.3450 -2.3494 0.8978
21.2537 -17.3168 -2.3985 0.8958
24.1803 -15.2615 -2.5016 0.8915
27.1270 -9.0403 -2.5016 0.8915
28.5701 1.1523 -2.5016 0.8915
19.1118 5.5297 -1.7407 0.9232
13.2160 5.6236 -1.2566 0.9440
18.5094 13.8860 -2.0244 0.9113
19.7262 18.9111 -2.3908 0.8961
17.3687 21.2241 -2.3994 0.8957
1.1697 5.6778 -0.5072 0.9770
0.4671 5.6483 -0.4958 0.9775
-0.2171 5.6863 -0.4978 0.9774
-0.9115 5.6906 -0.5042 0.9771
-3.2547 5.6735 -0.5722 0.9741
-6.7712 5.5655 -0.7668 0.9654
-28.2435 -4.4617 -2.5016 0.8915
-27.5010 -7.8290 -2.5016 0.8915
-24.8330 -14.1747 -2.5016 0.8915
-17.0962 -20.7089 -2.3494 0.8978
-11.6514 -24.1948 -2.3494 0.8978
-5.7937 -27.5247 -2.4609 0.8932
-2.4788 -28.4860 -2.5016 0.8915
13.3239 -23.4594 -2.3604 0.8973
18.4586 -19.5043 -2.3494 0.8978
20.8901 -17.3213 -2.3742 0.8968
24.0482 -15.4688 -2.5016 0.8915
28.4807 -2.5399 -2.5016 0.8915
28.5793 0.9068 -2.5016 0.8915
26.5429 4.0763 -2.3494 0.8978
19.8644 5.5629 -1.8048 0.9205
18.4104 10.4041 -1.8501 0.9186
18.5018 13.6333 -2.0107 0.9118
19.8826 18.7357 -2.3901 0.8961
17.5462 21.0691 -2.3988 0.8958
4.0076 6.2010 -0.6460 0.9708
1.9585 5.6729 -0.5251 0.9762
1.4065 15.3965 -1.3526 0.9398
-0.1682 5.6860 -0.4977 0.9774
-0.8614 5.6903 -0.5035 0.9772
-1.5816 5.6947 -0.5171 0.9765
-4.1607 5.6719 -0.6154 0.9722
-5.2929 5.6411 -0.6768 0.9694
-6.6606 5.5712 -0.7597 0.9657
-8.8388 5.7393 -0.9220 0.9586
-8.0685 2.8050 -0.7473 0.9663
-26.2420 5.7006 -2.3494 0.8978
-28.2807 -4.2189 -2.5016 0.8915
-24.9538 -13.9609 -2.5016 0.8915
-23.0919 -16.8631 -2.5016 0.8915
-19.6229 -18.3325 -2.3494 0.8978
-14.6729 -22.4911 -2.3494 0.8978
-11.8589 -24.0937 -2.3494 0.8978
-5.8159 -26.4980 -2.3735 0.8968
-2.7235 -28.4637 -2.5016 0.8915
0.7226 -28.5846 -2.5016 0.8915
4.1581 -28.2897 -2.5016 0.8915
7.5333 -27.5835 -2.5016 0.8915
10.7988 -26.4761 -2.5016 0.8915
13.2618 -23.8244 -2.3855 0.8963
15.7905 -21.7209 -2.3494 0.8978
18.2903 -19.6623 -2.3494 0.8978
20.5392 -17.3304 -2.3512 0.8977
23.9144 -15.6749 -2.5016 0.8915
25.6274 -12.6822 -2.5016 0.8915
26.9676 -9.5051 -2.5016 0.8915
27.9157 -6.1899 -2.5016 0.8915
28.4578 -2.7846 -2.5016 0.8915
19.3216 2.7976 -1.7080 0.9246
18.3393 7.4341 -1.7313 0.9236
18.4049 10.1934 -1.8407 0.9190
18.4943 13.3842 -1.9973 0.9124
20.0373 18.5591 -2.3895 0.8961
17.7223 20.9124 -2.3982 0.8958
2.8199 5.6676 -0.5538 0.9749
-1.5289 5.6944 -0.5158 0.9766
-8.6731 5.7383 -0.9098 0.9591
-11.4534 5.7294 -1.1204 0.9499
-26.7149 2.7300 -2.3494 0.8978
-19.9319 -18.3030 -2.3675 0.8970
-17.4495 -20.4121 -2.3494 0.8978
-2.9680 -28.4392 -2.5016 0.8915
0.4770 -28.5897 -2.5016 0.8915
3.9149 -28.3244 -2.5016 0.8915
13.1984 -24.1974 -2.4114 0.8952
25.5174 -12.9020 -2.5016 0.8915
27.8614 -6.4296 -2.5016 0.8915
26.6090 3.6196 -2.3494 0.8978
21.2329 5.5545 -1.9201 0.9156
18.3996 9.9848 -1.8315 0.9194
18.4869 13.1383 -1.9842 0.9130
17.8970 20.7542 -2.3976 0.8958
4.0863 6.0906 -0.6417 0.9710
2.8807 5.6673 -0.5562 0.9748
2.0680 5.6723 -0.5282 0.9760
1.3229 5.6769 -0.5100 0.9769
0.6174 5.6791 -0.4998 0.9773
-0.0704 5.6854 -0.4974 0.9774
-4.0174 5.6787 -0.6086 0.9725
-5.1131 5.6407 -0.6661 0.9699
-6.4455 5.5823 -0.7460 0.9663
-8.5117 5.7373 -0.8981 0.9596
-11.2922 5.7706 -1.1095 0.9504
-26.6905 2.9595 -2.3494 0.8978
-28.3491 -3.7322 -2.5016 0.8915
-27.6937 -7.1175 -2.5016 0.8915
-26.6356 -10.3993 -2.5016 0.8915
-23.3783 -16.4638 -2.5016 0.8915
-15.7812 -18.1424 -2.1037 0.9080
-15.0573 -22.2355 -2.3494 0.8978
-12.2713 -23.8863 -2.3494 0.8978
-9.3068 -25.1897 -2.3494 0.8978
10.3421 -26.6578 -2.5016 0.8915
17.9497 -19.9737 -2.3494 0.8978
20.2235 -17.6678 -2.3494 0.8978
23.6415 -16.0835 -2.5016 0.8915
26.8002 -9.9673 -2.5016 0.8915
28.5932 0.1698 -2.5016 0.8915
21.9852 5.5499 -1.9838 0.9130
18.3943 9.7782 -1.8225 0.9198
18.6444 13.0105 -1.9891 0.9128
20.3420 18.2019 -2.3881 0.8962
18.0701 20.5946 -2.3970 0.8958
4.1253 6.0360 -0.6396 0.9711
0.6629 5.6456 -0.4973 0.9774
-0.0216 5.6851 -0.4974 0.9774
-1.4243 5.6937 -0.5135 0.9767
-8.3546 5.7363 -0.8866 0.9601
-11.0225 5.7527 -1.0878 0.9513
-14.5674 5.4891 -1.3620 0.9394
-26.6641 3.1888 -2.3494 0.8978
-28.3801 -3.4886 -2.5016 0.8915
-20.9049 -18.5444 -2.4449 0.8939
-15.2477 -22.1054 -2.3494 0.8978
-12.4760 -23.7800 -2.3494 0.8978
-3.4563 -28.3840 -2.5016 0.8915
-0.0145 -28.5937 -2.5016 0.8915
6.8196 -27.7685 -2.5016 0.8915
10.1127 -26.7457 -2.5016 0.8915
15.2254 -22.1207 -2.3494 0.8978
25.2919 -13.3386 -2.5016 0.8915
28.3765 -3.5172 -2.5016 0.8915
28.5936 -0.0759 -2.5016 0.8915
26.6673 3.1617 -2.3494 0.8978
22.7892 5.5449 -2.0520 0.9101
18.4410 9.6008 -1.8189 0.9199
18.9869 13.0084 -2.0136 0.9117
20.4919 18.0213 -2.3875 0.8962
4.1640 5.9816 -0.6376 0.9712
3.0040 5.6665 -0.5611 0.9746
0.7165 5.6806 -0.5009 0.9773
0.0273 5.6848 -0.4974 0.9774
-2.1265 5.6981 -0.5321 0.9759
-14.3121 5.5338 -1.3425 0.9402
-28.4090 -3.2445 -2.5016 0.8915
-26.8103 -9.9401 -2.5016 0.8915
-25.4189 -13.0950 -2.5016 0.8915
-21.4446 -18.6965 -2.4891 0.8920
-17.9699 -19.9555 -2.3494 0.8978
-9.7382 -25.0261 -2.3494 0.8978
-6.6550 -26.0163 -2.3494 0.8978
-3.7001 -28.3533 -2.5016 0.8915
3.1835 -28.4159 -2.5016 0.8915
6.5808 -27.8261 -2.5016 0.8915
-12.9015 5.5107 -1.7226 0.9450
-10.5310 3.0627 -1.3466 0.9568
-18.8829 3.0929 -2.3494 0.9258
-20.3106 -1.6075 -2.5016 0.9212
-7.9996 -2.6537 -1.0349 0.9666
-18.4250 -8.6961 -2.5016 0.9212
-17.1355 -10.7823 -2.4858 0.9216
-15.8128 -12.8476 -2.5016 0.9212
-10.2381 -17.6149 -2.5016 0.9212
3.9977 -19.9780 -2.5016 0.9212
6.3735 -19.3515 -2.5016 0.9212
8.6565 -18.4437 -2.5016 0.9212
10.8137 -17.2675 -2.5016 0.9212
14.6272 -14.1827 -2.5016 0.9212
17.5929 -10.2759 -2.5016 0.9212
18.7019 -8.0835 -2.5016 0.9212
20.3526 -0.9365 -2.5016 0.9212
20.2669 1.5164 -2.4954 0.9214
18.1870 5.9467 -2.3494 0.9258
15.0038 12.0837 -2.3654 0.9253
5.6351 5.7868 -0.9918 0.9680
3.8059 6.4838 -0.9231 0.9702
2.4651 5.6698 -0.7591 0.9754
0.2737 5.6833 -0.6986 0.9773
-2.6460 5.7013 -0.7717 0.9750
-3.5363 5.7012 -0.8238 0.9733
-4.5339 5.6544 -0.8899 0.9712
-5.7266 5.6005 -0.9835 0.9682
-7.1478 5.4746 -1.1055 0.9644
-19.8915 1.0009 -2.4455 0.9229
-20.0034 -3.8689 -2.5016 0.9212
-8.0677 -2.5996 -1.0407 0.9664
-18.4991 -8.5375 -2.5016 0.9212
-17.2329 -10.6380 -2.4866 0.9216
-15.9226 -12.7112 -2.5016 0.9212
-14.2767 -14.5355 -2.5016 0.9212
-12.4232 -16.1483 -2.5016 0.9212
-10.3891 -17.5263 -2.5016 0.9212
-8.2038 -18.6494 -2.5016 0.9212
-5.8993 -19.5013 -2.5016 0.9212
-1.0676 -20.3461 -2.5016 0.9212
3.8259 -20.0117 -2.5016 0.9212
6.2069 -19.4056 -2.5016 0.9212
14.5048 -14.3079 -2.5016 0.9212
17.5039 -10.4267 -2.5016 0.9212
19.4886 -5.9412 -2.5016 0.9212
20.3438 -1.1113 -2.5016 0.9212
18.8018 3.5528 -2.3494 0.9258
17.4123 7.9453 -2.3500 0.9258
15.1039 11.9518 -2.3649 0.9253
13.5932 13.7212 -2.3715 0.9251
4.3755 5.6372 -0.8762 0.9717
1.7432 5.6743 -0.7288 0.9764
1.0180 5.6787 -0.7084 0.9770
-1.0628 5.6915 -0.7109 0.9769
-1.7950 5.6960 -0.7333 0.9762
-2.5866 5.7009 -0.7687 0.9751
-4.4575 5.6580 -0.8844 0.9714
-5.6339 5.6055 -0.9758 0.9685
-7.0580 5.5027 -1.0989 0.9646
-18.2788 5.6583 -2.3494 0.9258
-19.1611 1.1293 -2.3568 0.9256
-20.3352 -1.2582 -2.5016 0.9212
-20.0359 -3.6968 -2.5016 0.9212
-7.9189 -3.5724 -1.0667 0.9656
-14.4011 -14.4123 -2.5016 0.9212
-12.5615 -16.0410 -2.5016 0.9212
-8.3638 -18.5782 -2.5016 0.9212
-6.0667 -19.4499 -2.5016 0.9212
-1.2424 -20.3362 -2.5016 0.9212
1.2145 -20.3379 -2.5016 0.9212
3.6538 -20.0438 -2.5016 0.9212
6.0400 -19.4582 -2.5016 0.9212
8.3383 -18.5897 -2.5016 0.9212
10.5154 -17.4508 -2.5016 0.9212
16.0139 -12.5959 -2.5016 0.9212
17.4137 -10.5767 -2.5016 0.9212
18.5602 -8.4037 -2.5016 0.9212
19.4368 -6.1084 -2.5016 0.9212
20.0308 -3.7244 -2.5016 0.9212
9.4551 5.6697 -1.3537 0.9565
15.2029 11.8191 -2.3644 0.9253
13.7080 13.6013 -2.3711 0.9251
3.8874 6.3695 -0.9162 0.9704
1.0684 5.6784 -0.7095 0.9770
0.3717 5.6827 -0.6992 0.9773
-0.3151 5.6869 -0.6993 0.9773
-1.0122 5.6912 -0.7098 0.9770
-1.7412 5.6957 -0.7313 0.9763
-3.3999 5.6975 -0.8147 0.9736
-4.3819 5.6615 -0.8790 0.9716
-5.5427 5.6103 -0.9683 0.9687
-9.3637 5.7425 -1.3487 0.9567
-12.2057 5.5898 -1.6484 0.9473
-19.0910 1.2899 -2.3494 0.9258
-20.3453 -1.0834 -2.5016 0.9212
-20.0669 -3.5246 -2.5016 0.9212
-17.5182 -10.4027 -2.5016 0.9212
-12.6989 -15.9324 -2.5016 0.9212
-10.6887 -17.3452 -2.5016 0.9212
-8.5231 -18.5057 -2.5016 0.9212
-6.2336 -19.3971 -2.5016 0.9212
1.0397 -20.3475 -2.5016 0.9212
3.4814 -20.0745 -2.5016 0.9212
5.8725 -19.5094 -2.5016 0.9212
8.1782 -18.6607 -2.5016 0.9212
12.4010 -16.1653 -2.5016 0.9212
15.9051 -12.7331 -2.5016 0.9212
17.3222 -10.7260 -2.5016 0.9212
19.3836 -6.2753 -2.5016 0.9212
19.9981 -3.8963 -2.5016 0.9212
18.3343 5.4759 -2.3494 0.9258
17.5418 7.6430 -2.3494 0.9258
16.5450 9.7288 -2.3566 0.9256
13.8218 13.4804 -2.3706 0.9251
1.1190 5.6781 -0.7106 0.9769
0.4207 5.6824 -0.6996 0.9773
-2.4690 5.7002 -0.7627 0.9753
-9.8013 16.7506 -2.3829 0.9248
-6.8450 5.5283 -1.0803 0.9652
-20.0965 -3.3520 -2.5016 0.9212
-8.2735 -2.4323 -1.0588 0.9658
-7.8640 -3.3862 -1.0513 0.9661
-17.6070 -10.2518 -2.5016 0.9212
-16.2449 -12.2966 -2.5016 0.9212
-8.6818 -18.4318 -2.5016 0.9212
-6.4001 -19.3428 -2.5016 0.9212
-1.5917 -20.3118 -2.5016 0.9212
3.3088 -20.1036 -2.5016 0.9212
5.7047 -19.5592 -2.5016 0.9212
8.0176 -18.7303 -2.5016 0.9212
10.2139 -17.6290 -2.5016 0.9212
14.1311 -14.6770 -2.5016 0.9212
19.9638 -4.0681 -2.5016 0.9212
18.8871 3.0669 -2.3494 0.9258
17.6068 7.4920 -2.3494 0.9258
13.9344 13.3586 -2.3702 0.9252
12.2561 14.9767 -2.3762 0.9250
2.6998 5.6684 -0.7709 0.9750
1.9042 5.6733 -0.7348 0.9762
1.1697 5.6778 -0.7118 0.9769
0.4671 5.6483 -0.6959 0.9774
-0.2171 5.6863 -0.6987 0.9773
-0.9115 5.6906 -0.7076 0.9770
-2.4109 5.6998 -0.7599 0.9754
-3.2547 5.6735 -0.8031 0.9740
-5.3643 5.6197 -0.9539 0.9692
-14.9168 5.0425 -1.9334 0.9385
-18.7327 3.9011 -2.3494 0.9258
-19.0660 1.6178 -2.3494 0.9258
-7.8423 -3.2973 -1.0446 0.9663
-17.6945 -10.1000 -2.5016 0.9212
-16.3500 -12.1566 -2.5016 0.9212
-12.9708 -15.7118 -2.5016 0.9212
-8.8399 -18.3565 -2.5016 0.9212
-6.5660 -19.2871 -2.5016 0.9212
0.6899 -20.3624 -2.5016 0.9212
12.1214 -16.3761 -2.5016 0.9212
14.0045 -14.7979 -2.5016 0.9212
18.3374 -8.8793 -2.5016 0.9212
19.9282 -4.2394 -2.5016 0.9212
18.4257 5.1600 -2.3494 0.9258
14.0460 13.2358 -2.3697 0.9252
2.7596 5.6680 -0.7740 0.9749
-0.1682 5.6860 -0.6985 0.9773
-0.8614 5.6903 -0.7066 0.9771
-3.2077 5.7047 -0.8036 0.9740
-4.1607 5.6719 -0.8637 0.9720
-5.2759 5.6230 -0.9467 0.9694
-8.8388 5.7393 -1.2940 0.9584
-18.6984 4.0619 -2.3494 0.9258
-19.0514 1.7816 -2.3494 0.9258
-20.1511 -3.0062 -2.5016 0.9212
-17.7806 -9.9476 -2.5016 0.9212
-13.1054 -15.5998 -2.5016 0.9212
-8.9973 -18.2798 -2.5016 0.9212
-1.9406 -20.2815 -2.5016 0.9212
0.5148 -20.3676 -2.5016 0.9212
2.9628 -20.1575 -2.5016 0.9212
5.3677 -19.6543 -2.5016 0.9212
7.6945 -18.8653 -2.5016 0.9212
15.5716 -13.1389 -2.5016 0.9212
18.2605 -9.0366 -2.5016 0.9212
19.8910 -4.4105 -2.5016 0.9212
20.2773 -1.9841 -2.5016 0.9212
20.3687 0.4711 -2.5016 0.9212
16.7787 9.2927 -2.3550 0.9256
7.8174 5.6574 -1.1848 0.9619
5.1168 6.0378 -0.9718 0.9686
2.8199 5.6676 -0.7773 0.9748
2.0131 5.6726 -0.7391 0.9760
1.2716 5.6772 -0.7143 0.9768
1.4873 14.8704 -1.8350 0.9416
-0.1193 5.6857 -0.6983 0.9773
-0.8114 5.6900 -0.7057 0.9771
-2.2959 5.6991 -0.7544 0.9755
-3.1433 5.7043 -0.7997 0.9741
-8.6731 5.7383 -1.2769 0.9590
-11.4534 5.7294 -1.5724 0.9497
-20.3705 -0.3836 -2.5016 0.9212
-19.6885 -5.2409 -2.5016 0.9212
-7.8483 -3.1422 -1.0380 0.9665
-16.5565 -11.8737 -2.5016 0.9212
-13.2389 -15.4866 -2.5016 0.9212
-11.2785 -16.9676 -2.5016 0.9212
-9.1541 -18.2018 -2.5016 0.9212
-6.8965 -19.1714 -2.5016 0.9212
-2.1148 -20.2640 -2.5016 0.9212
5.1986 -19.6997 -2.5016 0.9212
9.7561 -17.8864 -2.5016 0.9212
11.8382 -16.5820 -2.5016 0.9212
13.7481 -15.0364 -2.5016 0.9212
15.4581 -13.2721 -2.5016 0.9212
16.9433 -11.3149 -2.5016 0.9212
18.1821 -9.1932 -2.5016 0.9212
20.2595 -2.1583 -2.5016 0.9212
18.9599 2.5791 -2.3494 0.9258
18.5116 4.8426 -2.3494 0.9258
17.7941 7.0357 -2.3494 0.9258
16.8540 9.1460 -2.3545 0.9256
7.9537 5.6525 -1.1981 0.9614
14.2658 12.9874 -2.3688 0.9252
4.0863 6.0906 -0.9006 0.9709
2.8807 5.6673 -0.7806 0.9747
0.6174 5.6791 -0.7014 0.9772
-0.0704 5.6854 -0.6981 0.9773
-0.7615 5.6897 -0.7048 0.9771
-5.1014 5.6278 -0.9326 0.9699
-14.2974 5.2475 -1.8700 0.9405
-19.0180 2.1087 -2.3494 0.9258
-7.8595 -3.0686 -1.0360 0.9666
-17.9489 -9.6406 -2.5016 0.9212
-16.6579 -11.7311 -2.5016 0.9212
-15.1247 -13.6509 -2.5016 0.9212
-13.3715 -15.3723 -2.5016 0.9212
-11.4239 -16.8701 -2.5016 0.9212
-9.3102 -18.1225 -2.5016 0.9212
5.0291 -19.7437 -2.5016 0.9212
9.6020 -17.9696 -2.5016 0.9212
11.6953 -16.6830 -2.5016 0.9212
13.6184 -15.1540 -2.5016 0.9212
19.0962 -7.1021 -2.5016 0.9212
19.8122 -4.7518 -2.5016 0.9212
17.8539 6.8825 -2.3494 0.9258
16.9281 8.9988 -2.3539 0.9256
8.1002 5.6525 -1.2128 0.9610
0.6629 5.6456 -0.6980 0.9774
-0.0216 5.6851 -0.6980 0.9773
-1.4243 5.6937 -0.7206 0.9766
-2.1826 5.6984 -0.7492 0.9757
-6.3155 5.5654 -1.0336 0.9666
-8.3546 5.7363 -1.2443 0.9600
-11.0225 5.7527 -1.5266 0.9511
-18.5875 4.5426 -2.3494 0.9258
-19.7757 -4.9018 -2.5016 0.9212
-18.0311 -9.4860 -2.5016 0.9212
-15.2415 -13.5204 -2.5016 0.9212
-9.4655 -18.0419 -2.5016 0.9212
-7.2249 -19.0500 -2.5016 0.9212
2.4422 -20.2272 -2.5016 0.9212
4.8592 -19.7861 -2.5016 0.9212
11.5515 -16.7830 -2.5016 0.9212
15.2277 -13.5359 -2.5016 0.9212
18.0214 -9.5043 -2.5016 0.9212
19.0345 -7.2658 -2.5016 0.9212
19.7707 -4.9218 -2.5016 0.9212
20.2194 -2.5062 -2.5016 0.9212
20.3740 -0.0541 -2.5016 0.9212
19.0015 2.2528 -2.3494 0.9258
17.0008 8.8510 -2.3534 0.9257
8.2503 5.6525 -1.2279 0.9605
14.4812 12.7353 -2.3678 0.9252
4.1640 5.9816 -0.8949 0.9711
2.1789 5.6716 -0.7460 0.9758
1.4260 5.6762 -0.7186 0.9767
0.0273 5.6848 -0.6980 0.9774
-0.6621 5.6890 -0.7032 0.9772
-1.3723 5.6934 -0.7191 0.9767
-2.1265 5.6981 -0.7468 0.9758
-2.9536 5.7031 -0.7886 0.9744
-3.8772 5.6852 -0.8449 0.9726
-8.2012 5.7354 -1.2288 0.9605
-13.9058 5.3767 -1.8306 0.9417
-18.5478 4.7022 -2.3494 0.9258
-18.9789 2.4352 -2.3494 0.9258
-20.3736 0.1416 -2.5016 0.9212
-20.2425 -2.3119 -2.5016 0.9212
-19.8171 -4.7317 -2.5016 0.9212
-7.8832 -2.9227 -1.0323 0.9667
-18.1119 -9.3307 -2.5016 0.9212
-16.8571 -11.4430 -2.5016 0.9212
-15.2642 -13.3081 -2.4865 0.9216
-11.7121 -16.6712 -2.5016 0.9212
-9.6202 -17.9598 -2.5016 0.9212
-7.3884 -18.9872 -2.5016 0.9212
-2.6365 -20.2028 -2.5016 0.9212
-0.1853 -20.3733 -2.5016 0.9212
7.0416 -19.1186 -2.5016 0.9212
-13.6414 5.8267 -2.3494 0.9417
-14.6386 2.3977 -2.3494 0.9417
-15.7454 -1.2462 -2.5016 0.9380
-6.9977 -3.3027 -1.2256 0.9691
-13.3683 -8.4119 -2.5016 0.9380
-10.9705 -11.3630 -2.5016 0.9380
-9.5229 -12.6009 -2.5016 0.9380
-7.9369 -13.6556 -2.5016 0.9380
-6.2354 -14.5117 -2.5016 0.9380
-4.4433 -15.1568 -2.5016 0.9380
-0.6921 -15.7794 -2.5016 0.9380
4.9409 -15.0019 -2.5016 0.9380
13.6385 -7.9662 -2.5016 0.9380
15.1472 -4.4758 -2.5016 0.9380
15.5758 -2.6200 -2.5016 0.9380
15.7779 -0.7260 -2.5016 0.9380
14.8318 1.1098 -2.3557 0.9415
14.5515 2.8794 -2.3494 0.9417
14.0991 4.6100 -2.3494 0.9417
12.5900 7.8468 -2.3497 0.9417
11.5810 9.3271 -2.3552 0.9416
5.5149 5.6634 -1.2520 0.9685
5.2950 6.9443 -1.3831 0.9653
2.4651 5.6698 -0.9792 0.9753
1.6900 5.6746 -0.9378 0.9763
0.2737 5.6833 -0.9012 0.9772
-1.1136 5.6918 -0.9186 0.9768
-2.6460 5.7013 -0.9955 0.9749
-4.5118 5.6269 -1.1423 0.9712
-5.6681 5.5433 -1.2557 0.9684
-6.9766 5.3435 -1.3919 0.9650
-9.7391 5.7448 -1.7909 0.9552
-13.5908 5.9437 -2.3494 0.9417
-14.2074 4.2646 -2.3494 0.9417
-14.6175 2.5234 -2.3494 0.9417
-15.7747 0.7938 -2.5016 0.9380
-15.7555 -1.1109 -2.5016 0.9380
-15.5073 -2.9993 -2.5016 0.9380
-7.1762 -2.3123 -1.1941 0.9699
-7.0024 -3.2317 -1.2215 0.9692
-13.4401 -8.2967 -2.5016 0.9380
-11.0677 -11.2684 -2.5016 0.9380
-9.6308 -12.5187 -2.5016 0.9380
-8.0539 -13.5869 -2.5016 0.9380
-4.5733 -15.1180 -2.5016 0.9380
-0.8277 -15.7729 -2.5016 0.9380
6.5877 -14.3552 -2.5016 0.9380
8.2678 -13.4579 -2.5016 0.9380
9.8276 -12.3648 -2.5016 0.9380
12.4979 -9.6577 -2.5016 0.9380
13.5696 -8.0831 -2.5016 0.9380
15.1082 -4.6058 -2.5016 0.9380
15.7711 -0.8615 -2.5016 0.9380
14.5757 2.7542 -2.3494 0.9417
12.6557 7.7376 -2.3494 0.9417
11.6589 9.2257 -2.3548 0.9416
4.3755 5.6372 -1.1302 0.9715
3.8468 6.4264 -1.1863 0.9701
0.3227 5.6830 -0.9015 0.9772
-1.0628 5.6915 -0.9170 0.9768
-2.5866 5.7009 -0.9915 0.9750
-14.1703 4.3865 -2.3494 0.9417
-14.5953 2.6489 -2.3494 0.9417
-15.5325 -2.8659 -2.5016 0.9380
-7.1972 -2.2510 -1.1944 0.9699
-11.1642 -11.1728 -2.5016 0.9380
-9.7381 -12.4354 -2.5016 0.9380
-8.1704 -13.5172 -2.5016 0.9380
-6.4839 -14.4024 -2.5016 0.9380
-2.8539 -15.5346 -2.5016 0.9380
0.9415 -15.7665 -2.5016 0.9380
4.6824 -15.0846 -2.5016 0.9380
8.1518 -13.5284 -2.5016 0.9380
9.7210 -12.4488 -2.5016 0.9380
13.4996 -8.1994 -2.5016 0.9380
15.7631 -0.9970 -2.5016 0.9380
15.7685 0.9077 -2.5016 0.9380
13.5475 6.0417 -2.3494 0.9417
12.7218 7.6286 -2.3494 0.9417
5.7153 5.6708 -1.2752 0.9679
0.3717 5.6827 -0.9020 0.9772
-0.3151 5.6869 -0.9021 0.9772
-2.5276 5.7005 -0.9876 0.9751
-4.3632 5.6373 -1.1291 0.9715
-5.4895 5.5564 -1.2371 0.9689
-6.8043 5.3995 -1.3758 0.9654
-9.3637 5.7425 -1.7397 0.9565
-14.1321 4.5081 -2.3494 0.9417
-14.5719 2.7742 -2.3494 0.9417
-15.7723 -0.8399 -2.5016 0.9380
-15.5565 -2.7323 -2.5016 0.9380
-7.0091 -3.0898 -1.2132 0.9695
-11.2598 -11.0765 -2.5016 0.9380
-9.8446 -12.3513 -2.5016 0.9380
-6.6074 -14.3462 -2.5016 0.9380
-4.8325 -15.0372 -2.5016 0.9380
-2.9873 -15.5096 -2.5016 0.9380
2.6989 -15.5623 -2.5016 0.9380
4.5526 -15.1243 -2.5016 0.9380
6.3400 -14.4663 -2.5016 0.9380
9.6137 -12.5319 -2.5016 0.9380
12.3301 -9.8711 -2.5016 0.9380
13.4287 -8.3151 -2.5016 0.9380
14.3319 -6.6382 -2.5016 0.9380
15.5031 -3.0206 -2.5016 0.9380
15.7540 -1.1325 -2.5016 0.9380
14.6209 2.5033 -2.3494 0.9417
13.5989 5.9251 -2.3494 0.9417
5.8145 5.6709 -1.2864 0.9676
3.9278 6.3129 -1.1776 0.9703
2.6404 5.6687 -0.9905 0.9750
1.1190 5.6781 -0.9166 0.9768
0.4207 5.6824 -0.9025 0.9772
-0.2661 5.6866 -0.9017 0.9772
-6.7196 5.4270 -1.3680 0.9656
-9.1838 5.7414 -1.7154 0.9571
-12.0109 5.6260 -2.1007 0.9477
-14.5476 2.8993 -2.3494 0.9417
-15.7295 1.1987 -2.4985 0.9381
-15.5794 -2.5986 -2.5016 0.9380
-7.5355 -2.2154 -1.2440 0.9687
-11.3545 -10.9793 -2.5016 0.9380
-6.7304 -14.2889 -2.5016 0.9380
-4.9615 -14.9951 -2.5016 0.9380
-3.1204 -15.4833 -2.5016 0.9380
0.6704 -15.7804 -2.5016 0.9380
4.4224 -15.1628 -2.5016 0.9380
6.2155 -14.5203 -2.5016 0.9380
7.9181 -13.6665 -2.5016 0.9380
10.9549 -11.3781 -2.5016 0.9380
14.2744 -6.7611 -2.5016 0.9380
14.9844 -4.9937 -2.5016 0.9380
15.4766 -3.1537 -2.5016 0.9380
15.7818 0.6365 -2.5016 0.9380
14.2492 4.1228 -2.3494 0.9417
13.6493 5.8080 -2.3494 0.9417
11.8870 8.9178 -2.3536 0.9416
5.9154 5.6710 -1.2979 0.9674
5.6579 6.9138 -1.4150 0.9645
3.9678 6.2568 -1.1734 0.9704
2.6998 5.6684 -0.9944 0.9749
1.1697 5.6778 -0.9182 0.9768
-0.2171 5.6863 -0.9013 0.9772
-0.9115 5.6906 -0.9128 0.9769
-4.2178 5.6474 -1.1164 0.9719
-5.3161 5.5692 -1.2194 0.9693
-15.7045 1.3326 -2.4963 0.9382
-15.7844 -0.5687 -2.5016 0.9380
-7.7448 -2.2048 -1.2754 0.9679
-13.7173 -7.8298 -2.5016 0.9380
-12.6750 -9.4241 -2.5016 0.9380
-6.8529 -14.2305 -2.5016 0.9380
-5.0901 -14.9519 -2.5016 0.9380
2.4311 -15.6064 -2.5016 0.9380
4.2920 -15.2003 -2.5016 0.9380
7.8004 -13.7341 -2.5016 0.9380
12.1587 -10.0815 -2.5016 0.9380
13.2838 -8.5447 -2.5016 0.9380
14.2157 -6.8835 -2.5016 0.9380
15.4489 -3.2865 -2.5016 0.9380
15.7322 -1.4030 -2.5016 0.9380
14.2841 4.0002 -2.3494 0.9417
13.6988 5.6905 -2.3494 0.9417
11.9612 8.8138 -2.3533 0.9416
6.0182 5.6710 -1.3097 0.9671
2.7596 5.6680 -0.9985 0.9748
1.2206 5.6775 -0.9198 0.9768
1.3648 14.9398 -2.3761 0.9411
-0.1682 5.6860 -0.9010 0.9772
-2.3532 5.6994 -0.9766 0.9753
-4.1463 5.6524 -1.1103 0.9720
-5.2312 5.5753 -1.2109 0.9695
-6.5482 5.4772 -1.3521 0.9660
-8.8388 5.7393 -1.6692 0.9582
-8.0683 2.8049 -1.3529 0.9660
-14.4956 3.1489 -2.3494 0.9417
-15.6784 1.4662 -2.4941 0.9382
-15.7887 -0.4330 -2.5016 0.9380
-15.6218 -2.3305 -2.5016 0.9380
-7.9453 -2.1882 -1.3053 0.9672
-7.0281 -2.8842 -1.2032 0.9697
-12.7555 -9.3149 -2.5016 0.9380
-5.2185 -14.9076 -2.5016 0.9380
-3.3861 -15.4274 -2.5016 0.9380
-1.5044 -15.7228 -2.5016 0.9380
4.1612 -15.2366 -2.5016 0.9380
9.2874 -12.7755 -2.5016 0.9380
10.7577 -11.5647 -2.5016 0.9380
12.0716 -10.1856 -2.5016 0.9380
13.2099 -8.6585 -2.5016 0.9380
14.1561 -7.0054 -2.5016 0.9380
15.4201 -3.4192 -2.5016 0.9380
15.7904 0.3652 -2.5016 0.9380
14.6806 2.1256 -2.3494 0.9417
14.3180 3.8773 -2.3494 0.9417
13.7471 5.5726 -2.3494 0.9417
4.0471 6.1456 -1.1655 0.9706
2.8199 5.6676 -1.0026 0.9747
2.0131 5.6726 -0.9534 0.9759
1.4930 14.9273 -2.3760 0.9411
-0.1193 5.6857 -0.9007 0.9772
-2.2959 5.6991 -0.9731 0.9754
-3.1433 5.7043 -1.0316 0.9740
-4.0756 5.6573 -1.1043 0.9722
-5.1474 5.5814 -1.2026 0.9697
-6.4443 5.4851 -1.3403 0.9663
-8.6731 5.7383 -1.6471 0.9588
-11.4534 5.7294 -2.0283 0.9495
-8.1432 -2.1676 -1.3347 0.9664
-7.0419 -2.8193 -1.2014 0.9697
-12.8351 -9.2049 -2.5016 0.9380
-10.2632 -12.0057 -2.5016 0.9380
-7.0965 -14.1106 -2.5016 0.9380
-1.6395 -15.7093 -2.5016 0.9380
0.2635 -15.7924 -2.5016 0.9380
2.1625 -15.6459 -2.5016 0.9380
5.8391 -14.6756 -2.5016 0.9380
9.1414 -12.8046 -2.4918 0.9383
10.6579 -11.6567 -2.5016 0.9380
14.8507 -5.3783 -2.5016 0.9380
15.7057 -1.6732 -2.5016 0.9380
15.7930 0.2295 -2.5016 0.9380
14.3508 3.7541 -2.3494 0.9417
13.7945 5.4543 -2.3494 0.9417
13.0377 7.0751 -2.3494 0.9417
6.2242 5.6664 -1.3331 0.9665
5.1154 5.9320 -1.2406 0.9688
4.0863 6.0906 -1.1617 0.9707
2.8807 5.6673 -1.0069 0.9746
2.0680 5.6723 -0.9562 0.9758
0.6174 5.6791 -0.9048 0.9771
-0.7615 5.6897 -0.9092 0.9770
-1.4765 5.6941 -0.9317 0.9765
-3.0795 5.7039 -1.0267 0.9741
-4.0056 5.6621 -1.0985 0.9723
-6.3421 5.4928 -1.3289 0.9666
-13.9254 5.1109 -2.3494 0.9417
-14.4393 3.3976 -2.3494 0.9417
-15.7938 -0.1617 -2.5016 0.9380
-7.0549 -2.7544 -1.1995 0.9698
-13.9145 -7.4737 -2.5016 0.9380
-11.7251 -10.5826 -2.5016 0.9380
-3.6507 -15.3669 -2.5016 0.9380
-1.7744 -15.6946 -2.5016 0.9380
3.8987 -15.3059 -2.5016 0.9380
5.7128 -14.7253 -2.5016 0.9380
9.0665 -12.9332 -2.5016 0.9380
10.5574 -11.7478 -2.5016 0.9380
14.0336 -7.2477 -2.5016 0.9380
14.8040 -5.5057 -2.5016 0.9380
15.6908 -1.8081 -2.5016 0.9380
14.7149 1.8730 -2.3494 0.9417
13.8409 5.3355 -2.3494 0.9417
13.0980 6.9628 -2.3494 0.9417
12.1784 8.4983 -2.3521 0.9416
6.3421 5.6749 -1.3479 0.9661
4.1253 6.0360 -1.1579 0.9708
0.6629 5.6456 -0.9003 0.9772
-0.0216 5.6851 -0.9004 0.9772
-1.4243 5.6937 -0.9296 0.9765
-3.9364 5.6668 -1.0928 0.9724
-4.9832 5.5933 -1.1865 0.9701
-14.4096 3.5215 -2.3494 0.9417
-14.7287 1.7614 -2.3494 0.9417
-15.7946 -0.0259 -2.5016 0.9380
-15.6767 -1.9270 -2.5016 0.9380
-12.9914 -8.9830 -2.5016 0.9380
-5.6010 -14.7682 -2.5016 0.9380
-1.9092 -15.6788 -2.5016 0.9380
-0.0080 -15.7946 -2.5016 0.9380
1.8933 -15.6807 -2.5016 0.9380
3.7670 -15.3388 -2.5016 0.9380
11.8050 -10.4934 -2.5016 0.9380
12.9823 -8.9961 -2.5016 0.9380
13.9708 -7.3680 -2.5016 0.9380
15.7946 -0.0419 -2.5016 0.9380
14.7305 1.7465 -2.3494 0.9417
14.4132 3.5069 -2.3494 0.9417
12.2489 8.3920 -2.3517 0.9416
5.1726 5.7940 -1.2302 0.9690
2.1789 5.6716 -0.9623 0.9757
1.4260 5.6762 -0.9270 0.9766
0.7165 5.6806 -0.9068 0.9771
-1.3723 5.6934 -0.9276 0.9766
-2.1265 5.6981 -0.9633 0.9757
-2.9536 5.7031 -1.0172 0.9743
-3.8678 5.6715 -1.0873 0.9726
-4.9027 5.5991 -1.1787 0.9703
-6.1429 5.5079 -1.3068 0.9671
-8.2012 5.7354 -1.5851 0.9603
-10.7927 5.7513 -1.9370 0.9517
-13.8355 5.3495 -2.3494 0.9417
-14.3788 3.6452 -2.3494 0.9417
-14.7131 1.8879 -2.3494 0.9417
-15.7943 0.1098 -2.5016 0.9380
-15.6926 -1.7922 -2.5016 0.9380
-8.8706 -2.1180 -1.4445 0.9637
-10.5693 -11.7371 -2.5016 0.9380
-7.4579 -13.9230 -2.5016 0.9380
5.4589 -14.8213 -2.5016 0.9380
-11.1152 4.7477 -2.3494 0.9519
-10.3923 3.0223 -2.1037 0.9569
-11.9278 1.9537 -2.3494 0.9519
-12.8296 -1.0154 -2.5016 0.9489
-6.7250 -2.2309 -1.3773 0.9715
-6.5284 -3.0812 -1.4032 0.9710
-9.9885 -8.1155 -2.5016 0.9489
-8.9390 -9.2588 -2.5016 0.9489
-7.7595 -10.2675 -2.5016 0.9489
-5.0807 -11.8244 -2.5016 0.9489
-3.6204 -12.3500 -2.5016 0.9489
-0.5639 -12.8574 -2.5016 0.9489
0.9878 -12.8318 -2.5016 0.9489
4.0260 -12.2238 -2.5016 0.9489
5.4681 -11.6503 -2.5016 0.9489
8.0940 -10.0059 -2.5016 0.9489
9.2396 -8.9588 -2.5016 0.9489
10.2508 -7.7815 -2.5016 0.9489
11.1129 -6.4910 -2.5016 0.9489
11.8135 -5.1061 -2.5016 0.9489
12.3422 -3.6470 -2.5016 0.9489
12.7497 0.9540 -2.4852 0.9492
11.8568 2.3462 -2.3494 0.9519
11.4882 3.7563 -2.3494 0.9519
10.9525 5.1119 -2.3494 0.9519
10.2575 6.3931 -2.3494 0.9519
9.4134 7.5814 -2.3494 0.9519
5.6393 5.7911 -1.5712 0.9676
2.4651 5.6698 -1.2018 0.9751
0.9678 5.6790 -1.1198 0.9768
0.2737 5.6833 -1.1060 0.9771
-2.6460 5.7013 -1.2217 0.9747
-4.4661 5.5699 -1.3877 0.9713
-5.6050 5.4816 -1.5239 0.9686
-9.7391 5.7448 -2.1979 0.9550
-10.3702 3.1128 -2.1046 0.9568
-12.8535 0.6468 -2.5016 0.9489
-12.8379 -0.9051 -2.5016 0.9489
-12.6356 -2.4439 -2.5016 0.9489
-10.9512 -6.7603 -2.5016 0.9489
-6.5625 -11.0708 -2.5016 0.9489
-5.1821 -11.7803 -2.5016 0.9489
-3.7264 -12.3184 -2.5016 0.9489
-2.2165 -12.6774 -2.5016 0.9489
-0.6744 -12.8521 -2.5016 0.9489
3.9208 -12.2580 -2.5016 0.9489
5.3678 -11.6969 -2.5016 0.9489
6.7367 -10.9657 -2.5016 0.9489
9.1622 -9.0379 -2.5016 0.9489
11.0567 -6.5862 -2.5016 0.9489
11.7691 -5.2074 -2.5016 0.9489
12.3104 -3.7529 -2.5016 0.9489
12.8506 -0.7020 -2.5016 0.9489
11.5201 3.6575 -2.3494 0.9519
10.9961 5.0176 -2.3494 0.9519
10.3121 6.3047 -2.3494 0.9519
8.5174 8.5976 -2.3524 0.9519
4.3755 5.6372 -1.3871 0.9713
3.8468 6.4264 -1.4559 0.9699
1.7432 5.6743 -1.1538 0.9761
1.0180 5.6787 -1.1214 0.9768
-0.3642 5.6872 -1.1077 0.9770
-1.0628 5.6915 -1.1254 0.9767
-3.4679 5.6996 -1.2968 0.9732
-5.5165 5.4886 -1.5126 0.9688
-9.5487 5.7437 -2.1660 0.9556
-11.0320 4.9380 -2.3494 0.9519
-11.8925 2.1583 -2.3494 0.9519
-12.8475 0.7572 -2.5016 0.9489
-6.9177 -2.1636 -1.4089 0.9709
-11.0089 -6.6659 -2.5016 0.9489
-10.1265 -7.9426 -2.5016 0.9489
-9.0968 -9.1038 -2.5016 0.9489
-7.9348 -10.1326 -2.5016 0.9489
-6.6574 -11.0140 -2.5016 0.9489
-5.2832 -11.7353 -2.5016 0.9489
-3.8322 -12.2860 -2.5016 0.9489
-2.3254 -12.6579 -2.5016 0.9489
2.3080 -12.6611 -2.5016 0.9489
3.8153 -12.2912 -2.5016 0.9489
5.2671 -11.7426 -2.5016 0.9489
6.6423 -11.0232 -2.5016 0.9489
7.9208 -10.1435 -2.5016 0.9489
9.0842 -9.1163 -2.5016 0.9489
10.9997 -6.6810 -2.5016 0.9489
11.7240 -5.3084 -2.5016 0.9489
12.2777 -3.8585 -2.5016 0.9489
12.8166 0.7378 -2.4954 0.9490
11.8954 2.1420 -2.3494 0.9519
11.5511 3.5583 -2.3494 0.9519
11.0388 4.9229 -2.3494 0.9519
9.5423 7.4184 -2.3494 0.9519
3.8874 6.3695 -1.4505 0.9701
1.7966 5.6739 -1.1569 0.9760
1.0684 5.6784 -1.1231 0.9767
0.3717 5.6827 -1.1070 0.9771
-1.0122 5.6912 -1.1236 0.9767
-1.7412 5.6957 -1.1577 0.9760
-2.5276 5.7005 -1.2121 0.9749
-3.3999 5.6975 -1.2897 0.9733
-9.3637 5.7425 -2.1351 0.9562
-10.9892 5.0327 -2.3494 0.9519
-11.5150 3.6733 -2.3494 0.9519
-11.8735 2.2605 -2.3494 0.9519
-12.8515 -0.6844 -2.5016 0.9489
-7.0749 -2.1462 -1.4371 0.9703
-11.0658 -6.5711 -2.5016 0.9489
-10.1944 -7.8553 -2.5016 0.9489
-9.1746 -9.0253 -2.5016 0.9489
-8.0215 -10.0641 -2.5016 0.9489
-6.7518 -10.9564 -2.5016 0.9489
-5.3838 -11.6895 -2.5016 0.9489
-2.4341 -12.6375 -2.5016 0.9489
5.1660 -11.7874 -2.5016 0.9489
7.8334 -10.2112 -2.5016 0.9489
9.0056 -9.1940 -2.5016 0.9489
10.0468 -8.0431 -2.5016 0.9489
10.9419 -6.7753 -2.5016 0.9489
11.6779 -5.4089 -2.5016 0.9489
12.2441 -3.9639 -2.5016 0.9489
12.8366 -0.9227 -2.5016 0.9489
12.8489 0.6289 -2.5006 0.9489
11.9134 2.0397 -2.3494 0.9519
11.0807 4.8279 -2.3494 0.9519
10.4189 6.1266 -2.3494 0.9519
8.6619 8.4480 -2.3519 0.9519
5.5267 6.8732 -1.7144 0.9647
3.9278 6.3129 -1.4452 0.9702
0.4207 5.6824 -1.1076 0.9770
-0.9618 5.6909 -1.1219 0.9768
-2.4690 5.7002 -1.2075 0.9750
-6.1303 10.4767 -2.3595 0.9517
-4.2474 5.5862 -1.3641 0.9718
-6.5634 5.3008 -1.6399 0.9662
-10.9455 5.1269 -2.3494 0.9519
-8.2483 2.7095 -1.6876 0.9652
-12.8326 0.9779 -2.5016 0.9489
-12.8569 -0.5739 -2.5016 0.9489
-10.2615 -7.7674 -2.5016 0.9489
-9.2519 -8.9461 -2.5016 0.9489
-8.1077 -9.9947 -2.5016 0.9489
-6.8457 -10.8980 -2.5016 0.9489
-4.0427 -12.2183 -2.5016 0.9489
-2.5426 -12.6161 -2.5016 0.9489
-1.0055 -12.8304 -2.5016 0.9489
3.6035 -12.3550 -2.5016 0.9489
8.9262 -9.2711 -2.5016 0.9489
10.8833 -6.8691 -2.5016 0.9489
11.6310 -5.5091 -2.5016 0.9489
12.6106 -2.5697 -2.5016 0.9489
12.8282 -1.0330 -2.5016 0.9489
11.1217 4.7325 -2.3494 0.9519
10.4712 6.0368 -2.3494 0.9519
9.6684 7.2533 -2.3494 0.9519
3.9678 6.2568 -1.4401 0.9703
2.6998 5.6684 -1.2204 0.9747
1.1697 5.6778 -1.1268 0.9767
0.4671 5.6483 -1.1017 0.9772
-4.1761 5.5915 -1.3566 0.9720
-5.2586 5.5090 -1.4804 0.9694
-12.8237 1.0881 -2.5016 0.9489
-12.8614 -0.4634 -2.5016 0.9489
-6.5787 -2.7660 -1.3872 0.9713
-6.7470 -3.8512 -1.5101 0.9688
-10.3278 -7.6790 -2.5016 0.9489
-9.3284 -8.8663 -2.5016 0.9489
-8.1933 -9.9247 -2.5016 0.9489
-5.5839 -11.5953 -2.5016 0.9489
-2.6509 -12.5938 -2.5016 0.9489
0.4358 -12.8624 -2.5016 0.9489
1.9809 -12.7164 -2.5016 0.9489
4.9626 -11.8745 -2.5016 0.9489
8.8462 -9.3474 -2.5016 0.9489
9.9071 -8.2146 -2.5016 0.9489
10.8239 -6.9623 -2.5016 0.9489
11.5832 -5.6088 -2.5016 0.9489
12.1742 -4.1737 -2.5016 0.9489
10.5227 5.9466 -2.3494 0.9519
9.7304 7.1700 -2.3494 0.9519
5.1167 6.1440 -1.5542 0.9679
4.0076 6.2010 -1.4352 0.9704
2.7596 5.6680 -1.2254 0.9746
1.9585 5.6729 -1.1666 0.9758
1.1071 12.1194 -2.3656 0.9516
-0.1682 5.6860 -1.1057 0.9771
-0.8614 5.6903 -1.1187 0.9768
-8.8388 5.7393 -2.0485 0.9580
-10.8558 5.3142 -2.3494 0.9519
-11.8113 2.5658 -2.3494 0.9519
-6.5418 -3.6599 -1.4571 0.9699
-7.0319 -10.7788 -2.5016 0.9489
-5.6833 -11.5468 -2.5016 0.9489
-1.2258 -12.8112 -2.5016 0.9489
3.3907 -12.4151 -2.5016 0.9489
4.8604 -11.9166 -2.5016 0.9489
6.2595 -11.2449 -2.5016 0.9489
7.5676 -10.4097 -2.5016 0.9489
8.7656 -9.4231 -2.5016 0.9489
10.7636 -7.0551 -2.5016 0.9489
11.5346 -5.7081 -2.5016 0.9489
12.1379 -4.2782 -2.5016 0.9489
12.8663 0.2976 -2.5016 0.9489
11.9620 1.7320 -2.3494 0.9519
11.2014 4.5407 -2.3494 0.9519
10.5734 5.8560 -2.3494 0.9519
4.0471 6.1456 -1.4303 0.9705
2.0131 5.6726 -1.1700 0.9758
1.2716 5.6772 -1.1309 0.9766
1.2111 12.1092 -2.3655 0.9516
-1.5289 5.6944 -1.1461 0.9763
-2.2959 5.6991 -1.1943 0.9753
-3.1433 5.7043 -1.2660 0.9738
-6.3225 5.3814 -1.6139 0.9667
-8.6731 5.7383 -2.0215 0.9585
-7.9924 2.8557 -1.6498 0.9660
-12.7883 1.3068 -2.4987 0.9490
-12.8675 -0.2423 -2.5016 0.9489
-12.7447 -1.7894 -2.5016 0.9489
-7.7965 -2.0754 -1.5683 0.9677
-6.5364 -3.5835 -1.4490 0.9701
-10.4583 -7.5003 -2.5016 0.9489
-2.8670 -12.5463 -2.5016 0.9489
-1.3359 -12.8002 -2.5016 0.9489
3.2838 -12.4437 -2.5016 0.9489
11.4851 -5.8070 -2.5016 0.9489
12.1006 -4.3823 -2.5016 0.9489
12.8684 0.1870 -2.5016 0.9489
5.1154 5.9320 -1.5226 0.9686
2.0680 5.6723 -1.1736 0.9757
-1.4765 5.6941 -1.1434 0.9763
-3.0795 5.7039 -1.2600 0.9739
-3.9667 5.6071 -1.3351 0.9724
-5.0112 5.5282 -1.4504 0.9701
-6.2438 5.4077 -1.6056 0.9669
-8.0009 2.9365 -1.6567 0.9659
-12.7672 1.4157 -2.4969 0.9490
-12.8691 -0.1317 -2.5016 0.9489
-12.7596 -1.6798 -2.5016 0.9489
-8.0058 -2.0575 -1.6067 0.9669
-6.6151 -2.5827 -1.3804 0.9715
-9.5538 -8.6229 -2.5016 0.9489
-4.4602 -12.0721 -2.5016 0.9489
-2.9746 -12.5212 -2.5016 0.9489
-1.4458 -12.7883 -2.5016 0.9489
0.1041 -12.8693 -2.5016 0.9489
3.1767 -12.4715 -2.5016 0.9489
4.6549 -11.9984 -2.5016 0.9489
7.3876 -10.5382 -2.5016 0.9489
8.6024 -9.5723 -2.5016 0.9489
11.4348 -5.9055 -2.5016 0.9489
12.0625 -4.4862 -2.5016 0.9489
12.7851 -1.4732 -2.5016 0.9489
12.8695 0.0765 -2.5016 0.9489
11.2778 4.3475 -2.3494 0.9519
9.9120 6.9168 -2.3494 0.9519
5.1194 5.8346 -1.5088 0.9689
4.1253 6.0360 -1.4211 0.9706
2.9421 5.6669 -1.2411 0.9743
0.6629 5.6456 -1.1049 0.9771
-2.1826 5.6984 -1.1861 0.9754
-3.0162 5.7035 -1.2541 0.9741
-6.1658 5.4335 -1.5975 0.9671
-10.7152 5.5923 -2.3494 0.9519
-6.5267 -3.4336 -1.4335 0.9704
-10.5856 -7.3195 -2.5016 0.9489
-9.6276 -8.5405 -2.5016 0.9489
-8.5296 -9.6373 -2.5016 0.9489
-4.5638 -12.0334 -2.5016 0.9489
4.5516 -12.0380 -2.5016 0.9489
7.2967 -10.6013 -2.5016 0.9489
9.6189 -8.5502 -2.5016 0.9489
12.0235 -4.5896 -2.5016 0.9489
12.4886 -3.1090 -2.5016 0.9489
12.8697 -0.0342 -2.5016 0.9489
9.9710 6.8314 -2.3494 0.9519
9.0791 7.9845 -2.3502 0.9519
5.1726 5.7940 -1.5097 0.9688
4.1640 5.9816 -1.4167 0.9707
3.0040 5.6665 -1.2467 0.9742
0.7165 5.6806 -1.1129 0.9769
0.0273 5.6848 -1.1050 0.9771
-0.6621 5.6890 -1.1133 0.9769
-1.3723 5.6934 -1.1384 0.9764
-2.9536 5.7031 -1.2484 0.9742
-3.8399 5.6306 -1.3248 0.9726
-4.8515 5.5406 -1.4315 0.9704
-6.0718 5.4441 -1.5852 0.9673
-11.2734 4.3589 -2.3494 0.9519
-12.8694 0.0894 -2.5016 0.9489
