ply
format ascii 1.0
element vertex 1550
property float32 x
property float32 y
property float32 z
property float32 I
end_header
27.5513 16.7605 -0.5629 0.8790
2.5368 5.6694 -0.1084 0.9755
1.7554 5.6742 -0.1037 0.9765
1.0294 5.6786 -0.1007 0.9772
-1.0521 5.6914 -0.1010 0.9771
-2.5572 5.6622 -0.1084 0.9755
-25.5714 15.4345 -0.5214 0.8874
-18.6399 5.7995 -0.3407 0.9249
-32.1570 5.8826 -0.5706 0.8774
-69.8029 -42.1563 -1.4234 0.7216
-23.7176 -23.6855 -0.5851 0.8745
-11.0437 -24.4696 -0.4686 0.8982
-7.3343 -39.7311 -0.7052 0.8508
27.9997 -90.4238 -1.6523 0.6848
25.2243 -41.9188 -0.8539 0.8222
27.1318 -27.2562 -0.6713 0.8574
34.6766 -27.3026 -0.7704 0.8381
45.0110 -27.3661 -0.9195 0.8100
60.8641 -27.5875 -1.1664 0.7654
88.0613 5.0483 -1.5396 0.7027
59.7304 10.7437 -1.0593 0.7844
35.2902 15.7334 -0.6744 0.8568
27.9509 16.7580 -0.5689 0.8778
5.9402 5.8941 -0.1461 0.9671
4.4692 5.6575 -0.1258 0.9716
3.4560 5.6637 -0.1158 0.9738
1.7954 5.6739 -0.1039 0.9765
0.3702 5.6827 -0.0994 0.9775
-1.7393 5.6817 -0.1037 0.9765
-3.3852 5.6669 -0.1152 0.9739
-7.2289 5.7294 -0.1610 0.9638
-9.3743 5.7408 -0.1919 0.9570
-30.9900 5.8754 -0.5506 0.8814
-64.2246 4.2879 -1.1235 0.7730
-82.3941 -14.5468 -1.4604 0.7155
-66.8588 -20.3496 -1.2199 0.7561
-73.4785 -32.4761 -1.4023 0.7251
-69.5651 -41.4042 -1.4131 0.7233
-24.6624 -24.3141 -0.6045 0.8706
-13.9802 -22.7462 -0.4660 0.8987
-8.6386 -26.9972 -0.4948 0.8928
24.9326 -82.3926 -1.5026 0.7087
24.8561 -41.9153 -0.8506 0.8229
26.7827 -27.2541 -0.6670 0.8582
51.1066 2.5998 -0.8932 0.8149
18.1714 5.4670 -0.3312 0.9269
28.3592 16.7555 -0.5750 0.8765
25.5109 19.5695 -0.5612 0.8793
5.9719 5.8497 -0.1459 0.9671
2.6247 5.6688 -0.1090 0.9753
1.8356 5.6737 -0.1041 0.9764
0.4069 5.6825 -0.0994 0.9775
-0.9764 5.6910 -0.1008 0.9772
-2.4698 5.6617 -0.1078 0.9756
-9.2417 5.7418 -0.1899 0.9574
-12.2025 5.6736 -0.2349 0.9476
-17.8120 5.7944 -0.3269 0.9278
-62.9434 4.6093 -1.1016 0.7769
-96.6548 -4.6051 -1.6890 0.6790
-69.4214 -40.7156 -1.4048 0.7247
-25.0053 -24.3367 -0.6091 0.8697
-18.1745 -22.5560 -0.5056 0.8906
-11.3061 -24.2149 -0.4665 0.8986
24.4909 -41.9119 -0.8473 0.8235
26.4379 -27.2520 -0.6627 0.8591
59.2430 -27.7774 -1.1421 0.7697
88.8102 3.9447 -1.5517 0.7007
36.3981 15.6689 -0.6917 0.8534
28.7760 16.7529 -0.5812 0.8753
6.0035 5.8055 -0.1458 0.9671
2.6690 5.6686 -0.1094 0.9752
1.8760 5.6734 -0.1043 0.9764
1.1429 5.6779 -0.1011 0.9771
-18.7027 64.0289 -1.1643 0.7658
-5.4335 5.6370 -0.1367 0.9692
-9.1091 5.7410 -0.1879 0.9578
-12.0188 5.6825 -0.2321 0.9482
-8.8272 2.9346 -0.1624 0.9635
-82.4386 -13.4628 -1.4580 0.7159
-66.4524 -19.2948 -1.2078 0.7582
-25.9060 -24.8905 -0.6271 0.8661
-18.2079 -22.3020 -0.5025 0.8912
-14.3885 -22.7487 -0.4698 0.8979
-8.9126 -26.6660 -0.4908 0.8936
-7.3939 -36.1315 -0.6437 0.8628
16.4740 -57.0805 -1.0370 0.7885
24.1284 -41.9086 -0.8441 0.8241
24.8814 -33.2032 -0.7242 0.8471
26.0976 -27.2499 -0.6586 0.8599
43.0943 -27.3543 -0.8910 0.8153
42.7938 6.8472 -0.7565 0.8408
29.2023 16.7503 -0.5876 0.8740
25.5077 19.0506 -0.5557 0.8804
6.0350 5.7612 -0.1456 0.9672
2.7135 5.6683 -0.1097 0.9752
1.9165 5.6732 -0.1045 0.9763
1.1809 5.6777 -0.1012 0.9771
-18.5229 64.9636 -1.1791 0.7632
-4.1969 5.6384 -0.1227 0.9723
-8.9791 5.7402 -0.1860 0.9583
-66.8038 -18.9313 -1.2120 0.7575
-63.7383 -26.7120 -1.2063 0.7584
-69.0073 -39.2878 -1.3861 0.7278
-27.0512 -25.6581 -0.6508 0.8614
-18.5755 -22.4557 -0.5087 0.8900
-14.4614 -22.5414 -0.4675 0.8984
-11.6744 -24.1862 -0.4688 0.8981
-7.3859 -34.9453 -0.6234 0.8668
-1.2815 5.6929 -0.3058 0.9769
-4.7571 5.5994 -0.3851 0.9710
-10.3410 5.7090 -0.6191 0.9538
-14.2985 5.7728 -0.8081 0.9401
-21.5143 5.7929 -1.1677 0.9146
-44.6093 -4.4354 -2.3494 0.8356
-43.7507 -9.7747 -2.3494 0.8356
-44.9927 -15.9417 -2.5016 0.8260
-34.2111 -28.9701 -2.3494 0.8356
-21.0559 -22.7177 -1.6233 0.8833
-15.8278 -21.8573 -1.4143 0.8975
-12.8582 -23.2025 -1.3902 0.8992
-10.0206 -24.7050 -1.3972 0.8987
-6.4296 -44.3658 -2.3494 0.8356
-1.1080 -47.7206 -2.5016 0.8260
4.6462 -47.5068 -2.5016 0.8260
10.3329 -46.6016 -2.5016 0.8260
25.0082 -29.6290 -2.0320 0.8562
29.2135 -27.1642 -2.0906 0.8523
36.2667 -26.3514 -2.3494 0.8356
38.4282 -15.6589 -2.1747 0.8469
46.0517 -12.5588 -2.5016 0.8260
47.2289 -6.9222 -2.5016 0.8260
19.8199 9.7705 -1.1581 0.9153
19.9280 13.0195 -1.2475 0.9091
5.7488 6.1626 -0.4417 0.9668
17.9534 43.8568 -2.4836 0.8271
1.5576 5.6754 -0.3084 0.9767
0.8418 5.6798 -0.3009 0.9773
-0.5379 5.6883 -0.2994 0.9774
-1.2430 5.6926 -0.3054 0.9769
-1.9827 5.6828 -0.3154 0.9762
-7.8372 5.7331 -0.5089 0.9619
-10.1975 5.7157 -0.6127 0.9543
-14.0336 5.7712 -0.7952 0.9410
-21.0534 5.8144 -1.1447 0.9162
-31.6560 4.7439 -1.6775 0.8797
-45.0848 1.2646 -2.3637 0.8347
-45.0944 -15.6517 -2.5016 0.8260
-21.4337 -22.8287 -1.6411 0.8821
-15.9906 -21.7856 -1.4163 0.8974
-13.0697 -23.2303 -1.3969 0.8987
-8.0298 -28.8939 -1.5716 0.8868
14.7225 -42.6386 -2.3640 0.8347
24.3377 -37.6477 -2.3494 0.8356
24.8960 -29.8843 -2.0384 0.8557
36.0963 -26.5843 -2.3494 0.8356
38.8934 -21.9646 -2.3409 0.8362
38.3844 -15.9300 -2.1780 0.8467
45.9699 -12.8550 -2.5016 0.8260
47.1833 -7.2261 -2.5016 0.8260
47.7101 -1.4919 -2.5016 0.8260
43.9539 9.3755 -2.3553 0.8353
19.8361 9.6203 -1.1554 0.9155
20.1823 13.0010 -1.2582 0.9083
4.1820 5.6593 -0.3688 0.9722
3.2114 5.6652 -0.3413 0.9743
2.3559 5.6511 -0.3209 0.9758
0.1869 5.6838 -0.2980 0.9775
-0.5009 5.6881 -0.2993 0.9774
-1.2046 5.6924 -0.3049 0.9770
-1.9424 5.6847 -0.3148 0.9762
-3.6268 5.6501 -0.3519 0.9735
-7.7314 5.7325 -0.5044 0.9622
-45.0914 1.5553 -2.3645 0.8347
-45.1942 -15.3612 -2.5016 0.8260
-40.2111 -25.7206 -2.5016 0.8260
-30.7774 -25.3894 -2.0910 0.8523
-16.3211 -21.9384 -1.4330 0.8963
4.0343 -47.5627 -2.5016 0.8260
15.4002 -32.1481 -1.8681 0.8669
24.7952 -30.1559 -2.0460 0.8552
28.4648 -27.1596 -2.0619 0.8542
35.9245 -26.8160 -2.3494 0.8356
35.7295 -15.0985 -2.0328 0.8561
45.8862 -13.1507 -2.5016 0.8260
47.6995 -1.7990 -2.5016 0.8260
43.9934 9.0883 -2.3543 0.8353
19.6753 6.6169 -1.0879 0.9202
20.0692 9.5743 -1.1653 0.9148
5.8129 6.0727 -0.4406 0.9669
4.2383 5.6589 -0.3705 0.9721
3.2596 5.6649 -0.3425 0.9742
2.3975 5.6482 -0.3216 0.9757
1.6363 5.6749 -0.3095 0.9766
0.9166 5.6793 -0.3015 0.9772
-0.4640 5.6878 -0.2991 0.9774
-1.1663 5.6921 -0.3045 0.9770
-1.9022 5.6865 -0.3143 0.9763
-2.6842 5.6499 -0.3278 0.9753
-4.5770 5.6032 -0.3792 0.9714
-5.9580 5.7216 -0.4329 0.9675
-9.9193 5.7288 -0.6003 0.9552
-20.0223 5.8080 -1.0926 0.9199
-31.6534 5.1609 -1.6808 0.8794
-45.0961 1.8461 -2.3654 0.8346
-44.6867 -3.5731 -2.3494 0.8356
-43.9313 -8.9281 -2.3494 0.8356
-43.1480 -20.4141 -2.5016 0.8260
-40.3759 -25.4611 -2.5016 0.8260
-22.1196 -22.9598 -1.6708 0.8801
-16.5992 -22.0149 -1.4450 0.8954
-13.3314 -22.9974 -1.3931 0.8990
-10.4219 -24.3343 -1.3873 0.8994
-8.2496 -28.2691 -1.5433 0.8887
-4.7208 -28.6638 -1.5224 0.8902
-2.0293 -47.6903 -2.5016 0.8260
3.7281 -47.5876 -2.5016 0.8260
9.4312 -46.7925 -2.5016 0.8260
14.6908 -44.3909 -2.4505 0.8292
23.8510 -37.9578 -2.3494 0.8356
28.0981 -27.1573 -2.0479 0.8551
35.7511 -27.0468 -2.3494 0.8356
35.0673 -15.0854 -2.0006 0.8582
47.0864 -7.8329 -2.5016 0.8260
47.6870 -2.1060 -2.5016 0.8260
44.6979 3.4294 -2.3494 0.8356
19.6730 6.4755 -1.0854 0.9204
20.7590 12.9975 -1.2836 0.9066
25.2160 20.3956 -1.6997 0.8782
5.8448 6.0279 -0.4400 0.9669
4.2952 5.6586 -0.3723 0.9719
3.3081 5.6646 -0.3438 0.9741
2.4499 5.6699 -0.3237 0.9756
-0.4272 5.6876 -0.2989 0.9774
-1.1282 5.6919 -0.3041 0.9770
-1.8622 5.6884 -0.3137 0.9763
-2.6407 5.6519 -0.3269 0.9753
-4.5195 5.6061 -0.3774 0.9716
-5.8813 5.7211 -0.4300 0.9677
-9.7843 5.7351 -0.5944 0.9556
-19.5411 5.8051 -1.0683 0.9216
-31.8370 5.4014 -1.6923 0.8787
-43.9878 -8.6452 -2.3494 0.8356
-45.3882 -14.7781 -2.5016 0.8260
-37.2095 -29.8988 -2.5016 0.8260
-13.5199 -22.9804 -1.3973 0.8987
-10.5691 -24.2457 -1.3861 0.8995
-8.2895 -27.7406 -1.5173 0.8905
3.4217 -47.6107 -2.5016 0.8260
9.1299 -46.8522 -2.5016 0.8260
14.6615 -45.2777 -2.4942 0.8264
18.8454 -40.6758 -2.3494 0.8356
23.6062 -38.1105 -2.3494 0.8356
27.7931 -27.2108 -2.0384 0.8557
35.4802 -27.2027 -2.3431 0.8360
34.4784 -15.0958 -1.9725 0.8601
45.7131 -13.7403 -2.5016 0.8260
47.0350 -8.1358 -2.5016 0.8260
44.7191 3.1416 -2.3494 0.8356
44.0668 8.5134 -2.3521 0.8355
21.0561 12.9957 -1.2968 0.9056
4.3526 5.6582 -0.3741 0.9718
3.3570 5.6643 -0.3451 0.9740
1.7156 5.6744 -0.3107 0.9765
0.9917 5.6789 -0.3021 0.9772
0.2968 5.6831 -0.2982 0.9775
-1.0901 5.6917 -0.3037 0.9771
-3.4758 5.6519 -0.3477 0.9738
-4.4625 5.6089 -0.3756 0.9717
-7.4247 5.7306 -0.4915 0.9631
-6.3419 2.8011 -0.3634 0.9726
-29.8874 5.2689 -1.5905 0.8855
-44.7631 -2.9998 -2.3512 0.8355
-44.0426 -8.3618 -2.3494 0.8356
-45.4824 -14.4856 -2.5016 0.8260
-40.7003 -24.9393 -2.5016 0.8260
-17.0815 -22.0581 -1.4621 0.8943
-10.7378 -24.2063 -1.3878 0.8994
-8.4036 -27.4765 -1.5058 0.8913
-7.1308 -40.0723 -2.1331 0.8496
-2.6430 -47.6602 -2.5016 0.8260
3.1152 -47.6317 -2.5016 0.8260
18.5831 -40.7963 -2.3494 0.8356
33.1516 -25.7578 -2.2002 0.8452
38.4543 -23.0419 -2.3494 0.8356
33.8748 -15.0921 -1.9435 0.8620
45.6237 -14.0341 -2.5016 0.8260
47.6559 -2.7197 -2.5016 0.8260
19.6685 6.1946 -1.0807 0.9207
19.7165 8.9428 -1.1346 0.9169
25.2127 19.8616 -1.6821 0.8794
5.9085 5.9386 -0.4390 0.9670
4.4106 5.6579 -0.3760 0.9717
3.4063 5.6640 -0.3464 0.9739
1.7554 5.6742 -0.3113 0.9765
0.3335 5.6829 -0.2983 0.9775
-0.3536 5.6871 -0.2986 0.9774
-1.7827 5.6922 -0.3126 0.9764
-3.4257 5.6517 -0.3464 0.9739
-5.7309 5.7202 -0.4244 0.9681
-7.3260 5.7300 -0.4874 0.9634
-6.3217 2.8409 -0.3632 0.9726
-45.0984 2.7194 -2.3678 0.8345
-44.7981 -2.7128 -2.3521 0.8355
-44.0955 -8.0782 -2.3494 0.8356
-43.5342 -19.5770 -2.5016 0.8260
-23.6232 -23.5913 -1.7497 0.8748
-14.1899 -18.0822 -1.2049 0.9120
-10.9806 -24.3297 -1.3989 0.8986
-6.8379 -37.0418 -1.9741 0.8600
18.3202 -40.9150 -2.3494 0.8356
23.1137 -38.4112 -2.3494 0.8356
22.4628 -28.7997 -1.9141 0.8639
34.5424 -27.1969 -2.3041 0.8385
38.3052 -23.2891 -2.3494 0.8356
45.5325 -14.3275 -2.5016 0.8260
46.9264 -8.7405 -2.5016 0.8260
44.7558 2.5657 -2.3494 0.8356
39.7120 7.1430 -2.1146 0.8508
19.7135 8.7889 -1.1312 0.9172
5.9402 5.8941 -0.4386 0.9670
3.4560 5.6637 -0.3477 0.9738
1.7954 5.6739 -0.3119 0.9764
1.0671 5.6784 -0.3028 0.9771
0.3702 5.6827 -0.2984 0.9774
-3.3760 5.6515 -0.3450 0.9740
-5.6446 5.7071 -0.4207 0.9684
-9.3743 5.7408 -0.5761 0.9569
-6.3222 2.8902 -0.3643 0.9725
-18.2176 5.7969 -1.0019 0.9263
-28.7549 5.4517 -1.5338 0.8894
-44.8311 -2.4252 -2.3529 0.8354
-44.1465 -7.7941 -2.3494 0.8356
-45.6651 -13.8989 -2.5016 0.8260
-41.0180 -24.4133 -2.5016 0.8260
-13.9971 -22.7737 -1.4009 0.8985
-11.1057 -24.1905 -1.3950 0.8989
-7.0919 -37.0799 -1.9785 0.8597
-3.2562 -47.6222 -2.5016 0.8260
8.2233 -47.0198 -2.5016 0.8260
16.4348 -37.3471 -2.1384 0.8492
22.8659 -38.5593 -2.3494 0.8356
26.8864 -27.3596 -2.0103 0.8576
47.6170 -3.3330 -2.5016 0.8260
44.7714 2.2775 -2.3494 0.8356
40.3238 6.9855 -2.1448 0.8488
19.7106 8.6360 -1.1278 0.9174
19.9241 15.2838 -1.3160 0.9043
5.9719 5.8497 -0.4381 0.9671
4.5283 5.6571 -0.3798 0.9714
1.8356 5.6737 -0.3125 0.9764
1.1050 5.6782 -0.3032 0.9771
0.4069 5.6825 -0.2986 0.9774
-0.9764 5.6910 -0.3026 0.9771
-1.6958 5.6698 -0.3101 0.9766
-3.3267 5.6513 -0.3437 0.9741
-4.2946 5.6172 -0.3706 0.9721
-21.6587 22.1822 -1.6248 0.8832
-7.1333 5.7288 -0.4795 0.9640
-12.1416 5.6453 -0.7017 0.9478
-17.8120 5.7944 -0.9816 0.9277
-28.3662 5.5674 -1.5150 0.8907
-44.1958 -7.5099 -2.3494 0.8356
-43.7825 -19.0150 -2.5016 0.8260
-41.1743 -24.1487 -2.5016 0.8260
-14.1993 -22.7729 -1.4065 0.8981
-8.6520 -26.4510 -1.4585 0.8945
-3.5628 -47.6003 -2.5016 0.8260
2.1949 -47.6830 -2.5016 0.8260
7.9206 -47.0717 -2.5016 0.8260
13.5311 -45.7754 -2.5016 0.8260
17.7920 -41.1474 -2.3494 0.8356
24.7800 -32.6284 -2.1472 0.8486
26.5402 -27.3575 -1.9976 0.8584
33.6354 -27.1913 -2.2667 0.8409
38.0022 -23.7802 -2.3494 0.8356
32.1939 -15.0948 -1.8635 0.8673
46.8100 -9.3439 -2.5016 0.8260
44.7851 1.9892 -2.3494 0.8356
40.5668 6.7589 -2.1553 0.8481
18.5039 5.4373 -1.0107 0.9257
19.8513 11.5571 -1.2038 0.9121
19.9198 15.0780 -1.3093 0.9048
4.5881 5.6568 -0.3817 0.9712
3.5565 5.6631 -0.3505 0.9736
1.1429 5.6779 -0.3035 0.9771
0.4437 5.6822 -0.2987 0.9774
-0.2434 5.6865 -0.2983 0.9775
-2.4266 5.6619 -0.3228 0.9756
-3.2778 5.6511 -0.3424 0.9742
-4.2397 5.6199 -0.3689 0.9722
-5.3981 5.6003 -0.4076 0.9693
-7.0393 5.7282 -0.4756 0.9643
-9.1091 5.7410 -0.5643 0.9578
-11.9595 5.6545 -0.6933 0.9484
-43.9466 -1.8103 -2.3051 0.8385
-44.2432 -7.2252 -2.3494 0.8356
-45.8402 -13.3100 -2.5016 0.8260
-43.9040 -18.7329 -2.5016 0.8260
-38.1523 -28.6859 -2.5016 0.8260
-18.1818 -22.2699 -1.5067 0.8912
-11.3958 -24.0025 -1.3925 0.8990
-8.7643 -26.2224 -1.4490 0.8952
-7.0826 -34.6105 -1.8514 0.8681
-3.8671 -47.5535 -2.5004 0.8260
16.3338 -38.4528 -2.1895 0.8459
26.1987 -27.3554 -1.9851 0.8592
32.0037 -15.2578 -1.8581 0.8676
45.2473 -15.2041 -2.5016 0.8260
19.7050 8.3328 -1.1212 0.9179
3.6073 5.6628 -0.3519 0.9735
2.7135 5.6683 -0.3293 0.9751
-13.0349 45.7161 -2.4914 0.8266
-2.3844 5.6639 -0.3221 0.9757
-3.2292 5.6508 -0.3411 0.9743
-4.1852 5.6226 -0.3673 0.9723
-11.7816 5.6635 -0.6851 0.9490
-8.7762 2.9805 -0.4857 0.9636
-45.0741 3.8846 -2.3710 0.8343
-44.2888 -6.9402 -2.3494 0.8356
-44.0237 -18.4498 -2.5016 0.8260
-41.4817 -23.6167 -2.5016 0.8260
-18.4732 -22.3320 -1.5189 0.8904
-14.3945 -22.4371 -1.3971 0.8987
-11.4928 -23.8100 -1.3856 0.8995
-8.8246 -25.8478 -1.4314 0.8964
-7.1615 -33.8838 -1.8150 0.8705
-4.1648 -47.4313 -2.4953 0.8264
1.5809 -47.7073 -2.5016 0.8260
-2.0231 5.6809 -0.5276 0.9761
-2.8161 5.6437 -0.5518 0.9750
-6.1947 5.7230 -0.7379 0.9667
-7.9449 5.7338 -0.8572 0.9614
-14.2985 5.7728 -1.3491 0.9400
-26.9517 -9.5494 -2.5016 0.8915
-23.8871 -15.7160 -2.5016 0.8915
-21.8208 -18.4780 -2.5016 0.8915
-9.9078 -24.4269 -2.3062 0.8996
-7.0236 -25.9190 -2.3494 0.8978
-4.0731 -28.1050 -2.4846 0.8922
-0.6637 -28.5857 -2.5016 0.8915
15.1320 -23.0803 -2.4146 0.8951
17.3207 -20.5212 -2.3494 0.8978
28.2912 -4.1466 -2.5016 0.8915
20.1180 7.0554 -1.8652 0.9180
20.8670 17.5552 -2.3858 0.8963
5.7488 6.1626 -0.7373 0.9667
1.5576 5.6754 -0.5149 0.9766
0.8418 5.6798 -0.5023 0.9772
-1.2430 5.6926 -0.5098 0.9769
-1.9827 5.6828 -0.5266 0.9761
-3.6669 5.6324 -0.5880 0.9734
-4.6800 5.5811 -0.6372 0.9712
-10.1975 5.7157 -1.0228 0.9541
-21.0534 5.8144 -1.9109 0.9160
-26.5572 3.9798 -2.3494 0.8978
-27.9450 -6.0548 -2.5016 0.8915
-25.6871 -12.5602 -2.5016 0.8915
-23.9877 -15.5619 -2.5016 0.8915
-15.8898 -21.6481 -2.3494 0.8978
-10.0584 -24.3470 -2.3047 0.8996
-7.1903 -25.8733 -2.3494 0.8978
12.5189 -25.7073 -2.5016 0.8915
15.0695 -23.3108 -2.4285 0.8945
17.1883 -20.6322 -2.3494 0.8978
19.5476 -18.4124 -2.3494 0.8978
28.5795 -0.8937 -2.5016 0.8915
26.2630 5.6020 -2.3494 0.8978
20.1151 6.9093 -1.8608 0.9181
20.1779 9.7860 -1.9620 0.9139
20.2750 13.0608 -2.1100 0.9077
5.7809 6.1176 -0.7364 0.9668
4.1820 5.6593 -0.6156 0.9721
2.3559 5.6511 -0.5356 0.9757
0.8792 5.6796 -0.5028 0.9772
0.1869 5.6838 -0.4975 0.9774
-1.2046 5.6924 -0.5090 0.9769
-1.9424 5.6847 -0.5256 0.9762
-2.7279 5.6478 -0.5487 0.9751
-3.6171 5.6349 -0.5858 0.9735
-4.6216 5.5841 -0.6342 0.9713
-7.7314 5.7325 -0.8421 0.9621
-10.0570 5.7223 -1.0123 0.9546
-13.0975 5.4851 -1.2423 0.9446
-20.5259 5.8111 -1.8664 0.9179
-26.5311 4.1506 -2.3494 0.8978
-27.9834 -5.8748 -2.5016 0.8915
-25.7674 -12.3946 -2.5016 0.8915
-22.0569 -18.1956 -2.5016 0.8915
-18.5065 -19.4585 -2.3494 0.8978
-16.0288 -21.5454 -2.3494 0.8978
-10.2088 -24.2673 -2.3033 0.8997
-7.3567 -25.8264 -2.3494 0.8978
-4.1933 -26.5244 -2.3494 0.8978
-1.0316 -28.5748 -2.5016 0.8915
2.4166 -28.4911 -2.5016 0.8915
15.0156 -23.5587 -2.4442 0.8939
17.0551 -20.7424 -2.3494 0.8978
19.4287 -18.5379 -2.3494 0.8978
22.8797 -17.0787 -2.4979 0.8917
24.8065 -14.2205 -2.5016 0.8915
27.4869 -7.8776 -2.5016 0.8915
28.2355 -4.5104 -2.5016 0.8915
28.5731 -1.0777 -2.5016 0.8915
26.7613 2.2266 -2.3494 0.8978
26.2985 5.4328 -2.3494 0.8978
20.1123 6.7639 -1.8564 0.9183
20.1872 9.6306 -1.9568 0.9141
5.8129 6.0727 -0.7355 0.9668
4.2384 5.6589 -0.6186 0.9720
2.3975 5.6482 -0.5368 0.9757
-1.1663 5.6921 -0.5083 0.9769
-3.5672 5.6367 -0.5836 0.9736
-4.5638 5.5870 -0.6311 0.9714
-9.9193 5.7288 -1.0022 0.9550
-12.9627 5.5270 -1.2329 0.9450
-20.0223 5.8080 -1.8239 0.9197
-26.5038 4.3213 -2.3494 0.8978
-26.8313 1.0984 -2.3494 0.8978
-27.1311 -9.0273 -2.5016 0.8915
-25.8466 -12.2285 -2.5016 0.8915
-24.1861 -15.2518 -2.5016 0.8915
-16.1671 -21.4418 -2.3494 0.8978
-7.5228 -25.7786 -2.3494 0.8978
2.2332 -28.5061 -2.5016 0.8915
5.6495 -28.0298 -2.5016 0.8915
14.9705 -23.8249 -2.4617 0.8932
22.7490 -17.2103 -2.4957 0.8918
26.2662 -11.2993 -2.5016 0.8915
27.4356 -8.0543 -2.5016 0.8915
28.2058 -4.6921 -2.5016 0.8915
26.3329 5.2634 -2.3494 0.8978
20.1095 6.6192 -1.8522 0.9185
20.4018 9.5722 -1.9716 0.9135
20.7589 12.9975 -2.1428 0.9063
21.1883 17.1379 -2.3842 0.8964
5.8448 6.0279 -0.7346 0.9668
2.4499 5.6699 -0.5404 0.9755
0.9541 5.6791 -0.5038 0.9771
0.2602 5.6834 -0.4978 0.9774
-1.8622 5.6884 -0.5237 0.9763
-2.6407 5.6519 -0.5458 0.9753
-3.5165 5.6366 -0.5812 0.9737
-4.5065 5.5899 -0.6282 0.9716
-7.5252 5.7312 -0.8276 0.9627
-9.7843 5.7351 -0.9922 0.9555
-19.5411 5.8051 -1.7835 0.9214
-28.4957 -2.0941 -2.4998 0.8916
-27.1886 -8.8524 -2.5016 0.8915
-24.2838 -15.0958 -2.5016 0.8915
-13.3095 -22.6228 -2.2964 0.9000
-10.5091 -24.1080 -2.3009 0.8998
-7.6885 -25.7296 -2.3494 0.8978
2.0497 -28.5199 -2.5016 0.8915
5.4690 -28.0655 -2.5016 0.8915
14.9247 -24.0948 -2.4797 0.8924
16.7867 -20.9602 -2.3494 0.8978
22.5781 -17.3106 -2.4891 0.8920
26.1929 -11.4681 -2.5016 0.8915
27.3832 -8.2307 -2.5016 0.8915
28.1751 -4.8735 -2.5016 0.8915
26.3663 5.0938 -2.3494 0.8978
17.2674 5.5608 -1.5871 0.9297
21.2935 16.9974 -2.3837 0.8964
5.8767 5.9832 -0.7337 0.9669
3.3570 5.6643 -0.5761 0.9739
1.7156 5.6744 -0.5186 0.9765
0.9917 5.6789 -0.5044 0.9771
-1.0901 5.6917 -0.5070 0.9770
-1.8224 5.6903 -0.5227 0.9763
-2.5974 5.6539 -0.5444 0.9753
-4.4497 5.5928 -0.6253 0.9717
-5.8056 5.7206 -0.7131 0.9678
-7.4248 5.7306 -0.8206 0.9630
-9.5927 5.7062 -0.9765 0.9562
-6.3418 2.8011 -0.6065 0.9725
-19.0809 5.8022 -1.7448 0.9230
-26.4460 4.6622 -2.3494 0.8978
-26.8150 1.4438 -2.3494 0.8978
-28.0916 -5.3334 -2.5016 0.8915
-26.0019 -11.8947 -2.5016 0.8915
-22.4041 -17.7662 -2.5016 0.8915
-13.4589 -22.5436 -2.2971 0.8999
-7.8540 -25.6796 -2.3494 0.8978
-4.7046 -26.4384 -2.3494 0.8978
1.8661 -28.5325 -2.5016 0.8915
11.8528 -26.0210 -2.5016 0.8915
26.1185 -11.6365 -2.5016 0.8915
28.1431 -5.0547 -2.5016 0.8915
28.5470 -1.6292 -2.5016 0.8915
20.1142 6.3349 -1.8450 0.9188
12.4047 5.6264 -1.1917 0.9468
3.4063 5.6640 -0.5782 0.9738
2.5368 5.6694 -0.5434 0.9754
0.3335 5.6829 -0.4980 0.9774
-0.3536 5.6871 -0.4985 0.9774
-1.0521 5.6914 -0.5064 0.9770
-1.7827 5.6922 -0.5219 0.9763
-2.5544 5.6559 -0.5430 0.9754
-4.3935 5.5957 -0.6224 0.9718
-7.3260 5.7300 -0.8137 0.9633
-23.2602 14.0395 -2.3770 0.8966
-6.3216 2.8409 -0.6064 0.9726
-18.6399 5.7995 -1.7079 0.9246
-28.4563 -1.7232 -2.4942 0.8918
-27.3003 -8.5017 -2.5016 0.8915
-24.4761 -14.7819 -2.5016 0.8915
-22.5181 -17.6216 -2.5016 0.8915
-19.0013 -18.9756 -2.3494 0.8978
-13.6085 -22.4643 -2.2979 0.8999
-8.0191 -25.6285 -2.3494 0.8978
-4.8748 -26.4076 -2.3494 0.8978
-1.7670 -28.5388 -2.5016 0.8915
5.1072 -28.1336 -2.5016 0.8915
18.9450 -19.0319 -2.3494 0.8978
22.0005 -17.3221 -2.4498 0.8937
24.4322 -14.8544 -2.5016 0.8915
28.5359 -1.8128 -2.5016 0.8915
27.8890 1.5988 -2.4440 0.8939
26.4296 4.7539 -2.3494 0.8978
20.3636 6.2697 -1.8641 0.9180
21.6693 12.9919 -2.2105 0.9035
21.5011 16.7145 -2.3826 0.8964
5.9402 5.8941 -0.7321 0.9670
4.4692 5.6575 -0.6308 0.9715
2.5806 5.6691 -0.5450 0.9753
1.0671 5.6784 -0.5055 0.9771
-1.0142 5.6912 -0.5058 0.9771
-2.5116 5.6579 -0.5416 0.9755
-4.3377 5.5985 -0.6196 0.9720
-5.6446 5.7071 -0.7023 0.9683
-7.2289 5.7294 -0.8070 0.9636
-6.3221 2.8902 -0.6082 0.9725
-18.2176 5.7969 -1.6726 0.9261
-26.3838 5.0021 -2.3494 0.8978
-26.7941 1.7889 -2.3494 0.8978
-27.9283 -1.5108 -2.4470 0.8938
-28.1580 -4.9713 -2.5016 0.8915
-27.3545 -8.3258 -2.5016 0.8915
-26.1529 -11.5591 -2.5016 0.8915
-24.5707 -14.6242 -2.5016 0.8915
-22.6310 -17.4764 -2.5016 0.8915
-10.9585 -23.8697 -2.2979 0.8999
-8.1839 -25.5763 -2.3494 0.8978
1.4986 -28.5541 -2.5016 0.8915
14.5702 -24.5701 -2.4991 0.8916
16.3788 -21.2805 -2.3494 0.8978
27.2192 -8.7580 -2.5016 0.8915
28.0757 -5.4167 -2.5016 0.8915
20.8300 6.2668 -1.9031 0.9164
12.8365 5.6242 -1.2261 0.9453
20.2330 11.9543 -2.0560 0.9100
21.6034 16.5721 -2.3821 0.8964
1.8356 5.6737 -0.5217 0.9763
1.1050 5.6782 -0.5061 0.9770
0.4069 5.6825 -0.4984 0.9774
-0.2801 5.6867 -0.4981 0.9774
-0.9764 5.6910 -0.5052 0.9771
-2.4690 5.6599 -0.5402 0.9755
-3.3177 5.6360 -0.5722 0.9741
-5.4325 5.5638 -0.6803 0.9693
-9.2417 5.7418 -0.9519 0.9573
-12.0319 5.5943 -1.1609 0.9481
-17.8120 5.7944 -1.6387 0.9275
-26.3510 5.1719 -2.3494 0.8978
-26.7821 1.9612 -2.3494 0.8978
-27.3871 -1.3049 -2.3988 0.8958
-28.1894 -4.7901 -2.5016 0.8915
-16.8487 -20.9105 -2.3494 0.8978
-13.9079 -22.3055 -2.2997 0.8998
-5.2143 -26.3427 -2.3494 0.8978
1.3148 -28.5632 -2.5016 0.8915
4.7446 -28.1970 -2.5016 0.8915
8.1054 -27.4206 -2.5016 0.8915
14.4253 -24.6863 -2.5015 0.8915
18.6984 -19.2742 -2.3494 0.8978
21.4730 -17.3591 -2.4157 0.8951
25.8890 -12.1386 -2.5016 0.8915
28.5102 -2.1801 -2.5016 0.8915
28.5405 1.2677 -2.4994 0.8916
26.4887 4.4133 -2.3494 0.8978
21.3165 6.2638 -1.9438 0.9147
20.2283 11.7766 -2.0478 0.9103
6.0035 5.8055 -0.7306 0.9670
4.5881 5.6568 -0.6372 0.9712
3.5565 5.6631 -0.5851 0.9735
2.6690 5.6686 -0.5482 0.9752
1.8760 5.6734 -0.5228 0.9763
1.1429 5.6779 -0.5067 0.9770
0.4437 5.6822 -0.4986 0.9774
-0.9387 5.6908 -0.5046 0.9771
-7.7541 26.5463 -2.4195 0.8949
-2.4266 5.6619 -0.5389 0.9756
-3.2689 5.6358 -0.5700 0.9742
-4.2277 5.6041 -0.6142 0.9722
-9.1091 5.7410 -0.9420 0.9577
-11.8570 5.6060 -1.1475 0.9487
-26.3172 5.3415 -2.3494 0.8978
-26.8454 -1.1059 -2.3507 0.8977
-26.2995 -11.2215 -2.5016 0.8915
-24.7569 -14.3067 -2.5016 0.8915
-22.8541 -17.1835 -2.5016 0.8915
-19.4003 -18.6398 -2.3538 0.8976
-16.9830 -20.8015 -2.3494 0.8978
-14.0579 -22.2259 -2.3008 0.8998
-11.2575 -23.7111 -2.2964 0.9000
-5.3837 -26.3086 -2.3494 0.8978
-2.3176 -28.4993 -2.5016 0.8915
14.2668 -24.7799 -2.5016 0.8915
18.5740 -19.3941 -2.3494 0.8978
28.4956 -2.3635 -2.5016 0.8915
28.5728 1.0850 -2.5016 0.8915
26.5165 4.2428 -2.3494 0.8978
13.2983 5.6235 -1.2632 0.9437
20.3246 15.1795 -2.2194 0.9032
4.6485 5.6564 -0.6405 0.9710
3.6073 5.6628 -0.5874 0.9734
1.1809 5.6777 -0.5074 0.9770
-0.2067 5.6862 -0.4978 0.9774
-7.5837 26.5977 -2.4197 0.8949
-2.3844 5.6639 -0.5376 0.9756
-5.2945 5.5640 -0.6720 0.9696
-6.9468 5.7277 -0.7877 0.9645
-8.9791 5.7402 -0.9324 0.9581
-11.6859 5.6175 -1.1344 0.9493
-8.7747 2.9800 -0.8108 0.9635
-26.2820 5.5106 -2.3494 0.8978
-26.7546 2.3058 -2.3494 0.8978
-26.8376 -0.9325 -2.3494 0.8978
-27.5101 -7.7960 -2.5016 0.8915
-24.8485 -14.1469 -2.5016 0.8915
-17.1165 -20.6918 -2.3494 0.8978
-14.2080 -22.1464 -2.3020 0.8997
-11.4069 -23.6319 -2.2958 0.9000
-5.5530 -26.2734 -2.3494 0.8978
0.9470 -28.5777 -2.5016 0.8915
-2.0231 5.6809 -0.7404 0.9760
-3.7070 5.6146 -0.8261 0.9733
-6.1947 5.7230 -1.0355 0.9666
-10.2012 5.6318 -1.4307 0.9541
-18.4763 4.9749 -2.3494 0.9258
-18.9409 2.7139 -2.3494 0.9258
-20.3297 0.4393 -2.4968 0.9213
-19.8837 -4.4424 -2.5016 0.9212
-19.2041 -6.8043 -2.5016 0.9212
-17.0204 -11.1982 -2.5016 0.9212
-13.8497 -14.9427 -2.5016 0.9212
-9.8748 -17.8191 -2.5014 0.9212
-7.6579 -18.8800 -2.5016 0.9212
-2.9221 -20.1633 -2.5016 0.9212
1.9832 -20.2772 -2.5016 0.9212
6.7734 -19.2150 -2.5016 0.9212
11.1708 -17.0385 -2.5016 0.9212
16.4824 -11.9761 -2.5016 0.9212
18.8676 -7.6883 -2.5016 0.9212
19.6561 -5.3604 -2.5016 0.9212
20.1586 -2.9546 -2.5016 0.9212
20.3676 -0.5057 -2.5016 0.9212
19.0465 1.8318 -2.3494 0.9258
17.1812 8.4697 -2.3520 0.9257
6.8654 5.7758 -1.1016 0.9645
4.1262 5.6596 -0.8600 0.9722
3.1636 5.6655 -0.7967 0.9742
7.3665 17.9950 -2.3875 0.9246
1.5576 5.6754 -0.7226 0.9766
0.1503 5.6840 -0.6982 0.9773
-1.9827 5.6828 -0.7390 0.9760
-3.6570 5.6172 -0.8230 0.9733
-10.0859 5.6532 -1.4197 0.9545
-12.8242 5.2739 -1.7026 0.9457
-18.4439 5.0937 -2.3494 0.9258
-18.9230 2.8357 -2.3494 0.9258
-20.3093 0.5697 -2.4946 0.9214
-20.2865 -1.8853 -2.5016 0.9212
-19.9119 -4.3143 -2.5016 0.9212
-19.2475 -6.6806 -2.5016 0.9212
-17.0922 -11.0885 -2.5016 0.9212
-15.6326 -13.0659 -2.5016 0.9212
-13.9456 -14.8532 -2.5016 0.9212
-12.0556 -16.4244 -2.5016 0.9212
-7.7793 -18.8303 -2.5016 0.9212
-5.4553 -19.6300 -2.5016 0.9212
-3.0518 -20.1441 -2.5016 0.9212
-0.6040 -20.3650 -2.5016 0.9212
1.8526 -20.2895 -2.5016 0.9212
11.0609 -17.1100 -2.5016 0.9212
14.8308 -13.9694 -2.5016 0.9212
19.6212 -5.4868 -2.5016 0.9212
18.7134 3.9916 -2.3494 0.9258
18.0966 6.2159 -2.3494 0.9258
6.9498 5.7708 -1.1092 0.9642
4.1820 5.6593 -0.8640 0.9720
3.2114 5.6652 -0.7996 0.9741
-1.2046 5.6924 -0.7144 0.9768
-1.9424 5.6847 -0.7376 0.9761
-2.7279 5.6478 -0.7701 0.9750
-3.6074 5.6198 -0.8199 0.9734
-4.6081 5.5678 -0.8874 0.9713
-6.0358 5.7221 -1.0212 0.9670
-7.7314 5.7325 -1.1818 0.9620
-9.9724 5.6742 -1.4088 0.9548
-18.4108 5.2123 -2.3494 0.9258
-19.9314 0.6875 -2.4487 0.9228
-19.9393 -4.1860 -2.5016 0.9212
-19.2901 -6.5566 -2.5016 0.9212
-18.3603 -8.8316 -2.5016 0.9212
-17.1632 -10.9782 -2.5016 0.9212
-15.7164 -12.9650 -2.5016 0.9212
-14.0409 -14.7631 -2.5016 0.9212
-12.1610 -16.3465 -2.5016 0.9212
-10.1042 -17.6918 -2.5016 0.9212
-5.5815 -19.5945 -2.5016 0.9212
-3.1814 -20.1240 -2.5016 0.9212
-0.7351 -20.3607 -2.5016 0.9212
4.1540 -19.9460 -2.5016 0.9212
6.5255 -19.3006 -2.5016 0.9212
8.8021 -18.3745 -2.5016 0.9212
10.9506 -17.1808 -2.5016 0.9212
14.7405 -14.0646 -2.5016 0.9212
16.3269 -12.1873 -2.5016 0.9212
19.5855 -5.6131 -2.5016 0.9212
20.3595 -0.7679 -2.5016 0.9212
18.7387 3.8711 -2.3494 0.9258
18.1362 6.0993 -2.3494 0.9258
17.2826 8.2449 -2.3511 0.9257
8.8999 5.6524 -1.2945 0.9584
7.0401 5.7697 -1.1176 0.9640
5.8129 6.0727 -1.0322 0.9667
4.2384 5.6589 -0.8681 0.9719
3.2596 5.6649 -0.8025 0.9740
1.6363 5.6749 -0.7252 0.9765
-0.4640 5.6878 -0.7007 0.9773
-1.1663 5.6921 -0.7134 0.9769
-1.9022 5.6865 -0.7362 0.9761
-2.6842 5.6498 -0.7680 0.9751
-12.5670 5.3583 -1.6774 0.9464
-18.3768 5.3307 -2.3494 0.9258
-20.3091 -1.6239 -2.5016 0.9212
-19.9658 -4.0576 -2.5016 0.9212
-18.4167 -8.7133 -2.5016 0.9212
-14.1356 -14.6725 -2.5016 0.9212
-10.2179 -17.6264 -2.5016 0.9212
1.5913 -20.3117 -2.5016 0.9212
10.8398 -17.2510 -2.5016 0.9212
14.6497 -14.1592 -2.5016 0.9212
19.5489 -5.7390 -2.5016 0.9212
17.3323 8.1320 -2.3507 0.9257
7.1251 5.7631 -1.1252 0.9637
3.3081 5.6646 -0.8055 0.9739
1.6758 5.6747 -0.7265 0.9764
0.2602 5.6834 -0.6986 0.9773
-0.4272 5.6876 -0.7003 0.9773
-1.1282 5.6919 -0.7125 0.9769
-2.6407 5.6519 -0.7660 0.9752
-3.5068 5.6210 -0.8135 0.9737
-4.4935 5.5738 -0.8791 0.9716
-5.8813 5.7211 -1.0074 0.9675
-7.5252 5.7312 -1.1614 0.9626
-9.7505 5.7154 -1.3877 0.9555
-6.3881 2.7725 -0.8550 0.9723
-18.3421 5.4489 -2.3494 0.9258
-19.1129 0.9057 -2.3494 0.9258
-19.9915 -3.9291 -2.5016 0.9212
-18.4724 -8.5945 -2.5016 0.9212
-15.8820 -12.7616 -2.5016 0.9212
-14.2298 -14.5812 -2.5016 0.9212
-12.3705 -16.1886 -2.5016 0.9212
-8.1414 -18.6766 -2.5016 0.9212
-0.9971 -20.3495 -2.5016 0.9212
1.4605 -20.3215 -2.5016 0.9212
3.8969 -19.9978 -2.5016 0.9212
6.2765 -19.3830 -2.5016 0.9212
8.5648 -18.4862 -2.5016 0.9212
12.7361 -15.9025 -2.5016 0.9212
18.6634 -8.1715 -2.5016 0.9212
19.5116 -5.8647 -2.5016 0.9212
20.2846 1.4250 -2.4968 0.9213
17.3811 8.0189 -2.3503 0.9258
7.2190 5.7625 -1.1341 0.9635
5.8767 5.9832 -1.0297 0.9668
3.3570 5.6643 -0.8085 0.9738
2.4933 5.6697 -0.7605 0.9753
1.7156 5.6744 -0.7279 0.9764
0.2968 5.6831 -0.6988 0.9773
-1.0901 5.6917 -0.7116 0.9769
-1.8224 5.6903 -0.7336 0.9762
-2.5974 5.6539 -0.7640 0.9752
-4.4369 5.5767 -0.8750 0.9717
-9.5927 5.7062 -1.3705 0.9560
-19.1067 1.0288 -2.3494 0.9258
-15.9638 -12.6591 -2.5016 0.9212
-14.3233 -14.4893 -2.5016 0.9212
-12.4744 -16.1086 -2.5016 0.9212
-8.2610 -18.6229 -2.5015 0.9212
-1.1281 -20.3427 -2.5016 0.9212
1.3297 -20.3305 -2.5016 0.9212
8.4456 -18.5410 -2.5016 0.9212
10.6168 -17.3891 -2.5016 0.9212
12.6334 -15.9842 -2.5016 0.9212
17.4766 -10.4721 -2.5016 0.9212
18.6105 -8.2914 -2.5016 0.9212
19.4735 -5.9901 -2.5016 0.9212
20.3408 -1.1609 -2.5016 0.9212
20.3112 1.2955 -2.4990 0.9213
18.8099 3.5085 -2.3494 0.9258
18.2506 5.7480 -2.3494 0.9258
17.4292 7.9054 -2.3499 0.9258
7.3197 5.7662 -1.1441 0.9631
5.9085 5.9386 -1.0286 0.9668
4.4106 5.6579 -0.8808 0.9715
1.7554 5.6742 -0.7293 0.9763
-1.0521 5.6914 -0.7107 0.9769
-2.5544 5.6559 -0.7620 0.9753
-3.4070 5.6208 -0.8070 0.9739
-7.3260 5.7300 -1.1420 0.9632
-16.4455 9.9263 -2.3586 0.9255
-19.0997 1.1517 -2.3494 0.9258
-20.0404 -3.6714 -2.5016 0.9212
-19.4525 -6.0578 -2.5016 0.9212
-17.4402 -10.5327 -2.5016 0.9212
-16.0450 -12.5561 -2.5016 0.9212
-14.4163 -14.3968 -2.5016 0.9212
-10.5563 -17.4259 -2.5016 0.9212
-6.0841 -19.4443 -2.5016 0.9212
-1.2590 -20.3350 -2.5016 0.9212
1.1987 -20.3386 -2.5016 0.9212
10.5047 -17.4571 -2.5016 0.9212
14.3735 -14.4395 -2.5016 0.9212
17.4088 -10.5844 -2.5016 0.9212
18.5567 -8.4111 -2.5016 0.9212
19.4345 -6.1154 -2.5016 0.9212
20.3370 1.1658 -2.5012 0.9212
18.8321 3.3873 -2.3494 0.9258
18.2872 5.6304 -2.3494 0.9258
17.4767 7.7916 -2.3495 0.9258
9.4566 5.6697 -1.3538 0.9565
15.2034 11.8188 -2.3644 0.9253
5.9402 5.8941 -1.0275 0.9668
4.4692 5.6575 -0.8852 0.9714
2.5806 5.6691 -0.7648 0.9752
1.7954 5.6739 -0.7307 0.9763
0.3702 5.6827 -0.6992 0.9773
-0.3168 5.6869 -0.6993 0.9773
-1.7393 5.6817 -0.7296 0.9763
-2.5116 5.6579 -0.7601 0.9754
-4.3254 5.5826 -0.8671 0.9719
-9.3743 5.7408 -1.3497 0.9567
-6.3221 2.8902 -0.8535 0.9724
-18.7995 3.5642 -2.3494 0.9258
-19.0919 1.2746 -2.3494 0.9258
-20.3442 -1.1005 -2.5016 0.9212
-20.0636 -3.5423 -2.5016 0.9212
-14.5086 -14.3037 -2.5016 0.9212
-10.6683 -17.3576 -2.5016 0.9212
-3.8273 -20.0112 -2.5016 0.9212
3.5099 -20.0693 -2.5016 0.9212
5.9010 -19.5006 -2.5016 0.9212
8.2062 -18.6482 -2.5016 0.9212
10.3921 -17.5243 -2.5016 0.9212
15.9262 -12.7063 -2.5016 0.9212
19.3947 -6.2404 -2.5016 0.9212
20.0050 -3.8596 -2.5016 0.9212
20.3242 -1.4226 -2.5016 0.9212
18.8535 3.2661 -2.3494 0.9258
18.3231 5.5126 -2.3494 0.9258
17.5260 7.6788 -2.3494 0.9258
9.5947 5.6689 -1.3683 0.9561
15.2767 11.7188 -2.3641 0.9253
3.5060 5.6634 -0.8178 0.9735
1.8356 5.6737 -0.7322 0.9763
-0.2801 5.6867 -0.6991 0.9773
-1.6958 5.6698 -0.7266 0.9764
-4.2704 5.5854 -0.8633 0.9721
-5.3970 5.5274 -0.9485 0.9693
-7.1333 5.7288 -1.1233 0.9638
-11.8250 5.4981 -1.6012 0.9488
-18.7761 3.6852 -2.3494 0.9258
-19.0833 1.3974 -2.3494 0.9258
-20.3508 -0.9696 -2.5016 0.9212
-20.0860 -3.4131 -2.5016 0.9212
-19.5289 -5.8068 -2.5016 0.9212
-18.6876 -8.1161 -2.5016 0.9212
-17.5743 -10.3073 -2.5016 0.9212
-12.7831 -15.8647 -2.5016 0.9212
-10.7798 -17.2885 -2.5016 0.9212
-6.3339 -19.3644 -2.5016 0.9212
-1.5207 -20.3171 -2.5016 0.9212
0.9368 -20.3524 -2.5016 0.9212
3.3807 -20.0915 -2.5016 0.9212
5.7754 -19.5382 -2.5016 0.9212
8.0861 -18.7006 -2.5016 0.9212
12.3224 -16.2252 -2.5016 0.9212
14.1865 -14.6233 -2.5016 0.9212
15.8441 -12.8086 -2.5016 0.9212
18.4469 -8.6492 -2.5016 0.9212
19.3541 -6.3650 -2.5016 0.9212
19.9798 -3.9882 -2.5016 0.9212
20.3539 0.9040 -2.5016 0.9212
18.8742 3.1447 -2.3494 0.9258
18.3582 5.3945 -2.3494 0.9258
16.5853 9.6558 -2.3564 0.9256
15.3494 11.6185 -2.3637 0.9254
6.0035 5.8055 -1.0254 0.9669
4.5881 5.6568 -0.8943 0.9711
1.1429 5.6779 -0.7111 0.9769
0.4437 5.6822 -0.6998 0.9773
-2.4266 5.6619 -0.7564 0.9755
-3.2614 5.6228 -0.7981 0.9741
-7.0393 5.7282 -1.1143 0.9641
-9.1091 5.7410 -1.3221 0.9575
-11.6554 5.5107 -1.5830 0.9494
-8.8173 2.9313 -1.1409 0.9632
-19.0739 1.5203 -2.3494 0.9258
-20.3567 -0.8386 -2.5016 0.9212
-20.1076 -3.2837 -2.5016 0.9212
-17.6402 -10.1940 -2.5016 0.9212
-14.6916 -14.1157 -2.5016 0.9212
-12.8850 -15.7821 -2.5016 0.9212
-10.8908 -17.2188 -2.5016 0.9212
-8.7352 -18.3985 -2.5007 0.9212
-1.6514 -20.3069 -2.5016 0.9212
0.8058 -20.3580 -2.5016 0.9212
5.6495 -19.5750 -2.5016 0.9212
7.9655 -18.7523 -2.5016 0.9212
10.1656 -17.6567 -2.5016 0.9212
12.2177 -16.3041 -2.5016 0.9212
14.0921 -14.7143 -2.5016 0.9212
17.2012 -10.9186 -2.5016 0.9212
18.3908 -8.7678 -2.5016 0.9212
19.3128 -6.4895 -2.5016 0.9212
19.9537 -4.1168 -2.5016 0.9212
20.3593 0.7731 -2.5016 0.9212
18.8940 3.0231 -2.3494 0.9258
17.6234 7.4525 -2.3494 0.9258
16.6443 9.5471 -2.3560 0.9256
15.4214 11.5176 -2.3633 0.9254
3.6073 5.6628 -0.8244 0.9733
0.4805 5.6820 -0.7002 0.9773
-2.3844 5.6639 -0.7546 0.9755
-3.2144 5.6250 -0.7955 0.9742
-5.2652 5.5333 -0.9378 0.9697
-11.4895 5.5231 -1.5653 0.9499
-8.7732 2.9795 -1.1376 0.9633
-18.7271 3.9266 -2.3494 0.9258
-20.1283 -3.1542 -2.5016 0.9212
-16.3629 -12.1389 -2.5016 0.9212
-12.9862 -15.6989 -2.5016 0.9212
-6.5827 -19.2812 -2.5016 0.9212
-4.2131 -19.9336 -2.5016 0.9212
-1.7821 -20.2958 -2.5016 0.9212
-1.2815 5.6929 -0.9242 0.9766
-2.0231 5.6809 -0.9551 0.9759
-2.8161 5.6437 -0.9990 0.9748
-3.6920 5.5920 -1.0613 0.9732
-7.9449 5.7338 -1.5518 0.9611
-13.7548 5.5533 -2.3494 0.9417
-15.7908 0.3412 -2.5016 0.9380
-15.7170 -1.5627 -2.5016 0.9380
-6.5055 -2.3050 -1.0931 0.9724
-13.1948 -8.6812 -2.5016 0.9380
-12.0534 -10.2069 -2.5016 0.9380
-10.7367 -11.5840 -2.5016 0.9380
-9.2637 -12.7926 -2.5016 0.9380
-0.3666 -15.7902 -2.5016 0.9380
1.5374 -15.7195 -2.5016 0.9380
3.4191 -15.4200 -2.5016 0.9380
7.0064 -14.1554 -2.5016 0.9380
10.1875 -12.0699 -2.5016 0.9380
12.7777 -9.2842 -2.5016 0.9380
14.6267 -5.9602 -2.5016 0.9380
15.2380 -4.1556 -2.5016 0.9380
15.2160 1.4634 -2.4211 0.9400
14.4870 3.1877 -2.3494 0.9417
13.9977 4.9090 -2.3494 0.9417
0.8418 5.6798 -0.9094 0.9770
-1.9827 5.6828 -0.9533 0.9759
-2.7719 5.6457 -0.9962 0.9749
-3.6427 5.5953 -1.0575 0.9733
-6.1147 5.7225 -1.3264 0.9667
-10.0859 5.6532 -1.8313 0.9543
-15.4363 -3.3446 -2.5016 0.9380
-6.2058 -3.0345 -1.0941 0.9724
-9.3458 -12.7327 -2.5016 0.9380
5.1550 -14.9296 -2.5016 0.9380
6.9152 -14.2002 -2.5016 0.9380
14.5881 -6.0542 -2.5016 0.9380
15.3366 1.3755 -2.4388 0.9395
13.3467 6.4730 -2.3494 0.9417
12.4753 8.0363 -2.3504 0.9417
5.7809 6.1176 -1.3331 0.9665
4.1820 5.6593 -1.1145 0.9719
3.2114 5.6652 -1.0314 0.9740
2.3559 5.6511 -0.9697 0.9755
1.5969 5.6752 -0.9338 0.9764
-1.2046 5.6924 -0.9216 0.9767
-3.5938 5.5986 -1.0537 0.9734
-4.5774 5.5306 -1.1371 0.9713
-9.9724 5.6742 -1.8173 0.9546
-15.7358 -1.3602 -2.5016 0.9380
-15.4575 -3.2451 -2.5016 0.9380
-6.2156 -2.9898 -1.0924 0.9725
-10.8849 -11.4448 -2.5016 0.9380
-7.8331 -13.7153 -2.5016 0.9380
-4.3270 -15.1902 -2.5016 0.9380
-2.4663 -15.6007 -2.5016 0.9380
-0.5698 -15.7842 -2.5016 0.9380
1.3349 -15.7380 -2.5016 0.9380
5.0587 -14.9625 -2.5016 0.9380
10.0312 -12.2000 -2.5016 0.9380
11.4273 -10.9033 -2.5016 0.9380
15.1832 -4.3514 -2.5016 0.9380
15.7833 -0.5953 -2.5016 0.9380
15.4165 1.2827 -2.4502 0.9393
14.5268 3.0010 -2.3494 0.9417
13.3881 6.3869 -2.3494 0.9417
12.5252 7.9549 -2.3501 0.9417
4.2384 5.6589 -1.1198 0.9718
3.2596 5.6649 -1.0352 0.9739
1.6363 5.6749 -0.9354 0.9764
0.9166 5.6793 -0.9112 0.9770
-0.4640 5.6878 -0.9039 0.9772
-1.1663 5.6921 -0.9203 0.9767
-2.6842 5.6499 -0.9907 0.9750
-3.5452 5.6019 -1.0500 0.9735
-5.9580 5.7216 -1.3083 0.9671
-9.8606 5.6949 -1.8035 0.9549
-6.4596 2.7542 -1.1122 0.9720
-14.2463 4.1325 -2.3494 0.9417
-14.6402 2.3870 -2.3494 0.9417
-15.7442 -1.2589 -2.5016 0.9380
-12.2483 -9.9722 -2.5016 0.9380
-7.9212 -13.6646 -2.5016 0.9380
-6.2182 -14.5190 -2.5016 0.9380
-4.4246 -15.1621 -2.5016 0.9380
-0.6715 -15.7802 -2.5016 0.9380
3.1207 -15.4831 -2.5016 0.9380
4.9624 -14.9947 -2.5016 0.9380
8.4033 -13.3735 -2.5016 0.9380
9.9525 -12.2643 -2.5016 0.9380
13.6518 -7.9432 -2.5016 0.9380
14.5089 -6.2415 -2.5016 0.9380
15.1549 -4.4490 -2.5016 0.9380
15.4965 1.1889 -2.4616 0.9390
12.5745 7.8731 -2.3498 0.9417
5.8448 6.0279 -1.3298 0.9666
4.2952 5.6586 -1.1252 0.9716
3.3081 5.6646 -1.0390 0.9738
2.4499 5.6699 -0.9783 0.9753
-3.4969 5.6051 -1.0464 0.9736
-5.8813 5.7211 -1.2995 0.9673
-7.5252 5.7312 -1.4982 0.9624
-6.3641 2.7621 -1.0988 0.9723
-14.2194 4.2241 -2.3494 0.9417
-14.6246 2.4812 -2.3494 0.9417
-15.7768 0.7476 -2.5016 0.9380
-15.7520 -1.1576 -2.5016 0.9380
-15.4980 -3.0459 -2.5016 0.9380
-6.2391 -2.9028 -1.0899 0.9725
-12.3122 -9.8932 -2.5016 0.9380
-8.0090 -13.6133 -2.5016 0.9380
-6.3115 -14.4786 -2.5016 0.9380
-4.5221 -15.1333 -2.5016 0.9380
3.0210 -15.5029 -2.5016 0.9380
4.8657 -15.0263 -2.5016 0.9380
6.6397 -14.3311 -2.5016 0.9380
8.3171 -13.4273 -2.5016 0.9380
9.8734 -12.3281 -2.5016 0.9380
11.2860 -11.0495 -2.5016 0.9380
12.5344 -9.6101 -2.5016 0.9380
13.6004 -8.0309 -2.5016 0.9380
14.4685 -6.3348 -2.5016 0.9380
15.1260 -4.5465 -2.5016 0.9380
15.7743 -0.7984 -2.5016 0.9380
15.5766 1.0943 -2.4732 0.9387
13.4692 6.2141 -2.3494 0.9417
12.6232 7.7909 -2.3495 0.9417
7.2425 5.7813 -1.4677 0.9632
5.8767 5.9832 -1.3283 0.9666
3.3570 5.6643 -1.0429 0.9737
1.7156 5.6744 -0.9389 0.9763
-0.3903 5.6874 -0.9029 0.9772
-3.4489 5.6083 -1.0428 0.9737
-4.4097 5.5425 -1.1218 0.9717
-7.4247 5.7306 -1.4855 0.9627
-14.1919 4.3156 -2.3494 0.9417
-15.7715 0.8492 -2.5016 0.9380
-15.5173 -2.9461 -2.5016 0.9380
-6.2517 -2.8599 -1.0889 0.9725
-12.3756 -9.8137 -2.5016 0.9380
-8.0964 -13.5615 -2.5016 0.9380
-2.7671 -15.5502 -2.5016 0.9380
-0.8745 -15.7703 -2.5016 0.9380
2.9211 -15.5220 -2.5016 0.9380
6.5473 -14.3735 -2.5016 0.9380
13.5485 -8.1179 -2.5016 0.9380
15.0964 -4.6437 -2.5016 0.9380
15.6407 0.9976 -2.4823 0.9385
14.1484 4.4560 -2.3494 0.9417
12.6728 7.7093 -2.3494 0.9417
7.3381 5.7807 -1.4795 0.9629
3.4063 5.6640 -1.0468 0.9736
2.5368 5.6694 -0.9837 0.9752
0.3335 5.6829 -0.9016 0.9772
-1.0521 5.6914 -0.9167 0.9768
-1.7827 5.6922 -0.9447 0.9761
-2.5544 5.6559 -0.9829 0.9752
-3.4013 5.6114 -1.0393 0.9738
-4.3547 5.5463 -1.1169 0.9718
-7.3260 5.7300 -1.4731 0.9630
-12.6984 7.6645 -2.3492 0.9417
-6.3215 2.8409 -1.0977 0.9723
-15.7551 0.9500 -2.4999 0.9381
-15.5359 -2.8462 -2.5016 0.9380
-7.2498 -2.2577 -1.2026 0.9697
-6.2642 -2.8169 -1.0878 0.9726
-12.4386 -9.7339 -2.5016 0.9380
-11.1760 -11.1608 -2.5016 0.9380
-9.7507 -12.4254 -2.5016 0.9380
-8.1836 -13.5091 -2.5016 0.9380
-6.4973 -14.3962 -2.5016 0.9380
-4.7166 -15.0738 -2.5016 0.9380
-2.8672 -15.5321 -2.5016 0.9380
-0.9760 -15.7643 -2.5016 0.9380
0.9293 -15.7671 -2.5016 0.9380
2.8211 -15.5405 -2.5016 0.9380
4.6719 -15.0877 -2.5016 0.9380
8.1435 -13.5332 -2.5016 0.9380
9.7139 -12.4542 -2.5016 0.9380
11.1428 -11.1939 -2.5016 0.9380
13.4959 -8.2053 -2.5016 0.9380
15.0662 -4.7408 -2.5016 0.9380
15.7627 -1.0014 -2.5016 0.9380
14.5992 2.6260 -2.3494 0.9417
14.1768 4.3648 -2.3494 0.9417
12.7222 7.6276 -2.3494 0.9417
5.9402 5.8941 -1.3254 0.9667
2.5806 5.6691 -0.9866 0.9751
1.0671 5.6784 -0.9151 0.9769
-0.3168 5.6869 -0.9021 0.9772
-1.0142 5.6912 -0.9156 0.9769
-1.7393 5.6817 -0.9411 0.9762
-2.5116 5.6579 -0.9805 0.9752
-3.3539 5.6146 -1.0358 0.9739
-4.3003 5.5501 -1.1120 0.9720
-7.2289 5.7294 -1.4609 0.9633
-6.3220 2.8901 -1.1010 0.9722
-15.7381 1.0507 -2.4982 0.9381
-15.7714 -0.8532 -2.5016 0.9380
-6.2764 -2.7740 -1.0868 0.9726
-13.5724 -8.0781 -2.5016 0.9380
-8.2704 -13.4561 -2.5016 0.9380
-6.5899 -14.3541 -2.5016 0.9380
-4.8135 -15.0431 -2.5016 0.9380
8.0562 -13.5854 -2.5016 0.9380
15.0354 -4.8377 -2.5016 0.9380
15.7114 0.7992 -2.4917 0.9383
14.2046 4.2735 -2.3494 0.9417
11.7932 9.0466 -2.3541 0.9416
5.9719 5.8497 -1.3240 0.9667
3.5060 5.6634 -1.0550 0.9734
2.6247 5.6688 -0.9894 0.9750
1.8356 5.6737 -0.9445 0.9761
1.1050 5.6782 -0.9162 0.9768
-0.2801 5.6867 -0.9018 0.9772
-3.3069 5.6177 -1.0325 0.9739
-4.2463 5.5539 -1.1073 0.9721
-5.3072 5.4355 -1.2032 0.9697
-11.6099 5.3981 -2.0279 0.9495
-14.1059 4.5888 -2.3494 0.9417
-15.5713 -2.6459 -2.5016 0.9380
-6.2885 -2.7311 -1.0859 0.9726
-6.1848 -3.6274 -1.1356 0.9714
-8.3568 -13.4026 -2.5016 0.9380
-4.9103 -15.0118 -2.5016 0.9380
-3.0669 -15.4939 -2.5016 0.9380
0.7263 -15.7778 -2.5016 0.9380
2.6208 -15.5755 -2.5016 0.9380
10.9978 -11.3364 -2.5016 0.9380
12.2828 -9.9296 -2.5016 0.9380
13.3891 -8.3784 -2.5016 0.9380
14.3006 -6.7052 -2.5016 0.9380
15.0039 -4.9344 -2.5016 0.9380
15.4889 -3.0918 -2.5016 0.9380
14.6318 2.4378 -2.3494 0.9417
12.8193 7.4632 -2.3494 0.9417
11.8497 8.9694 -2.3538 0.9416
2.6690 5.6686 -0.9924 0.9749
1.1429 5.6779 -0.9173 0.9768
0.4437 5.6822 -0.9027 0.9772
-0.9387 5.6908 -0.9135 0.9769
-2.4266 5.6619 -0.9757 0.9754
-3.2602 5.6208 -1.0292 0.9740
-4.1927 5.5577 -1.1026 0.9722
-7.0393 5.7282 -1.4374 0.9639
-9.1091 5.7410 -1.7054 0.9573
-11.4589 5.4178 -2.0075 0.9500
-8.8139 2.9302 -1.4711 0.9631
-15.7023 1.2516 -2.4949 0.9382
-15.7811 -0.6501 -2.5016 0.9380
-15.5880 -2.5456 -2.5016 0.9380
-6.3002 -2.6881 -1.0849 0.9726
-6.1799 -3.5713 -1.1305 0.9715
-8.4429 -13.3485 -2.5016 0.9380
-6.7741 -14.2680 -2.5016 0.9380
-5.0067 -14.9799 -2.5016 0.9380
-3.1665 -15.4738 -2.5016 0.9380
-1.2802 -15.7425 -2.5016 0.9380
0.6247 -15.7821 -2.5016 0.9380
2.5205 -15.5921 -2.5016 0.9380
4.3797 -15.1751 -2.5016 0.9380
10.9246 -11.4070 -2.5016 0.9380
13.3349 -8.4644 -2.5016 0.9380
14.2571 -6.7971 -2.5016 0.9380
14.9718 -5.0309 -2.5016 0.9380
15.4687 -3.1914 -2.5016 0.9380
15.7404 -1.3056 -2.5016 0.9380
14.6472 2.3436 -2.3494 0.9417
14.2584 4.0903 -2.3494 0.9417
13.6622 5.7774 -2.3494 0.9417
12.8671 7.3805 -2.3494 0.9417
4.6485 5.6564 -1.1596 0.9708
3.6073 5.6628 -1.0634 0.9732
2.7135 5.6683 -0.9953 0.9749
1.9165 5.6732 -0.9484 0.9760
1.1809 5.6777 -0.9185 0.9768
-0.2067 5.6862 -0.9012 0.9772
-0.9011 5.6905 -0.9125 0.9769
-4.1103 14.4155 -2.3742 0.9411
-2.3844 5.6639 -0.9733 0.9754
-8.7717 2.9789 -1.4672 0.9632
-15.4705 1.3333 -2.4594 0.9391
-15.7850 -0.5485 -2.5016 0.9380
-15.6041 -2.4452 -2.5016 0.9380
-8.0961 -2.2943 -1.3328 0.9665
-6.3122 -2.6454 -1.0840 0.9727
-11.4596 -10.8694 -2.5016 0.9380
-10.0673 -12.1702 -2.5016 0.9380
-5.1031 -14.9474 -2.5016 0.9380
-2.7934 5.5983 -1.2162 0.9748
-7.9449 5.7338 -1.9045 0.9609
-11.6710 3.1425 -2.3494 0.9519
-11.9644 1.7143 -2.3494 0.9519
-6.2237 -2.2052 -1.2835 0.9735
-9.8214 -8.3168 -2.5016 0.9489
-6.2381 -11.2567 -2.5016 0.9489
-4.8373 -11.9259 -2.5016 0.9489
-3.3661 -12.4216 -2.5016 0.9489
-1.8458 -12.7366 -2.5016 0.9489
2.7859 -12.5645 -2.5016 0.9489
4.2786 -12.1376 -2.5016 0.9489
8.3009 -9.8347 -2.5016 0.9489
9.4248 -8.7636 -2.5016 0.9489
10.4115 -7.5650 -2.5016 0.9489
11.2466 -6.2563 -2.5016 0.9489
11.9181 -4.8565 -2.5016 0.9489
12.4162 -3.3860 -2.5016 0.9489
12.8657 -0.3194 -2.5016 0.9489
11.4056 3.9999 -2.3494 0.9519
6.8780 5.7864 -1.7471 0.9640
5.7488 6.1626 -1.6382 0.9662
4.1262 5.6596 -1.3615 0.9719
1.5576 5.6754 -1.1440 0.9763
0.8418 5.6798 -1.1161 0.9769
0.1503 5.6840 -1.1053 0.9771
-0.5379 5.6883 -1.1106 0.9770
-1.2430 5.6926 -1.1326 0.9765
-2.7500 5.6012 -1.2129 0.9749
-3.6080 5.5420 -1.2854 0.9734
-4.5866 5.4697 -1.3875 0.9713
-6.1147 5.7225 -1.6279 0.9664
-11.1783 4.5970 -2.3494 0.9519
-11.6505 3.2175 -2.3494 0.9519
-12.5778 -2.7252 -2.5016 0.9489
-6.3282 -2.1964 -1.3021 0.9731
-5.6888 -3.6906 -1.3181 0.9727
-8.8090 -9.3824 -2.5016 0.9489
-7.6151 -10.3748 -2.5016 0.9489
-6.3105 -11.2163 -2.5016 0.9489
-0.3815 -12.8640 -2.5016 0.9489
2.7050 -12.5821 -2.5016 0.9489
4.2004 -12.1649 -2.5016 0.9489
5.6346 -11.5706 -2.5016 0.9489
6.9869 -10.8079 -2.5016 0.9489
9.3682 -8.8241 -2.5016 0.9489
10.3625 -7.6318 -2.5016 0.9489
11.8866 -4.9331 -2.5016 0.9489
12.6580 1.1352 -2.4703 0.9495
6.9644 5.7830 -1.7596 0.9638
3.2114 5.6652 -1.2658 0.9738
2.3559 5.6511 -1.1901 0.9754
1.5968 5.6752 -1.1460 0.9763
0.8792 5.6796 -1.1171 0.9769
-1.9321 5.6546 -1.1615 0.9759
-7.7314 5.7325 -1.8709 0.9615
-10.0705 5.7300 -2.2522 0.9539
-11.1485 4.6689 -2.3494 0.9519
-11.6296 3.2925 -2.3494 0.9519
-11.9414 1.8682 -2.3494 0.9519
-12.8620 0.4436 -2.5016 0.9489
-6.3825 -11.1754 -2.5016 0.9489
-3.5257 -12.3773 -2.5016 0.9489
-2.0096 -12.7117 -2.5016 0.9489
-0.4643 -12.8612 -2.5016 0.9489
2.6239 -12.5993 -2.5016 0.9489
6.9172 -10.8527 -2.5016 0.9489
8.1736 -9.9408 -2.5016 0.9489
9.3112 -8.8842 -2.5016 0.9489
10.3132 -7.6984 -2.5016 0.9489
11.8546 -5.0095 -2.5016 0.9489
12.3716 -3.5456 -2.5016 0.9489
12.7085 -2.0301 -2.5016 0.9489
11.4561 3.8528 -2.3494 0.9519
7.0557 5.7824 -1.7732 0.9635
5.8129 6.0727 -1.6340 0.9663
1.6363 5.6749 -1.1480 0.9762
0.9166 5.6793 -1.1182 0.9768
-4.4749 5.4782 -1.3750 0.9716
-5.4496 5.2334 -1.4687 0.9697
-7.6274 5.7319 -1.8546 0.9619
-9.9472 5.7449 -2.2328 0.9543
-6.5540 -2.1807 -1.3426 0.9722
-9.9801 -8.1256 -2.5016 0.9489
-8.9291 -9.2682 -2.5016 0.9489
-6.4543 -11.1341 -2.5016 0.9489
-5.0667 -11.8303 -2.5016 0.9489
-2.0914 -12.6985 -2.5016 0.9489
1.0052 -12.8303 -2.5016 0.9489
2.5428 -12.6159 -2.5016 0.9489
4.0434 -12.2179 -2.5016 0.9489
5.4852 -11.6422 -2.5016 0.9489
6.8472 -10.8970 -2.5016 0.9489
8.1095 -9.9932 -2.5016 0.9489
11.1237 -6.4723 -2.5016 0.9489
11.8221 -5.0857 -2.5016 0.9489
12.8571 -0.5678 -2.5016 0.9489
11.8522 2.3690 -2.3494 0.9519
10.9421 5.1339 -2.3494 0.9519
10.2443 6.4141 -2.3494 0.9519
7.1484 5.7818 -1.7871 0.9632
4.2952 5.6586 -1.3809 0.9715
2.4499 5.6699 -1.2006 0.9751
0.9541 5.6791 -1.1194 0.9768
0.2602 5.6834 -1.1059 0.9771
-0.4272 5.6876 -1.1087 0.9770
-3.4639 5.5522 -1.2720 0.9737
-4.4198 5.4824 -1.3688 0.9717
-7.5252 5.7312 -1.8387 0.9622
-9.7505 5.7154 -2.1969 0.9550
-6.3879 2.7724 -1.3536 0.9720
-11.9163 2.0217 -2.3494 0.9519
-12.8350 -0.9432 -2.5016 0.9489
-12.6281 -2.4819 -2.5016 0.9489
-5.7820 -2.6901 -1.2396 0.9743
-10.0322 -8.0612 -2.5016 0.9489
-7.8141 -10.2258 -2.5016 0.9489
-5.1427 -11.7975 -2.5016 0.9489
-2.1731 -12.6848 -2.5016 0.9489
0.9225 -12.8365 -2.5016 0.9489
3.9647 -12.2437 -2.5016 0.9489
5.4101 -11.6772 -2.5016 0.9489
6.7769 -10.9408 -2.5016 0.9489
10.2133 -7.8305 -2.5016 0.9489
11.7892 -5.1617 -2.5016 0.9489
12.8532 -0.6505 -2.5016 0.9489
11.8672 2.2927 -2.3494 0.9519
10.2854 6.3480 -2.3494 0.9519
7.2425 5.7813 -1.8013 0.9629
5.8767 5.9832 -1.6302 0.9664
3.3570 5.6643 -1.2799 0.9735
1.7156 5.6744 -1.1523 0.9761
0.9917 5.6789 -1.1206 0.9768
-0.3903 5.6874 -1.1081 0.9770
-1.0901 5.6917 -1.1265 0.9767
-2.5784 5.6125 -1.2006 0.9751
-5.3456 5.2673 -1.4588 0.9699
-7.4248 5.7306 -1.8231 0.9625
-9.5927 5.7062 -2.1696 0.9555
-11.9031 2.0984 -2.3494 0.9519
-12.6438 -2.4005 -2.5016 0.9489
-6.7773 -2.1585 -1.3826 0.9714
-5.7907 -2.6490 -1.2378 0.9744
-5.6816 -3.4814 -1.2952 0.9732
-9.0476 -9.1525 -2.5016 0.9489
-7.8797 -10.1754 -2.5016 0.9489
-3.7640 -12.3069 -2.5016 0.9489
-2.2547 -12.6706 -2.5016 0.9489
-0.7126 -12.8499 -2.5016 0.9489
0.8399 -12.8422 -2.5016 0.9489
2.3801 -12.6476 -2.5016 0.9489
5.3348 -11.7118 -2.5016 0.9489
6.7063 -10.9842 -2.5016 0.9489
7.9802 -10.0967 -2.5016 0.9489
10.1626 -7.8961 -2.5016 0.9489
11.0395 -6.6149 -2.5016 0.9489
11.7557 -5.2375 -2.5016 0.9489
12.6669 -2.2751 -2.5016 0.9489
12.8487 -0.7333 -2.5016 0.9489
12.7927 0.8160 -2.4917 0.9491
11.8817 2.2162 -2.3494 0.9519
11.0073 4.9926 -2.3494 0.9519
7.3381 5.7807 -1.8158 0.9626
5.9085 5.9386 -1.6284 0.9664
4.4106 5.6579 -1.3945 0.9712
1.0294 5.6786 -1.1218 0.9768
-0.3536 5.6871 -1.1076 0.9770
-1.0521 5.6914 -1.1250 0.9767
-2.5360 5.6153 -1.1977 0.9752
-7.3260 5.7300 -1.8079 0.9628
-11.5409 3.5908 -2.3494 0.9519
-12.8463 0.7746 -2.5016 0.9489
-12.8461 -0.7779 -2.5016 0.9489
-5.7992 -2.6079 -1.2360 0.9744
-6.6681 -11.0074 -2.5016 0.9489
-5.2941 -11.7303 -2.5016 0.9489
0.7572 -12.8473 -2.5016 0.9489
2.2987 -12.6627 -2.5016 0.9489
3.8067 -12.2937 -2.5016 0.9489
9.0794 -9.1210 -2.5016 0.9489
12.2762 -3.8629 -2.5016 0.9489
12.8174 0.7348 -2.4955 0.9490
11.5515 3.5565 -2.3494 0.9519
11.0392 4.9216 -2.3494 0.9519
10.3662 6.2151 -2.3494 0.9519
5.9402 5.8941 -1.6266 0.9665
4.4692 5.6575 -1.4014 0.9710
3.4560 5.6637 -1.2897 0.9733
-0.3168 5.6869 -1.1071 0.9771
-2.4939 5.6180 -1.1948 0.9753
-4.2572 5.4946 -1.3511 0.9721
-9.3743 5.7408 -2.1367 0.9562
-11.8751 2.2514 -2.3494 0.9519
-5.8114 -2.5685 -1.2350 0.9744
-5.6807 -3.3811 -1.2850 0.9734
-10.1860 -7.8659 -2.5016 0.9489
-8.0101 -10.0730 -2.5016 0.9489
-6.7388 -10.9643 -2.5016 0.9489
-3.9221 -12.2574 -2.5016 0.9489
0.6745 -12.8519 -2.5016 0.9489
5.1837 -11.7795 -2.5016 0.9489
6.5644 -11.0696 -2.5016 0.9489
7.8495 -10.1986 -2.5016 0.9489
9.0205 -9.1792 -2.5016 0.9489
10.0602 -8.0262 -2.5016 0.9489
11.6873 -5.3884 -2.5016 0.9489
12.2511 -3.9419 -2.5016 0.9489
12.8382 -0.8986 -2.5016 0.9489
12.8417 0.6533 -2.4994 0.9490
11.9092 2.0631 -2.3494 0.9519
11.5742 3.4821 -2.3494 0.9519
10.4060 6.1482 -2.3494 0.9519
9.5900 7.3565 -2.3494 0.9519
