ply
format ascii 1.0
element vertex 1554
property float32 x
property float32 y
property float32 z
property float32 I
end_header
23.0617 -35.8477 2.2339 0.8430
48.9563 -36.2255 3.1917 0.7835
41.6735 -23.6589 2.5114 0.8254
57.9924 -16.3597 3.1579 0.7856
57.9432 -9.0100 3.0732 0.7907
57.8506 5.0533 3.0434 0.7925
16.3823 5.5843 0.9071 0.9330
26.1669 16.7689 1.6288 0.8830
23.7209 19.6020 1.6127 0.8840
4.2577 5.7329 0.3742 0.9718
1.6117 5.6751 0.3092 0.9766
0.8934 5.6795 0.3013 0.9772
0.2008 5.6837 0.2981 0.9775
-0.4868 5.6880 0.2992 0.9774
-1.1899 5.6923 0.3048 0.9770
-10.0401 5.7467 0.6063 0.9547
-13.6770 5.7690 0.7779 0.9423
14.7474 -44.0213 2.4331 0.8303
48.6540 -28.0755 2.9439 0.7985
57.8992 -2.3513 3.0369 0.7929
57.8533 4.6445 3.0417 0.7926
34.2565 16.2192 1.9864 0.8591
23.2489 24.1439 1.7566 0.8744
4.2939 5.6976 0.3739 0.9718
3.7428 6.4599 0.3913 0.9705
2.4269 5.6701 0.3232 0.9756
1.6548 5.6748 0.3098 0.9766
0.2408 5.6835 0.2981 0.9775
-0.4466 5.6877 0.2990 0.9774
-1.1482 5.6920 0.3043 0.9770
-3.5843 5.7026 0.3530 0.9734
-4.6331 5.7079 0.3853 0.9710
-7.5775 5.7315 0.4979 0.9627
-9.8767 5.7457 0.5988 0.9553
-33.4668 -34.5117 2.5194 0.8248
-26.2332 -34.5558 2.2737 0.8405
-20.1818 -34.5528 2.0971 0.8519
-11.0400 -65.6715 3.4900 0.7659
11.3819 -57.4649 3.0701 0.7909
20.9586 -44.8764 2.5957 0.8201
28.1410 -45.1235 2.7870 0.8081
23.1190 -28.6877 1.9309 0.8628
28.0142 -27.2617 2.0486 0.8551
48.5515 -28.4727 2.9497 0.7982
58.0521 -25.2103 3.3169 0.7761
17.1537 5.5796 0.9453 0.9303
34.8797 16.2153 2.0158 0.8572
23.2468 23.8048 1.7438 0.8752
-0.4064 5.6875 0.2988 0.9774
-1.1066 5.6918 0.3039 0.9770
-3.5109 5.6740 0.3497 0.9736
-33.9636 5.8937 1.8066 0.8710
-33.9374 -34.5088 2.5366 0.8238
-18.5472 -31.2480 1.9044 0.8645
-15.2307 -34.5726 1.9799 0.8596
-13.0009 -42.8976 2.3491 0.8357
-11.5108 -65.6486 3.4930 0.7657
10.9375 -57.3309 3.0588 0.7915
20.6683 -45.0779 2.5989 0.8199
27.6453 -45.0303 2.7692 0.8093
23.1164 -29.1005 1.9477 0.8617
27.6210 -27.2592 2.0338 0.8560
48.4986 -37.4934 3.2127 0.7823
58.0013 -17.6896 3.1779 0.7844
57.6435 10.8924 3.0744 0.7906
17.5643 5.5770 0.9658 0.9288
35.5217 16.2114 2.0463 0.8552
27.4096 16.7613 1.6838 0.8792
23.2448 23.4707 1.7312 0.8761
5.1787 6.6745 0.4427 0.9667
2.5215 5.6695 0.3252 0.9755
1.7415 5.6743 0.3111 0.9765
-0.3662 5.6872 0.2987 0.9774
-1.0651 5.6915 0.3035 0.9771
-2.5897 5.7009 0.3282 0.9752
-3.4699 5.6967 0.3496 0.9736
-25.3489 19.7394 1.6838 0.8792
-12.8997 5.7642 0.7405 0.9450
-32.5550 5.8850 1.7338 0.8759
-61.4015 -27.7623 3.5316 0.7634
-27.0028 -34.5511 2.2981 0.8389
-18.8377 -31.2356 1.9116 0.8641
-12.0204 -65.8342 3.5073 0.7649
48.9942 -29.6651 3.0017 0.7950
47.3186 -21.3441 2.7205 0.8123
58.0043 -18.1366 3.1850 0.7839
57.9544 -10.6868 3.0885 0.7897
57.8152 10.5049 3.0796 0.7903
5.2538 6.6740 0.4451 0.9666
2.5692 5.6692 0.3262 0.9754
1.0574 5.6785 0.3027 0.9771
-1.0237 5.6913 0.3031 0.9771
-1.7536 5.6958 0.3123 0.9764
-20.0074 33.3727 2.0392 0.8557
-12.6570 5.7628 0.7288 0.9458
-18.3156 5.7975 1.0068 0.9259
-31.1649 5.8601 1.6619 0.8807
-32.7785 -25.3872 2.1728 0.8470
-34.8983 -34.5029 2.5719 0.8215
-11.6923 -19.0831 1.1729 0.9143
-15.8127 -34.5690 1.9922 0.8588
-12.9825 -40.7648 2.2421 0.8425
-15.2597 -80.3768 4.2876 0.7206
26.7787 -45.0249 2.7455 0.8107
48.9913 -30.1355 3.0144 0.7942
46.5812 -21.4064 2.6867 0.8144
58.0073 -18.5860 3.1923 0.7835
57.9572 -11.1087 3.0927 0.7895
57.9099 -3.9835 3.0421 0.7925
18.4413 5.5716 1.0096 0.9257
36.8657 16.2031 2.1104 0.8510
28.2858 16.7559 1.7230 0.8766
23.7125 18.2327 1.5676 0.8871
23.2407 22.8164 1.7069 0.8777
2.6172 5.6689 0.3272 0.9753
0.3985 5.6484 0.2968 0.9776
-0.2860 5.6867 0.2984 0.9775
-0.9825 5.6910 0.3027 0.9771
-1.7098 5.6955 0.3116 0.9765
-3.3539 5.6845 0.3459 0.9739
-4.3713 5.7058 0.3767 0.9716
-5.5888 5.7127 0.4188 0.9685
-12.4217 5.7613 0.7176 0.9466
-30.0525 5.8697 1.6047 0.8846
-91.8455 -15.6901 4.8831 0.6885
-35.3892 -34.4999 2.5901 0.8204
-27.7893 -34.5463 2.3236 0.8373
-21.5223 -34.5795 2.1346 0.8495
-16.1064 -34.5672 1.9986 0.8583
-12.9819 -39.7942 2.1937 0.8456
15.0607 -89.1035 4.7359 0.6963
13.3943 -45.1923 2.4703 0.8280
26.3509 -45.0223 2.7339 0.8114
26.4742 -27.2522 1.9912 0.8588
48.9362 -39.5067 3.2961 0.7773
58.0104 -19.0372 3.1997 0.7831
57.9600 -11.5321 3.0971 0.7892
57.9126 -4.3925 3.0438 0.7924
57.8666 2.6053 3.0357 0.7929
18.9107 5.5687 1.0331 0.9241
37.5698 16.1988 2.1442 0.8488
28.7395 16.7532 1.7435 0.8752
23.7109 17.9679 1.5591 0.8877
5.4066 6.6731 0.4501 0.9662
3.9047 6.2248 0.3851 0.9710
2.6655 5.6686 0.3283 0.9752
-0.9413 5.6908 0.3023 0.9772
22.7806 -33.3154 0.7045 0.8509
30.5016 -27.2769 0.7142 0.8490
39.1914 -27.3303 0.8340 0.8260
71.6880 -27.6039 1.3409 0.7354
85.0405 -21.4305 1.5308 0.7041
39.3020 4.5487 0.6906 0.8536
24.7757 16.8776 0.5233 0.8870
23.7984 20.8182 0.5519 0.8812
23.9080 26.6401 0.6248 0.8666
4.1417 5.9170 0.1261 0.9715
3.0225 5.6664 0.1121 0.9746
2.1953 5.6715 0.1062 0.9760
0.7307 5.6805 0.1000 0.9773
-2.9369 5.7030 0.1120 0.9747
-3.8612 5.6896 0.1200 0.9729
-8.1629 5.7351 0.1741 0.9609
-14.7781 5.7501 0.2768 0.9385
-22.7768 5.8250 0.4104 0.9102
-68.2296 -46.1290 1.4376 0.7193
-27.0028 -38.2902 0.8178 0.8291
-18.3698 -34.1498 0.6769 0.8563
-14.8713 -38.0226 0.7126 0.8493
-13.0124 -50.5117 0.9105 0.8117
20.3312 -86.5780 1.5523 0.7006
18.9936 -51.8164 0.9633 0.8019
23.0846 -34.2742 0.7213 0.8476
23.5718 -27.2343 0.6287 0.8658
30.0710 -27.2743 0.7086 0.8501
38.6055 -27.3267 0.8256 0.8276
70.1899 -27.5947 1.3164 0.7395
39.4468 4.2849 0.6926 0.8532
48.7963 11.3685 0.8745 0.8184
23.3944 11.8920 0.4581 0.9003
25.1502 16.8753 0.5287 0.8859
2.2411 5.6712 0.1064 0.9759
0.7712 5.6802 0.1001 0.9773
0.0810 5.6845 0.0992 0.9775
-0.6078 5.6887 0.0999 0.9774
-1.3158 5.6931 0.1020 0.9769
-2.0658 5.6977 0.1058 0.9760
-3.8049 5.6923 0.1195 0.9730
-10.5554 5.7499 0.2098 0.9531
-22.1126 5.8209 0.3991 0.9126
-49.3788 -11.3217 0.8843 0.8165
-74.5196 -37.5517 1.4566 0.7162
-68.5854 -45.6709 1.4383 0.7192
-31.2851 -34.1300 0.8082 0.8309
-27.4057 -38.2877 0.8219 0.8283
-12.1457 -87.1604 1.5361 0.7032
20.5550 -90.3780 1.6178 0.6902
23.0814 -34.7944 0.7288 0.8462
23.2375 -27.2323 0.6249 0.8666
29.6470 -27.2717 0.7031 0.8512
38.0304 -27.3226 0.8174 0.8292
39.1852 -21.5241 0.7804 0.8362
80.2266 -21.4201 1.4494 0.7173
48.7941 11.0073 0.8731 0.8186
15.6045 5.5650 0.2892 0.9359
23.8250 20.2578 0.5459 0.8824
24.2621 26.2825 0.6243 0.8667
3.1068 5.6326 0.1123 0.9746
2.2872 5.6709 0.1067 0.9758
1.5260 5.6756 0.1026 0.9768
0.1209 5.6842 0.0992 0.9775
-1.2737 5.6928 0.1018 0.9769
-2.8360 5.7024 0.1112 0.9748
-10.3792 5.7488 0.2071 0.9536
-14.1727 5.7450 0.2669 0.9407
-74.7661 -37.0196 1.4563 0.7162
-27.8126 -38.2852 0.8260 0.8275
-18.9910 -34.1460 0.6820 0.8553
-13.7920 -50.5859 0.9152 0.8108
18.9362 -53.9949 0.9988 0.7954
20.7518 -42.0968 0.8192 0.8288
23.0782 -35.3255 0.7365 0.8447
29.2295 -27.2691 0.6978 0.8522
67.3518 -27.5773 1.2704 0.7474
79.3039 -21.7717 1.4355 0.7196
48.7919 10.6472 0.8717 0.8189
15.9539 5.5637 0.2949 0.9346
23.3951 11.4817 0.4549 0.9010
24.2598 25.9125 0.6196 0.8676
3.6806 6.5634 0.1313 0.9703
2.3335 5.6706 0.1070 0.9758
0.1609 5.6840 0.0993 0.9775
-0.5271 5.6882 0.0997 0.9774
-1.2317 5.6925 0.1017 0.9770
-1.9756 5.6971 0.1053 0.9762
-2.7860 5.7021 0.1108 0.9749
-3.6937 5.6975 0.1185 0.9732
-6.0442 5.6786 0.1448 0.9674
-7.8049 5.7329 0.1690 0.9620
-10.2075 5.7477 0.2045 0.9542
-13.8860 5.7427 0.2623 0.9417
-38.8577 5.9025 0.6860 0.8545
-82.5117 -53.2869 1.7145 0.6751
-20.9019 -28.3515 0.6148 0.8686
-19.3051 -34.1441 0.6846 0.8548
-15.1707 -36.5018 0.6900 0.8537
20.2592 -95.2448 1.6997 0.6774
36.8932 -27.2993 0.8011 0.8323
38.8809 -22.0735 0.7804 0.8362
66.0060 -27.5690 1.2486 0.7511
79.3002 -22.3706 1.4382 0.7192
79.4804 6.9427 1.3926 0.7267
50.3404 10.6154 0.8980 0.8140
16.3176 5.5622 0.3009 0.9334
4.2577 5.7329 0.1246 0.9718
3.7144 6.5160 0.1309 0.9704
2.3801 5.6703 0.1073 0.9757
1.6117 5.6751 0.1030 0.9767
0.8934 5.6795 0.1004 0.9773
-1.9307 5.6968 0.1050 0.9762
-3.6387 5.7001 0.1180 0.9733
-4.6861 5.6912 0.1287 0.9709
-5.9590 5.6780 0.1437 0.9676
-7.6901 5.7322 0.1674 0.9624
-13.6089 5.7404 0.2578 0.9426
-37.1691 5.9134 0.6569 0.8602
-75.9385 -62.3049 1.7145 0.6751
-21.1204 -28.2306 0.6154 0.8684
-15.4715 -36.5000 0.6920 0.8533
-14.5570 -50.5812 0.9187 0.8101
20.0185 -42.0899 0.8135 0.8299
23.1214 -28.2820 0.6376 0.8640
28.4134 -27.2641 0.6873 0.8542
36.3572 -27.2999 0.7936 0.8337
38.6844 -22.3226 0.7796 0.8364
64.7050 -27.5610 1.2276 0.7548
52.0991 10.6046 0.9280 0.8084
16.6962 5.5608 0.3072 0.9320
23.3956 11.0770 0.4518 0.9016
23.4176 14.7761 0.4833 0.8951
24.2554 25.1892 0.6104 0.8694
3.7480 6.4689 0.1305 0.9705
0.9342 5.6792 0.1005 0.9772
0.2408 5.6835 0.0993 0.9775
-1.8861 5.6966 0.1047 0.9763
-4.6191 5.6907 0.1279 0.9711
-5.8752 5.6773 0.1426 0.9678
-9.8767 5.7457 0.1994 0.9553
-13.3623 5.7472 0.2539 0.9435
-19.7832 5.8066 0.3599 0.9208
-35.4957 5.9031 0.6281 0.8659
-77.0121 -62.2860 1.7289 0.6728
-28.7450 -37.8645 0.8298 0.8268
-19.9408 -34.1402 0.6901 0.8537
-12.6045 -42.6669 0.7766 0.8370
15.2336 -46.5560 0.8550 0.8220
19.6556 -42.0865 0.8108 0.8304
23.1190 -28.6877 0.6431 0.8630
28.0142 -27.2617 0.6823 0.8552
38.1256 -22.3585 0.7715 0.8379
79.2928 -23.5758 1.4439 0.7182
53.9914 10.5954 0.9604 0.8024
23.3959 10.8766 0.4503 0.9019
23.4140 14.5450 0.4811 0.8956
4.3092 5.6352 0.1238 0.9720
3.7814 6.4221 0.1301 0.9706
1.6980 5.6746 0.1034 0.9766
0.2808 5.6832 0.0993 0.9775
-1.1066 5.6918 0.1012 0.9771
-3.5109 5.6740 0.1165 0.9737
-4.5528 5.6902 0.1272 0.9713
-5.7925 5.6767 0.1416 0.9681
-7.4415 5.7113 0.1637 0.9632
-9.7174 5.7447 0.1970 0.9558
-13.1168 5.7511 0.2500 0.9443
-19.2586 5.7998 0.3511 0.9227
-33.9636 5.8937 0.6017 0.8712
-91.3760 4.6756 1.5970 0.6935
-74.2715 -34.2116 1.4273 0.7210
-33.6668 -34.2336 0.8381 0.8252
-18.5977 -31.3330 0.6360 0.8644
-12.5978 -41.5675 0.7581 0.8405
18.9045 -59.1773 1.0844 0.7799
23.0644 -37.5686 0.7695 0.8383
27.6210 -27.2592 0.6774 0.8562
48.4986 -37.4934 1.0700 0.7825
37.4676 -22.3279 0.7613 0.8399
62.2304 -27.5458 1.1879 0.7617
56.0067 10.5830 0.9949 0.7961
37.6837 17.1981 0.7230 0.8473
23.4104 14.3158 0.4790 0.8960
24.2511 24.4868 0.6016 0.8712
1.7415 5.6743 0.1036 0.9765
0.3208 5.6830 0.0994 0.9775
-1.0651 5.6915 0.1011 0.9771
-2.5897 5.7009 0.1093 0.9753
-3.4699 5.6967 0.1164 0.9737
-25.3489 19.7394 0.5608 0.8794
-9.5619 5.7438 0.1947 0.9564
-12.8661 5.7492 0.2460 0.9452
-61.2940 -27.7137 1.1742 0.7641
-34.1361 -34.2267 0.8438 0.8242
-28.9237 -37.0090 0.8199 0.8287
-15.3403 -34.1684 0.6538 0.8608
-12.1305 -66.4375 1.1788 0.7632
28.1876 -90.4220 1.6532 0.6846
23.1138 -29.5208 0.6544 0.8607
27.2334 -27.2569 0.6725 0.8571
79.4666 4.6969 1.3895 0.7273
17.9636 5.5653 0.3283 0.9275
38.3856 17.1938 0.7342 0.8451
24.2489 24.1432 0.5973 0.8721
1.0574 5.6785 0.1008 0.9772
0.3608 5.6828 0.0994 0.9775
-1.0237 5.6913 0.1009 0.9771
-1.7536 5.6958 0.1040 0.9764
-2.5414 5.7006 0.1089 0.9753
-20.0074 33.3727 0.6792 0.8558
-4.4224 5.6893 0.1258 0.9716
-7.1993 5.6878 0.1601 0.9640
-9.4100 5.7428 0.1924 0.9569
-31.1649 5.8601 0.5535 0.8809
-34.6123 -34.2202 0.8496 0.8231
-28.9205 -36.4740 0.8125 0.8301
-11.6920 -19.0828 0.3906 0.9144
-12.5852 -39.5174 0.7239 0.8471
-12.6127 -66.4346 1.1803 0.7630
44.4839 -27.3629 0.9116 0.8114
85.4686 4.4496 1.4939 0.7101
39.2323 6.8440 0.6951 0.8527
18.4127 5.5630 0.3357 0.9259
23.4035 13.8637 0.4748 0.8969
23.8130 18.3100 0.5243 0.8868
23.2797 29.1492 0.6511 0.8614
1.0987 5.6782 0.1010 0.9771
0.3985 5.6484 0.0988 0.9776
-0.2860 5.6867 0.0994 0.9775
-1.7098 5.6955 0.1038 0.9765
-2.4934 5.7003 0.1086 0.9754
-3.3539 5.6845 0.1152 0.9739
-5.5635 5.6869 0.1389 0.9687
-7.0952 5.6870 0.1587 0.9643
-12.3883 5.7458 0.2384 0.9468
-30.0525 5.8697 0.5345 0.8847
-91.6463 -15.6561 1.6229 0.6894
-68.2505 -20.3588 1.2432 0.7521
-28.9172 -35.9485 0.8053 0.8315
-21.8231 -35.0627 0.7209 0.8477
-15.9189 -34.1648 0.6579 0.8600
-12.5794 -38.5604 0.7080 0.8502
15.4717 -91.5345 1.6204 0.6898
20.0846 -67.7651 1.2341 0.7537
24.6600 -42.1332 0.8521 0.8226
23.1085 -30.3836 0.6663 0.8584
39.1036 6.5389 0.6920 0.8533
38.7132 16.6918 0.7359 0.8448
23.4001 13.6407 0.4728 0.8973
3.9129 6.2378 0.1285 0.9710
2.6655 5.6686 0.1093 0.9753
1.8729 5.6735 0.1043 0.9764
0.4405 5.6750 0.0994 0.9775
-0.2460 5.6865 0.0993 0.9775
-0.9413 5.6908 0.1007 0.9772
22.7753 -33.3076 -0.7043 0.8509
23.9102 -27.2364 -0.6326 0.8650
39.1914 -27.3303 -0.8340 0.8260
86.1068 -21.6992 -1.5500 0.7010
66.0339 -0.3614 -1.1526 0.7678
23.0589 5.5433 -0.4140 0.9095
24.6303 16.7784 -0.5202 0.8876
23.7281 20.7567 -0.5503 0.8815
23.9080 26.6401 -0.6248 0.8666
1.4410 5.6761 -0.1022 0.9768
0.0411 5.6847 -0.0992 0.9775
-0.6483 5.6890 -0.0999 0.9774
-2.1113 5.6980 -0.1061 0.9760
-2.9369 5.7030 -0.1120 0.9747
-4.9471 5.6754 -0.1314 0.9703
-8.1629 5.7351 -0.1741 0.9609
-10.7363 5.7510 -0.2126 0.9524
-83.4330 10.8806 -1.4687 0.7142
-65.8318 0.5914 -1.1491 0.7685
-49.3407 -11.6782 -0.8850 0.8164
-69.1239 -35.4435 -1.3559 0.7329
-13.1042 -24.3610 -0.4828 0.8952
-9.1181 -35.3948 -0.6380 0.8640
-9.6656 -73.1151 -1.2873 0.7445
19.6293 -83.5890 -1.4987 0.7093
21.3858 -41.8887 -0.8209 0.8285
23.0846 -34.2742 -0.7213 0.8476
23.5718 -27.2343 -0.6287 0.8658
38.6055 -27.3267 -0.8256 0.8276
39.5241 -21.3503 -0.7841 0.8355
71.3846 -28.0644 -1.3389 0.7358
48.7963 11.3685 -0.8746 0.8184
45.6679 16.6489 -0.8485 0.8233
25.0025 16.7762 -0.5256 0.8865
2.2411 5.6712 -0.1064 0.9759
1.4835 5.6759 -0.1024 0.9768
0.7712 5.6802 -0.1001 0.9773
0.0810 5.6845 -0.0992 0.9775
-1.3158 5.6931 -0.1020 0.9769
-2.0658 5.6977 -0.1058 0.9760
-2.8863 5.7027 -0.1116 0.9748
-4.8771 5.6750 -0.1306 0.9705
-8.0411 5.7344 -0.1724 0.9613
-22.1126 5.8209 -0.3991 0.9126
-65.7799 9.0487 -1.1590 0.7667
-65.8289 1.0538 -1.1492 0.7684
-62.8332 -22.6572 -1.1659 0.7655
-68.7050 -45.7505 -1.4408 0.7188
-13.1590 -24.0564 -0.4786 0.8961
-10.0612 -72.2012 -1.2724 0.7470
20.5345 -90.2879 -1.6162 0.6904
29.6470 -27.2717 -0.7031 0.8512
40.2433 -16.1486 -0.7569 0.8407
86.0988 -22.9880 -1.5555 0.7001
46.6670 16.6428 -0.8648 0.8202
33.5875 16.7776 -0.6553 0.8605
23.7245 20.1724 -0.5436 0.8829
24.2621 26.2825 -0.6243 0.8667
4.2039 5.8298 -0.1255 0.9717
3.1068 5.6326 -0.1123 0.9746
0.8119 5.6800 -0.1002 0.9773
0.1209 5.6842 -0.0992 0.9775
-1.2737 5.6928 -0.1018 0.9769
-2.0206 5.6974 -0.1055 0.9761
-2.8360 5.7024 -0.1112 0.9748
-3.7491 5.6949 -0.1190 0.9731
-6.0914 5.6430 -0.1449 0.9673
-7.9218 5.7337 -0.1707 0.9616
-10.3792 5.7488 -0.2071 0.9536
-14.0161 5.6816 -0.2640 0.9413
-21.4838 5.8170 -0.3885 0.9148
-65.8261 1.5163 -1.1493 0.7684
-75.2736 -7.3751 -1.3202 0.7389
-58.7630 -13.0394 -1.0507 0.7860
-84.2313 -29.7063 -1.5590 0.6995
-68.6459 -33.9892 -1.3370 0.7361
-21.1276 -22.7263 -0.5416 0.8833
-13.4121 -24.1151 -0.4817 0.8955
-10.6726 -26.1966 -0.4937 0.8930
-9.1898 -33.7059 -0.6098 0.8696
20.1907 -91.7520 -1.6398 0.6867
23.1263 -27.4907 -0.6271 0.8661
29.2295 -27.2691 -0.6978 0.8522
37.4683 -27.3198 -0.8094 0.8307
40.8215 -22.7977 -0.8161 0.8294
86.0948 -23.6360 -1.5584 0.6996
48.7919 10.6472 -0.8717 0.8189
1.5688 5.6753 -0.1028 0.9767
-1.2317 5.6925 -0.1017 0.9770
-2.7860 5.7021 -0.1108 0.9749
-4.7395 5.6743 -0.1290 0.9709
-6.0103 5.6469 -0.1439 0.9675
-66.0289 1.9850 -1.1531 0.7678
-79.1165 -7.1910 -1.3867 0.7277
-58.5704 -12.5658 -1.0456 0.7869
-62.1348 -21.4239 -1.1472 0.7688
-72.3085 -46.6975 -1.5025 0.7087
-16.4623 -22.3296 -0.4842 0.8950
-9.2114 -32.8737 -0.5959 0.8723
-9.2237 -60.0120 -1.0598 0.7843
13.5681 -39.5764 -0.7303 0.8459
23.1239 -27.8830 -0.6323 0.8651
52.4140 11.0526 -0.9350 0.8071
16.0856 5.4832 -0.2966 0.9343
35.6993 17.2103 -0.6918 0.8534
26.1670 16.7690 -0.5425 0.8831
23.7210 19.6021 -0.5371 0.8842
4.2577 5.7329 -0.1246 0.9718
2.3801 5.6703 -0.1073 0.9757
0.8934 5.6795 -0.1004 0.9773
0.2008 5.6837 -0.0993 0.9775
-5.9304 5.6507 -0.1430 0.9678
-13.5259 5.7053 -0.2562 0.9430
-10.5690 3.0216 -0.1919 0.9570
-37.1691 5.9134 -0.6569 0.8602
-65.8204 2.4415 -1.1497 0.7684
-58.3797 -12.0967 -1.0407 0.7878
-16.7254 -22.3560 -0.4873 0.8943
-13.6849 -23.8121 -0.4794 0.8959
-10.8791 -25.6657 -0.4866 0.8945
-9.1762 -57.0319 -1.0083 0.7937
19.5616 -95.2484 -1.6973 0.6777
13.2419 -39.5275 -0.7276 0.8464
19.9163 -41.8750 -0.8094 0.8307
66.3832 -28.2758 -1.2595 0.7493
85.9573 6.9007 -1.5052 0.7082
16.4653 5.4838 -0.3029 0.9329
36.1509 17.1161 -0.6981 0.8521
23.7192 19.3219 -0.5340 0.8848
24.2554 25.1892 -0.6104 0.8694
1.6548 5.6748 -0.1032 0.9766
0.9342 5.6792 -0.1005 0.9772
0.2408 5.6835 -0.0993 0.9775
-0.4466 5.6877 -0.0996 0.9774
-1.1482 5.6920 -0.1014 0.9770
-2.6872 5.7015 -0.1100 0.9751
-3.5843 5.7026 -0.1176 0.9734
-5.8516 5.6545 -0.1420 0.9680
-19.7832 5.8066 -0.3599 0.9208
-84.2080 -27.7175 -1.5474 0.7014
-72.0436 -45.1054 -1.4836 0.7117
-69.5401 -56.2428 -1.5611 0.6992
-11.0253 -25.5106 -0.4851 0.8948
-9.1789 -31.0710 -0.5655 0.8784
19.0598 -96.2290 -1.7123 0.6754
23.0679 -36.9889 -0.7609 0.8400
28.0142 -27.2617 -0.6823 0.8552
40.4958 -23.7485 -0.8194 0.8288
63.5642 -27.6040 -1.2096 0.7579
16.9248 5.5051 -0.3107 0.9313
33.9921 15.8026 -0.6543 0.8607
24.2532 24.8354 -0.6059 0.8703
4.3092 5.6352 -0.1238 0.9720
0.9752 5.6790 -0.1006 0.9772
0.2808 5.6832 -0.0993 0.9775
-1.1066 5.6918 -0.1012 0.9771
-1.8418 5.6963 -0.1045 0.9763
-3.5109 5.6740 -0.1165 0.9737
-5.7738 5.6583 -0.1411 0.9682
-7.4415 5.7113 -0.1637 0.9632
-13.0398 5.7173 -0.2485 0.9446
-19.2586 5.7998 -0.3511 0.9227
-33.9636 5.8937 -0.6017 0.8712
-65.8147 3.3677 -1.1503 0.7682
-84.1820 -16.2134 -1.4964 0.7097
-84.2058 -27.0629 -1.5439 0.7020
-67.5092 -31.0967 -1.2974 0.7428
-72.0264 -44.3937 -1.4768 0.7128
-16.9833 -22.0483 -0.4858 0.8946
-11.2020 -25.4275 -0.4850 0.8948
-9.3297 -30.7843 -0.5615 0.8792
-9.1636 -52.2624 -0.9262 0.8087
27.6210 -27.2592 -0.6774 0.8562
35.3216 -27.3066 -0.7793 0.8364
57.3633 10.8394 -1.0190 0.7917
17.4021 5.5255 -0.3187 0.9296
23.7158 18.7712 -0.5279 0.8860
24.2511 24.4868 -0.6016 0.8712
1.0163 5.6787 -0.1007 0.9772
-1.7976 5.6960 -0.1043 0.9764
-2.5897 5.7009 -0.1093 0.9753
-3.4699 5.6967 -0.1164 0.9737
-4.4739 5.6728 -0.1261 0.9715
-25.3488 19.7394 -0.5608 0.8794
-12.7918 5.7161 -0.2446 0.9455
-18.7820 5.8004 -0.3431 0.9244
-61.1870 -27.6653 -1.1721 0.7644
-68.8465 -54.1003 -1.5283 0.7045
-17.3227 -22.1651 -0.4910 0.8936
-14.2443 -23.6192 -0.4814 0.8955
-11.2600 -25.0801 -0.4799 0.8958
-9.4813 -30.5108 -0.5577 0.8800
-9.1022 -49.8519 -0.8845 0.8165
19.1346 -42.5185 -0.8138 0.8298
34.8096 -27.3034 -0.7722 0.8378
39.2592 -23.7707 -0.8011 0.8323
61.4629 -27.7242 -1.1769 0.7636
38.5537 7.0051 -0.6840 0.8549
38.3856 17.1938 -0.7342 0.8451
23.7142 18.5004 -0.5250 0.8866
24.2489 24.1432 -0.5973 0.8721
5.5019 6.9892 -0.1553 0.9650
2.5692 5.6692 -0.1086 0.9754
1.7851 5.6740 -0.1038 0.9765
-2.5414 5.7006 -0.1089 0.9753
-4.4093 5.6725 -0.1254 0.9717
-5.6211 5.6656 -0.1393 0.9686
-7.1444 5.6445 -0.1589 0.9642
-9.4100 5.7428 -0.1924 0.9569
-69.4674 -21.2545 -1.2680 0.7478
-61.6472 -27.3536 -1.1772 0.7635
-23.3085 -23.0445 -0.5721 0.8771
-11.6919 -19.0826 -0.3907 0.9144
-9.1851 -48.3803 -0.8596 0.8212
19.1322 -43.3233 -0.8267 0.8274
23.0570 -38.7674 -0.7873 0.8349
34.3064 -27.3000 -0.7653 0.8391
87.3259 4.5463 -1.5263 0.7048
40.0655 6.9893 -0.7101 0.8498
38.5323 16.9356 -0.7347 0.8450
28.2858 16.7559 -0.5738 0.8768
23.7125 18.2327 -0.5221 0.8872
24.2469 23.8042 -0.5931 0.8729
23.2797 29.1492 -0.6511 0.8614
2.6172 5.6689 -0.1090 0.9753
0.3985 5.6484 -0.0988 0.9776
-0.2860 5.6867 -0.0994 0.9775
-1.7098 5.6955 -0.1038 0.9765
-3.3539 5.6845 -0.1152 0.9739
-4.3455 5.6721 -0.1247 0.9718
-5.5462 5.6692 -0.1384 0.9688
-7.0417 5.6440 -0.1575 0.9645
-12.3189 5.7137 -0.2370 0.9471
-29.5684 5.7751 -0.5259 0.8865
-84.3320 -14.4066 -1.4933 0.7102
-68.9054 -20.5542 -1.2551 0.7500
-71.3421 -41.9239 -1.4444 0.7182
-23.6567 -23.0622 -0.5767 0.8762
-17.0026 -36.4906 -0.7027 0.8512
-9.7032 -29.7439 -0.5461 0.8824
20.0776 -67.7417 -1.2332 0.7538
18.4141 -42.5024 -0.8085 0.8308
26.4742 -27.2522 -0.6632 0.8590
33.8127 -27.2973 -0.7585 0.8404
41.0036 6.8567 -0.7257 0.8468
28.7394 16.7532 -0.5807 0.8754
23.7109 17.9679 -0.5193 0.8878
24.2448 23.4701 -0.5890 0.8737
23.2772 28.7297 -0.6454 0.8625
2.6655 5.6686 -0.1093 0.9753
1.8729 5.6735 -0.1043 0.9764
1.1401 5.6780 -0.1011 0.9771
0.4405 5.6750 -0.0994 0.9775
-0.2460 5.6865 -0.0994 0.9775
-0.9413 5.6908 -0.1007 0.9772
20.2438 -29.6055 -1.8796 0.8662
23.9102 -27.2364 -1.8994 0.8649
36.7696 -25.6415 -2.3493 0.8356
29.9787 -15.9231 -1.7790 0.8729
39.2551 -15.1154 -2.2045 0.8449
46.2845 -11.6638 -2.5015 0.8260
47.3521 -6.0062 -2.5015 0.8260
23.0589 5.5433 -1.2429 0.9094
17.8679 6.6565 -0.9993 0.9265
18.3771 9.5046 -1.0843 0.9205
19.0950 13.0077 -1.2109 0.9116
4.1417 5.9170 -0.3785 0.9715
3.0225 5.6664 -0.3366 0.9746
2.1953 5.6715 -0.3187 0.9759
1.4410 5.6761 -0.3069 0.9768
0.0411 5.6847 -0.2979 0.9775
-0.6483 5.6890 -0.3001 0.9773
-1.3581 5.6933 -0.3067 0.9768
-3.8612 5.6896 -0.3604 0.9728
-4.9318 5.6578 -0.3933 0.9704
-6.2361 5.6164 -0.4398 0.9669
-10.7363 5.7510 -0.6383 0.9524
-22.7768 5.8250 -1.2321 0.9101
-33.6334 4.3862 -1.7776 0.8730
-44.5479 -4.9973 -2.3493 0.8356
-44.7867 -16.5061 -2.5015 0.8260
-42.4735 -21.7784 -2.5015 0.8260
-33.8433 -29.3960 -2.3493 0.8356
-20.1137 -22.2546 -1.5721 0.8868
-16.0037 -22.6934 -1.4553 0.8947
5.2378 -47.4433 -2.5015 0.8260
10.9120 -46.4675 -2.5015 0.8260
22.9807 -34.1199 -2.1559 0.8481
23.5718 -27.2343 -1.8877 0.8657
36.5886 -25.8991 -2.3493 0.8356
29.9669 -16.1877 -1.7850 0.8725
46.2014 -11.9886 -2.5015 0.8260
47.3088 -6.3387 -2.5015 0.8260
47.7278 -0.5964 -2.5015 0.8260
18.6939 9.5026 -1.0990 0.9194
17.9442 12.0402 -1.1325 0.9171
23.7610 26.1052 -1.8500 0.8681
2.2411 5.6712 -0.3196 0.9759
1.4835 5.6759 -0.3075 0.9768
0.7712 5.6802 -0.3004 0.9773
-2.0658 5.6977 -0.3176 0.9760
-2.8863 5.7027 -0.3350 0.9747
-4.8621 5.6576 -0.3909 0.9706
-6.1533 5.6205 -0.4368 0.9672
-8.0411 5.7344 -0.5176 0.9612
-44.9940 0.7203 -2.3583 0.8351
-44.5819 -4.6844 -2.3493 0.8356
-45.0908 -10.3384 -2.4244 0.8309
-42.6254 -21.4796 -2.5015 0.8260
-39.7291 -26.4555 -2.5015 0.8260
-34.0489 -29.1576 -2.3493 0.8356
-20.5954 -22.4683 -1.5974 0.8851
-13.0698 -23.8932 -1.4273 0.8967
-10.5198 -26.3497 -1.4869 0.8926
-8.8745 -33.4740 -1.8149 0.8705
-6.1915 -44.4313 -2.3510 0.8355
4.9045 -47.4789 -2.5015 0.8260
10.5854 -46.5429 -2.5015 0.8260
23.2375 -27.2323 -1.8762 0.8664
27.6343 -25.4203 -1.9678 0.8604
37.6696 -15.1158 -2.1272 0.8499
47.2631 -6.6707 -2.5015 0.8260
47.7224 -0.9316 -2.5015 0.8260
44.5981 4.5277 -2.3493 0.8356
17.8760 8.9294 -1.0472 0.9231
17.9398 11.8554 -1.1269 0.9175
18.1032 15.3927 -1.2453 0.9092
4.2039 5.8298 -0.3767 0.9716
3.1068 5.6326 -0.3371 0.9746
0.8119 5.6800 -0.3007 0.9773
0.1209 5.6842 -0.2980 0.9775
-0.5674 5.6885 -0.2996 0.9774
-1.2737 5.6928 -0.3057 0.9769
-2.8360 5.7024 -0.3338 0.9748
-4.7931 5.6573 -0.3886 0.9707
-6.0715 5.6246 -0.4338 0.9674
-10.3792 5.7488 -0.6218 0.9536
-13.9388 5.6502 -0.7882 0.9415
-45.0051 1.0367 -2.3592 0.8350
-44.5476 -9.8851 -2.3914 0.8330
-45.0141 -15.8754 -2.5015 0.8260
-42.7753 -21.1797 -2.5015 0.8260
-39.9139 -26.1759 -2.5015 0.8260
-20.8478 -22.4254 -1.6047 0.8846
-13.2319 -23.7911 -1.4267 0.8967
-10.6527 -26.1477 -1.4797 0.8931
-9.0600 -33.2299 -1.8051 0.8711
-6.4986 -44.3538 -2.3493 0.8356
-1.1830 -47.7168 -2.5015 0.8260
14.3358 -40.8772 -2.2701 0.8407
22.9743 -35.1664 -2.2014 0.8451
29.1164 -27.1636 -2.0869 0.8526
36.2212 -26.4105 -2.3493 0.8356
38.3591 -21.4225 -2.3026 0.8386
46.0285 -12.6364 -2.5015 0.8260
47.2151 -7.0025 -2.5015 0.8260
44.6288 4.2145 -2.3493 0.8356
15.5152 5.4107 -0.8611 0.9363
17.8728 8.7715 -1.0434 0.9234
23.7565 25.3749 -1.8217 0.8700
1.5688 5.6753 -0.3086 0.9767
0.8526 5.6797 -0.3010 0.9773
-1.9756 5.6971 -0.3160 0.9761
-4.7251 5.6570 -0.3863 0.9709
-5.9909 5.6286 -0.4308 0.9676
-7.8048 5.7329 -0.5075 0.9620
-13.6925 5.6627 -0.7765 0.9424
-45.0139 1.3532 -2.3601 0.8349
-44.6433 -4.0577 -2.3493 0.8356
-44.0066 -9.4412 -2.3588 0.8350
-45.1245 -15.5588 -2.5015 0.8260
-42.9229 -20.8788 -2.5015 0.8260
-34.4551 -28.6765 -2.3493 0.8356
-21.3493 -22.6438 -1.6310 0.8828
-16.4142 -22.2644 -1.4496 0.8951
-13.4509 -23.7900 -1.4323 0.8963
-10.6983 -25.7410 -1.4609 0.8944
-9.2396 -32.9742 -1.7947 0.8718
-1.5180 -47.7074 -2.5015 0.8260
13.9932 -40.8161 -2.2613 0.8413
19.5376 -40.3457 -2.3493 0.8356
23.1239 -27.8830 -1.8984 0.8649
28.7068 -27.1610 -2.0711 0.8536
36.7492 -15.3492 -2.0872 0.8526
45.9386 -12.9593 -2.5015 0.8260
47.1647 -7.3339 -2.5015 0.8260
17.9314 11.4913 -1.1162 0.9182
18.0937 14.9519 -1.2301 0.9103
1.6117 5.6751 -0.3092 0.9766
0.2008 5.6837 -0.2981 0.9775
-1.1899 5.6923 -0.3048 0.9770
-1.9307 5.6968 -0.3152 0.9762
-4.6578 5.6568 -0.3840 0.9711
-5.9114 5.6326 -0.4279 0.9678
-7.6901 5.7322 -0.5027 0.9623
-10.0401 5.7467 -0.6063 0.9547
-13.4534 5.6748 -0.7652 0.9432
-33.6274 5.3500 -1.7845 0.8725
-45.0204 1.6699 -2.3610 0.8349
-45.2326 -15.2415 -2.5015 0.8260
-34.6557 -28.4337 -2.3493 0.8356
-10.7540 -25.3705 -1.4441 0.8955
-6.6758 -41.4914 -2.2024 0.8451
-1.8530 -47.6955 -2.5015 0.8260
9.6024 -46.7557 -2.5015 0.8260
13.2419 -39.5275 -2.1847 0.8462
23.1083 -28.2660 -1.9134 0.8640
28.3034 -27.1586 -2.0557 0.8546
35.8467 -26.9166 -2.3493 0.8356
38.2092 -22.0484 -2.3119 0.8380
36.6124 -15.5950 -2.0856 0.8527
47.6922 -1.9368 -2.5015 0.8260
16.3252 5.4372 -0.9018 0.9334
17.9273 11.3118 -1.1109 0.9186
5.2966 7.0281 -0.4612 0.9654
3.7480 6.4689 -0.3918 0.9705
2.4269 5.6701 -0.3232 0.9756
0.9342 5.6792 -0.3016 0.9772
0.2408 5.6835 -0.2981 0.9775
-0.4466 5.6877 -0.2990 0.9774
-3.5843 5.7026 -0.3530 0.9734
-4.5913 5.6565 -0.3818 0.9712
-7.5775 5.7315 -0.4979 0.9627
-19.7832 5.8066 -1.0805 0.9207
-31.6818 5.2689 -1.6832 0.8793
-44.6959 -3.4303 -2.3493 0.8356
-43.9578 -8.7868 -2.3493 0.8356
-45.3386 -14.9234 -2.5015 0.8260
-40.4565 -25.3292 -2.5015 0.8260
-34.8545 -28.1897 -2.3493 0.8356
-13.8435 -23.7012 -1.4385 0.8959
-10.8732 -25.1586 -1.4364 0.8960
-9.1749 -31.0576 -1.6972 0.8783
-6.9748 -41.4897 -2.2049 0.8449
3.5690 -47.5979 -2.5015 0.8260
9.2739 -46.8219 -2.5015 0.8260
13.9407 -42.6046 -2.3493 0.8356
22.9641 -36.8224 -2.2743 0.8404
23.1117 -28.6787 -1.9303 0.8628
35.6568 -27.1678 -2.3493 0.8356
36.5937 -15.8915 -2.0908 0.8523
45.7520 -13.6033 -2.5015 0.8260
47.0571 -7.9957 -2.5015 0.8260
44.7077 3.2733 -2.3493 0.8356
44.0480 8.6441 -2.3525 0.8354
16.7771 5.4571 -0.9246 0.9318
17.8636 8.3047 -1.0324 0.9241
17.9232 11.1341 -1.1058 0.9190
18.0846 14.5217 -1.2155 0.9113
23.7500 24.3201 -1.7815 0.8727
2.4741 5.6698 -0.3242 0.9755
0.9752 5.6790 -0.3020 0.9772
-0.4064 5.6875 -0.2988 0.9774
-4.5273 5.6584 -0.3798 0.9714
-5.7555 5.6404 -0.4223 0.9682
-7.4415 5.7113 -0.4916 0.9631
-9.7174 5.7447 -0.5916 0.9558
-30.7685 5.3393 -1.6366 0.8824
-45.0265 2.3040 -2.3628 0.8348
-44.0184 -8.4779 -2.3493 0.8356
-35.0516 -27.9442 -2.3493 0.8356
-22.4281 -22.8058 -1.6763 0.8797
-16.9260 -21.9738 -1.4536 0.8948
-13.9568 -23.5142 -1.4331 0.8963
-7.7419 -44.1538 -2.3493 0.8356
3.2346 -47.6218 -2.5015 0.8260
8.9449 -46.8859 -2.5015 0.8260
13.6412 -42.7014 -2.3493 0.8356
18.6832 -40.7484 -2.3493 0.8356
23.1164 -29.1005 -1.9477 0.8617
27.6828 -27.3202 -2.0383 0.8557
34.0457 -15.0701 -1.9512 0.8615
45.6554 -13.9242 -2.5015 0.8260
47.6603 -2.6065 -2.5015 0.8260
37.9117 7.1638 -2.0220 0.8568
17.8607 8.1512 -1.0289 0.9244
17.9193 10.9579 -1.1008 0.9193
23.7479 23.9788 -1.7687 0.8736
5.4505 7.0248 -0.4660 0.9650
2.5215 5.6695 -0.3252 0.9755
1.7415 5.6743 -0.3111 0.9765
1.0163 5.6787 -0.3023 0.9772
0.3208 5.6830 -0.2983 0.9775
-0.3662 5.6872 -0.2987 0.9774
-1.7976 5.6960 -0.3130 0.9764
-2.5897 5.7009 -0.3282 0.9752
-3.4699 5.6967 -0.3496 0.9736
-4.4648 5.6613 -0.3779 0.9715
-9.5619 5.7438 -0.5846 0.9563
-30.3031 5.4780 -1.6139 0.8840
-44.7397 -2.8020 -2.3493 0.8356
-40.8083 -24.7584 -2.5015 0.8260
-9.4809 -30.5095 -1.6744 0.8799
-8.0517 -44.0983 -2.3493 0.8356
-2.8575 -47.6459 -2.5015 0.8260
2.8999 -47.6433 -2.5015 0.8260
8.6154 -46.9476 -2.5015 0.8260
20.3293 -33.6411 -2.0600 0.8543
25.1891 -25.2108 -1.8677 0.8670
33.4181 -15.0740 -1.9213 0.8634
46.9401 -8.6558 -2.5015 0.8260
38.5337 7.0015 -2.0525 0.8548
17.8590 7.9994 -1.0256 0.9246
18.0757 14.1016 -1.2015 0.9123
23.7458 23.6423 -1.7561 0.8744
5.5019 6.9892 -0.4662 0.9650
3.8475 6.3294 -0.3882 0.9708
1.7851 5.6740 -0.3117 0.9765
1.0574 5.6785 -0.3027 0.9771
-1.0237 5.6913 -0.3031 0.9771
-4.4029 5.6642 -0.3760 0.9717
-5.6035 5.6479 -0.4170 0.9686
-9.4100 5.7428 -0.5777 0.9568
-18.3156 5.7975 -1.0068 0.9259
-45.0234 2.9383 -2.3646 0.8347
-43.6295 -19.3589 -2.5015 0.8260
-17.3605 -21.8948 -1.4644 0.8941
-11.3423 -24.7960 -1.4290 0.8965
-9.6024 -30.1513 -1.6584 0.8810
-8.3612 -44.0407 -2.3493 0.8356
-3.1920 -47.6246 -2.5015 0.8260
2.5653 -47.6625 -2.5015 0.8260
18.1091 -41.0067 -2.3493 0.8356
22.9147 -38.5280 -2.3493 0.8356
24.8334 -25.2065 -1.8544 0.8679
37.5748 -23.1129 -2.3119 0.8380
32.8210 -15.0829 -1.8930 0.8653
44.7667 2.3306 -2.3493 0.8356
18.2751 5.5214 -1.0005 0.9264
23.7438 23.3103 -1.7438 0.8752
3.8803 6.2835 -0.3870 0.9709
2.6172 5.6689 -0.3272 0.9753
0.3985 5.6484 -0.2968 0.9776
-2.4934 5.7003 -0.3261 0.9754
-3.3539 5.6845 -0.3459 0.9739
-4.3416 5.6671 -0.3741 0.9718
-6.9889 5.6017 -0.4694 0.9648
-9.2616 5.7419 -0.5711 0.9573
-17.8695 5.7948 -0.9845 0.9275
-45.0184 3.2556 -2.3655 0.8346
-44.1872 -7.5486 -2.3493 0.8356
-43.7643 -19.0521 -2.5015 0.8260
-41.1520 -24.1828 -2.5015 0.8260
-17.6003 -21.8799 -1.4716 0.8936
-9.6548 -29.5954 -1.6315 0.8828
-3.5263 -47.6011 -2.5015 0.8260
2.2305 -47.6794 -2.5015 0.8260
7.9550 -47.0640 -2.5015 0.8260
22.6436 -38.6880 -2.3493 0.8356
23.2125 -30.5204 -2.0096 0.8576
33.6818 -27.1916 -2.2686 0.8408
45.3519 -14.8831 -2.5015 0.8260
47.5948 -3.6099 -2.5015 0.8260
44.7820 2.0162 -2.3493 0.8356
39.1267 6.5428 -2.0790 0.8531
17.9078 10.4390 -1.0863 0.9203
3.9129 6.2378 -0.3859 0.9709
2.6655 5.6686 -0.3283 0.9752
0.4405 5.6750 -0.2983 0.9775
-0.2460 5.6865 -0.2983 0.9775
15.1568 -22.1660 -2.3493 0.8978
20.0162 -17.9001 -2.3493 0.8978
23.4528 -16.3549 -2.5015 0.8915
25.2514 -13.4122 -2.5015 0.8915
26.6825 -10.2743 -2.5015 0.8915
28.5918 -0.1565 -2.5015 0.8915
18.2547 6.8006 -1.7043 0.9248
4.1417 5.9170 -0.6319 0.9714
3.0225 5.6664 -0.5619 0.9745
0.0411 5.6847 -0.4974 0.9774
-4.9165 5.6403 -0.6546 0.9704
-8.1629 5.7351 -0.8728 0.9607
-14.2438 5.5422 -1.3372 0.9405
-26.6272 3.4725 -2.3493 0.8978
-26.8515 0.2412 -2.3493 0.8978
-28.4141 -3.1875 -2.5015 0.8915
-12.2422 -2.8975 -1.1006 0.9507
-25.4426 -13.0458 -2.5015 0.8915
-15.4757 -21.9446 -2.3493 0.8978
-12.7209 -23.6483 -2.3493 0.8978
-9.7810 -25.0079 -2.3493 0.8978
-3.7472 -28.3457 -2.5015 0.8915
-0.3071 -28.5906 -2.5015 0.8915
12.9697 -25.4039 -2.4955 0.8918
15.0008 -22.2720 -2.3493 0.8978
19.8900 -18.0402 -2.3493 0.8978
23.3374 -16.5193 -2.5015 0.8915
26.6097 -10.4615 -2.5015 0.8915
27.6757 -7.1815 -2.5015 0.8915
28.5900 -0.3573 -2.5015 0.8915
26.6956 2.8998 -2.3493 0.8978
26.1522 6.0929 -2.3493 0.8978
18.8496 9.5818 -1.8500 0.9186
20.6574 17.8159 -2.3866 0.8963
4.1729 5.8733 -0.6303 0.9715
2.2411 5.6712 -0.5335 0.9758
0.7712 5.6802 -0.5015 0.9772
0.0810 5.6845 -0.4974 0.9774
-1.3158 5.6931 -0.5112 0.9768
-2.0658 5.6977 -0.5302 0.9760
-4.8497 5.6432 -0.6510 0.9706
-6.1331 5.6021 -0.7267 0.9672
-10.5554 5.7499 -1.0516 0.9529
-22.1126 5.8209 -2.0005 0.9123
-26.8492 0.4298 -2.3493 0.8978
-12.2554 -2.8099 -1.1000 0.9508
-26.8970 -9.6989 -2.5015 0.8915
-23.7987 -15.8475 -2.5015 0.8915
-12.8866 -23.5584 -2.3493 0.8978
-9.9564 -24.9386 -2.3493 0.8978
-6.8813 -25.9559 -2.3493 0.8978
-0.5078 -28.5878 -2.5015 0.8915
6.3409 -27.8803 -2.5015 0.8915
14.8440 -22.3767 -2.3493 0.8978
17.4302 -20.4267 -2.3493 0.8978
19.7629 -18.1795 -2.3493 0.8978
23.2208 -16.6828 -2.5015 0.8915
25.0605 -13.7655 -2.5015 0.8915
27.6246 -7.3757 -2.5015 0.8915
26.7153 2.7122 -2.3493 0.8978
18.2488 6.5080 -1.6951 0.9252
19.1779 9.5797 -1.8755 0.9175
20.7771 17.6663 -2.3860 0.8963
2.2872 5.6709 -0.5350 0.9757
0.8119 5.6800 -0.5020 0.9772
0.1209 5.6842 -0.4974 0.9774
-1.2737 5.6928 -0.5104 0.9768
-2.8360 5.7024 -0.5572 0.9748
-3.7491 5.6949 -0.5965 0.9730
-4.7839 5.6463 -0.6475 0.9707
-10.3792 5.7488 -1.0380 0.9535
-13.7541 5.5754 -1.2984 0.9421
-21.4838 5.8170 -1.9473 0.9145
-26.8455 0.6184 -2.3493 0.8978
-25.6233 -12.6871 -2.5015 0.8915
-21.8319 -18.4314 -2.4997 0.8916
-15.7824 -21.7251 -2.3493 0.8978
-10.1313 -24.8680 -2.3493 0.8978
-7.0634 -25.9070 -2.3493 0.8978
-4.1450 -28.2902 -2.5015 0.8915
12.6396 -25.6406 -2.5010 0.8916
17.2863 -20.5486 -2.3493 0.8978
23.1030 -16.8454 -2.5015 0.8915
24.9632 -13.9412 -2.5015 0.8915
28.2829 -4.1946 -2.5015 0.8915
19.5154 9.5777 -1.9019 0.9164
18.3819 11.9629 -1.9188 0.9157
4.2348 5.7865 -0.6273 0.9716
3.6806 6.5634 -0.6584 0.9702
2.3335 5.6706 -0.5365 0.9757
1.5688 5.6753 -0.5151 0.9766
-0.5271 5.6882 -0.4998 0.9773
-2.7860 5.7021 -0.5552 0.9748
-3.6937 5.6975 -0.5941 0.9731
-7.8048 5.7329 -0.8473 0.9619
-10.2075 5.7477 -1.0249 0.9541
-13.5198 5.5912 -1.2800 0.9429
-26.5481 4.0327 -2.3493 0.8978
-12.2810 -2.6348 -1.0989 0.9508
-27.0306 -9.3201 -2.5015 0.8915
-24.0189 -15.5116 -2.5015 0.8915
-4.3435 -28.2604 -2.5015 0.8915
-0.9093 -28.5778 -2.5015 0.8915
2.5381 -28.4794 -2.5015 0.8915
5.9487 -27.9666 -2.5015 0.8915
9.2726 -27.0469 -2.5015 0.8915
12.4617 -25.7337 -2.5015 0.8915
14.5282 -22.5830 -2.3493 0.8978
19.5055 -18.4552 -2.3493 0.8978
22.9621 -16.9909 -2.4991 0.8916
28.2528 -4.3932 -2.5015 0.8915
28.5762 -0.9595 -2.5015 0.8915
26.7508 2.3367 -2.3493 0.8978
26.2748 5.5406 -2.3493 0.8978
18.3766 11.7766 -1.9096 0.9161
4.2577 5.7329 -0.6248 0.9717
2.3801 5.6703 -0.5380 0.9756
0.8934 5.6795 -0.5030 0.9772
0.2008 5.6837 -0.4976 0.9774
-3.6387 5.7001 -0.5916 0.9732
-4.6542 5.6524 -0.6406 0.9710
-7.6901 5.7322 -0.8391 0.9622
-10.0401 5.7467 -1.0121 0.9546
-13.2919 5.6066 -1.2621 0.9437
-10.5651 3.0205 -0.9614 0.9568
-26.5191 4.2190 -2.3493 0.8978
-26.8342 0.9954 -2.3493 0.8978
-28.4924 -2.3881 -2.5015 0.8915
-12.3111 -2.5509 -1.1000 0.9508
-18.5577 -19.4081 -2.3493 0.8978
-16.0860 -21.5013 -2.3493 0.8978
-13.3801 -23.2817 -2.3493 0.8978
-10.4796 -24.7233 -2.3493 0.8978
-7.4266 -25.8052 -2.3493 0.8978
-4.5419 -28.2292 -2.5015 0.8915
-1.1100 -28.5707 -2.5015 0.8915
2.3380 -28.4965 -2.5015 0.8915
5.7521 -28.0077 -2.5015 0.8915
9.0825 -27.1114 -2.5015 0.8915
12.2806 -25.8206 -2.5015 0.8915
14.3693 -22.6845 -2.3493 0.8978
26.3054 -11.2047 -2.5015 0.8915
27.4631 -7.9560 -2.5015 0.8915
28.2212 -4.5915 -2.5015 0.8915
28.5687 -1.1602 -2.5015 0.8915
18.8526 6.2789 -1.7385 0.9233
18.2958 8.6624 -1.7710 0.9219
18.3715 11.5921 -1.9005 0.9165
18.4747 15.0496 -2.0847 0.9088
18.9771 19.7077 -2.3936 0.8960
5.2966 7.0281 -0.7699 0.9653
3.7480 6.4689 -0.6541 0.9704
2.4269 5.6701 -0.5396 0.9755
1.6548 5.6748 -0.5172 0.9765
0.9342 5.6792 -0.5035 0.9772
-1.1482 5.6920 -0.5080 0.9770
-1.8861 5.6966 -0.5250 0.9762
-3.5843 5.7026 -0.5893 0.9733
-7.5775 5.7315 -0.8312 0.9626
-9.8767 5.7457 -0.9997 0.9552
-19.7832 5.8066 -1.8038 0.9205
-26.4888 4.4052 -2.3493 0.8978
-28.5085 -2.1880 -2.5015 0.8915
-12.3517 -2.4690 -1.1020 0.9507
-27.1589 -8.9395 -2.5015 0.8915
-25.8849 -12.1445 -2.5015 0.8915
-24.2344 -15.1728 -2.5015 0.8915
-16.2366 -21.3877 -2.3493 0.8978
-10.6530 -24.6491 -2.3493 0.8978
-7.6077 -25.7524 -2.3493 0.8978
-4.7401 -28.1966 -2.5015 0.8915
-1.3106 -28.5622 -2.5015 0.8915
2.1379 -28.5122 -2.5015 0.8915
12.0990 -25.9062 -2.5015 0.8915
14.2096 -22.7849 -2.3493 0.8978
19.2444 -18.7274 -2.3493 0.8978
24.6640 -14.4640 -2.5015 0.8915
27.4065 -8.1487 -2.5015 0.8915
28.1883 -4.7896 -2.5015 0.8915
28.5599 -1.3608 -2.5015 0.8915
26.7809 1.9608 -2.3493 0.8978
26.3500 5.1710 -2.3493 0.8978
16.2749 5.2937 -1.4973 0.9336
12.2349 5.6879 -1.1804 0.9473
18.3664 11.4094 -1.8917 0.9168
19.1110 19.5697 -2.3931 0.8960
4.3092 5.6352 -0.6206 0.9719
3.7814 6.4221 -0.6520 0.9705
1.6980 5.6746 -0.5182 0.9765
-0.4064 5.6875 -0.4989 0.9774
-2.6383 5.7012 -0.5496 0.9751
-5.7372 5.6225 -0.7028 0.9683
-7.4415 5.7113 -0.8207 0.9630
-9.7174 5.7447 -0.9876 0.9557
-12.8546 5.6361 -1.2280 0.9452
-19.2586 5.7998 -1.7597 0.9224
-26.4572 4.5911 -2.3493 0.8978
-26.8175 1.3722 -2.3493 0.8978
-28.5231 -1.9877 -2.5015 0.8915
-12.3923 -2.3867 -1.1041 0.9506
-27.2210 -8.7485 -2.5015 0.8915
-25.9696 -11.9623 -2.5015 0.8915
-18.8285 -19.1455 -2.3493 0.8978
-16.3864 -21.2732 -2.3493 0.8978
-7.7884 -25.6983 -2.3493 0.8978
-4.9380 -28.1626 -2.5015 0.8915
8.7008 -27.2363 -2.5015 0.8915
15.6556 -19.7083 -2.2021 0.9039
22.3808 -17.3022 -2.4750 0.8926
27.3486 -8.3409 -2.5015 0.8915
28.5496 -1.5614 -2.5015 0.8915
26.8800 1.7784 -2.3568 0.8975
26.3857 4.9858 -2.3493 0.8978
16.7671 5.3239 -1.5391 0.9318
12.3337 5.6288 -1.1861 0.9470
18.3614 11.2283 -1.8830 0.9172
1.7415 5.6743 -0.5193 0.9764
0.3208 5.6830 -0.4980 0.9774
-0.3662 5.6872 -0.4986 0.9774
-4.4648 5.6613 -0.6308 0.9715
-5.6612 5.6264 -0.6983 0.9685
-9.5619 5.7438 -0.9759 0.9562
-18.7820 5.8004 -1.7198 0.9241
-26.4243 4.7768 -2.3493 0.8978
-26.8072 1.5605 -2.3493 0.8978
-28.5364 -1.7872 -2.5015 0.8915
-12.4348 -2.3045 -1.1064 0.9505
-27.2817 -8.5572 -2.5015 0.8915
-22.4816 -17.6663 -2.5015 0.8915
-18.9625 -19.0128 -2.3493 0.8978
-7.9686 -25.6430 -2.3493 0.8978
8.5093 -27.2967 -2.5015 0.8915
18.9795 -18.9958 -2.3493 0.8978
26.0635 -11.7565 -2.5015 0.8915
27.2894 -8.5328 -2.5015 0.8915
28.5380 -1.7618 -2.5015 0.8915
18.3565 11.0489 -1.8745 0.9176
18.4542 14.3969 -2.0477 0.9103
5.5019 6.9892 -0.7782 0.9649
3.8475 6.3294 -0.6480 0.9707
1.0574 5.6785 -0.5053 0.9771
0.3608 5.6828 -0.4982 0.9774
-2.5414 5.7006 -0.5461 0.9753
-14.1558 23.6121 -2.4086 0.8953
-4.4029 5.6642 -0.6277 0.9716
-5.5860 5.6302 -0.6939 0.9687
-9.4100 5.7428 -0.9645 0.9567
-18.3156 5.7975 -1.6808 0.9258
-26.3901 4.9622 -2.3493 0.8978
-26.7956 1.7487 -2.3493 0.8978
-28.5482 -1.5868 -2.5015 0.8915
-26.1350 -11.5965 -2.5015 0.8915
-24.5487 -14.6588 -2.5015 0.8915
-16.6835 -21.0410 -2.3493 0.8978
-8.1486 -25.5864 -2.3493 0.8978
-5.3330 -28.0905 -2.5015 0.8915
-1.9121 -28.5283 -2.5015 0.8915
4.9631 -28.1582 -2.5015 0.8915
13.7264 -23.0792 -2.3493 0.8978
16.4053 -21.2586 -2.3493 0.8978
24.3537 -14.9804 -2.5015 0.8915
28.5249 -1.9622 -2.5015 0.8915
28.4893 1.4832 -2.4959 0.8918
17.7096 5.3506 -1.6186 0.9284
18.4477 14.1845 -2.0359 0.9108
19.5064 19.1502 -2.3915 0.8960
17.1192 21.4355 -2.4000 0.8957
3.8803 6.2835 -0.6461 0.9708
1.8289 5.6737 -0.5215 0.9763
1.0987 5.6782 -0.5060 0.9770
0.3985 5.6484 -0.4954 0.9775
-1.7098 5.6955 -0.5203 0.9764
-3.3539 5.6845 -0.5774 0.9738
-4.3416 5.6671 -0.6246 0.9717
-6.9375 5.5606 -0.7779 0.9649
-12.2408 5.6774 -1.1805 0.9473
-17.8695 5.7948 -1.6435 0.9273
-26.7827 1.9368 -2.3493 0.8978
-28.5255 -1.3847 -2.4986 0.8917
-27.3993 -8.1731 -2.5015 0.8915
-16.8309 -20.9233 -2.3493 0.8978
-11.8055 -18.9676 -1.9546 0.9142
-5.5260 -28.0305 -2.4996 0.8916
-2.1124 -28.5141 -2.5015 0.8915
1.3361 -28.5610 -2.5015 0.8915
4.7652 -28.1924 -2.5015 0.8915
11.3666 -26.2358 -2.5015 0.8915
13.5640 -23.1750 -2.3493 0.8978
18.7108 -19.2606 -2.3493 0.8978
24.2480 -15.1511 -2.5015 0.8915
26.4849 4.4288 -2.3493 0.8978
13.0435 5.6239 -1.2427 0.9446
18.3470 10.6951 -1.8580 0.9183
19.6361 19.0086 -2.3910 0.8961
17.2661 21.3105 -2.3996 0.8957
2.6655 5.6686 -0.5480 0.9752
1.8729 5.6735 -0.5227 0.9763
1.1401 5.6780 -0.5067 0.9770
0.4405 5.6750 -0.4980 0.9774
-0.2460 5.6865 -0.4980 0.9774
-0.9413 5.6908 -0.5046 0.9771
11.4995 -16.8174 -2.5015 0.9212
19.7555 -4.9784 -2.5015 0.9212
20.3728 -0.1115 -2.5015 0.9212
14.5130 12.6955 -2.3676 0.9252
2.1953 5.6715 -0.7467 0.9758
0.0411 5.6847 -0.6980 0.9774
-0.6483 5.6890 -0.7030 0.9772
-1.3581 5.6933 -0.7187 0.9767
-2.1113 5.6980 -0.7461 0.9758
-2.9369 5.7030 -0.7876 0.9745
-4.9163 5.6401 -0.9187 0.9703
-6.1930 5.5775 -1.0233 0.9670
-8.1629 5.7351 -1.2249 0.9606
-13.8839 5.4022 -1.8292 0.9417
-18.5369 4.7407 -2.3493 0.9258
-18.9729 2.4743 -2.3493 0.9258
-20.2461 -2.2712 -2.5015 0.9212
-15.2808 -13.2728 -2.4852 0.9217
-11.7414 -16.6494 -2.5015 0.9212
-7.4209 -18.9735 -2.5015 0.9212
-2.6700 -20.1974 -2.5015 0.9212
2.2356 -20.2501 -2.5015 0.9212
4.6575 -19.8336 -2.5015 0.9212
11.3811 -16.8977 -2.5015 0.9212
15.0906 -13.6871 -2.5015 0.9212
16.6288 -11.7706 -2.5015 0.9212
17.9250 -9.6828 -2.5015 0.9212
18.9604 -7.4542 -2.5015 0.9212
19.7200 -5.1171 -2.5015 0.9212
20.1927 -2.7055 -2.5015 0.9212
17.9762 6.5535 -2.3493 0.9258
17.0806 8.6825 -2.3526 0.9257
14.5994 12.5913 -2.3672 0.9252
4.1729 5.8733 -0.8846 0.9714
-2.0658 5.6977 -0.7442 0.9759
-6.1123 5.5831 -1.0165 0.9672
-8.0411 5.7344 -1.2127 0.9610
-20.3705 0.3261 -2.5015 0.9212
-20.2616 -2.1289 -2.5015 0.9212
-11.4086 -2.6157 -1.4371 0.9539
-16.9575 -11.2920 -2.5015 0.9212
-15.4745 -13.2515 -2.5015 0.9212
-13.7664 -15.0183 -2.5015 0.9212
-11.8580 -16.5665 -2.5015 0.9212
-7.5539 -18.9209 -2.5015 0.9212
-5.2209 -19.6928 -2.5015 0.9212
-2.8118 -20.1781 -2.5015 0.9212
4.5181 -19.8658 -2.5015 0.9212
9.1361 -18.2097 -2.5015 0.9212
11.2621 -16.9773 -2.5015 0.9212
13.2243 -15.4978 -2.5015 0.9212
14.9941 -13.7928 -2.5015 0.9212
18.9076 -7.5871 -2.5015 0.9212
19.6836 -5.2554 -2.5015 0.9212
20.1732 -2.8472 -2.5015 0.9212
18.6645 4.2105 -2.3493 0.9258
18.0218 6.4271 -2.3493 0.9258
17.1378 8.5607 -2.3522 0.9257
8.5534 5.6524 -1.2588 0.9595
5.3451 5.7902 -0.9676 0.9687
4.2039 5.8298 -0.8825 0.9714
2.2872 5.6709 -0.7508 0.9757
-0.5674 5.6885 -0.7019 0.9772
-2.8360 5.7024 -0.7820 0.9747
-3.7491 5.6949 -0.8372 0.9729
-6.0320 5.5880 -1.0096 0.9674
-7.9218 5.7337 -1.2007 0.9614
-10.3792 5.7488 -1.4568 0.9533
-18.4685 5.0006 -2.3493 0.9258
-11.4200 -2.5341 -1.4363 0.9540
-15.5672 -13.1425 -2.5015 0.9212
-13.8716 -14.9212 -2.5015 0.9212
-11.9741 -16.4829 -2.5015 0.9212
-9.9024 -17.8046 -2.5015 0.9212
-2.9535 -20.1579 -2.5015 0.9212
1.9510 -20.2795 -2.5015 0.9212
4.3785 -19.8970 -2.5015 0.9212
9.0080 -18.2734 -2.5015 0.9212
11.1427 -17.0559 -2.5015 0.9212
13.1151 -15.5903 -2.5015 0.9212
14.8969 -13.8977 -2.5015 0.9212
16.4618 -12.0030 -2.5015 0.9212
18.8539 -7.7197 -2.5015 0.9212
20.1527 -2.9888 -2.5015 0.9212
20.3659 -0.5407 -2.5015 0.9212
19.0488 1.7989 -2.3493 0.9258
18.6936 4.0793 -2.3493 0.9258
5.4201 5.7893 -0.9737 0.9685
3.6806 6.5634 -0.9240 0.9701
2.3335 5.6706 -0.7529 0.9756
0.8526 5.6797 -0.7052 0.9771
0.1609 5.6840 -0.6982 0.9773
-1.9756 5.6971 -0.7404 0.9760
-3.6937 5.6975 -0.8337 0.9730
-4.7187 5.6494 -0.9038 0.9708
-13.2676 5.4869 -1.7629 0.9438
-10.5921 2.9479 -1.3500 0.9567
-18.9165 2.8734 -2.3493 0.9258
-20.2894 -1.8442 -2.5015 0.9212
-19.2604 -6.6409 -2.5015 0.9212
-17.0450 -11.0078 -2.4914 0.9215
-15.6591 -13.0329 -2.5015 0.9212
-13.9760 -14.8234 -2.5015 0.9212
-12.0895 -16.3984 -2.5015 0.9212
-10.0272 -17.7346 -2.5015 0.9212
-7.8189 -18.8129 -2.5015 0.9212
-5.4969 -19.6175 -2.5015 0.9212
-3.0949 -20.1367 -2.5015 0.9212
4.2387 -19.9273 -2.5015 0.9212
6.6071 -19.2720 -2.5015 0.9212
11.0226 -17.1338 -2.5015 0.9212
13.0053 -15.6820 -2.5015 0.9212
14.7989 -14.0020 -2.5015 0.9212
17.7170 -10.0583 -2.5015 0.9212
18.7992 -7.8520 -2.5015 0.9212
19.6078 -5.5314 -2.5015 0.9212
20.1312 -3.1303 -2.5015 0.9212
20.3616 -0.6837 -2.5015 0.9212
18.7218 3.9479 -2.3493 0.9258
4.2577 5.7329 -0.8768 0.9716
1.6117 5.6751 -0.7244 0.9765
-1.1899 5.6923 -0.7140 0.9768
-3.6387 5.7001 -0.8303 0.9731
-4.6542 5.6524 -0.8990 0.9709
-7.6901 5.7322 -1.1777 0.9621
-10.5631 3.0200 -1.3490 0.9567
-20.3019 -1.7016 -2.5015 0.9212
-11.4633 -2.3753 -1.4374 0.9539
-19.3065 -6.5055 -2.5015 0.9212
-15.7503 -12.9225 -2.5015 0.9212
-14.0798 -14.7249 -2.5015 0.9212
-10.1515 -17.6638 -2.5015 0.9212
-7.9509 -18.7576 -2.5015 0.9212
-5.6346 -19.5784 -2.5015 0.9212
-0.7909 -20.3577 -2.5015 0.9212
1.6659 -20.3049 -2.5015 0.9212
4.0986 -19.9566 -2.5015 0.9212
14.7002 -14.1056 -2.5015 0.9212
16.2916 -12.2331 -2.5015 0.9212
17.6460 -10.1825 -2.5015 0.9212
19.5685 -5.6689 -2.5015 0.9212
20.1087 -3.2716 -2.5015 0.9212
18.7491 3.8163 -2.3493 0.9258
18.1532 6.0460 -2.3493 0.9258
17.3043 8.1929 -2.3508 0.9257
8.9581 5.6524 -1.3006 0.9582
5.5730 5.7875 -0.9865 0.9681
5.2966 7.0281 -1.0806 0.9652
2.4269 5.6701 -0.7573 0.9755
1.6548 5.6748 -0.7258 0.9765
-0.4466 5.6877 -0.7005 0.9773
-1.8861 5.6966 -0.7368 0.9761
-3.5843 5.7026 -0.8270 0.9732
-4.5904 5.6554 -0.8944 0.9711
-12.8331 5.5196 -1.7153 0.9453
-18.8743 3.1389 -2.3493 0.9258
-20.3133 -1.5590 -2.5015 0.9212
-11.4854 -2.2958 -1.4381 0.9539
-11.6866 -3.8467 -1.5107 0.9516
-18.4440 -8.6534 -2.5015 0.9212
-17.1630 -10.7455 -2.4863 0.9216
-14.1828 -14.6257 -2.5015 0.9212
-12.3187 -16.2269 -2.5015 0.9212
-5.7720 -19.5384 -2.5015 0.9212
-3.3775 -20.0912 -2.5015 0.9212
-0.9338 -20.3517 -2.5015 0.9212
3.9583 -19.9849 -2.5015 0.9212
8.6210 -18.4592 -2.5015 0.9212
12.7838 -15.8631 -2.5015 0.9212
18.6871 -8.1152 -2.5015 0.9212
19.5282 -5.8063 -2.5015 0.9212
20.0852 -3.4128 -2.5015 0.9212
18.7754 3.6845 -2.3493 0.9258
9.0991 5.6524 -1.3152 0.9577
15.0199 12.0609 -2.3652 0.9253
0.2808 5.6832 -0.6987 0.9773
-0.4064 5.6875 -0.7001 0.9773
-1.1066 5.6918 -0.7119 0.9769
-1.8418 5.6963 -0.7351 0.9762
-2.6383 5.7012 -0.7713 0.9750
-4.5273 5.6584 -0.8898 0.9712
-12.6244 5.5352 -1.6925 0.9460
-11.5079 -2.2164 -1.4390 0.9539
-11.4407 -3.6769 -1.4755 0.9527
-18.5043 -8.5236 -2.5015 0.9212
-17.2525 -10.6337 -2.4884 0.9216
-15.9302 -12.7001 -2.5015 0.9212
-12.4323 -16.1400 -2.5015 0.9212
-3.5185 -20.0670 -2.5015 0.9212
1.3806 -20.3263 -2.5015 0.9212
6.1996 -19.4069 -2.5015 0.9212
8.4911 -18.5193 -2.5015 0.9212
10.6591 -17.3622 -2.5015 0.9212
12.6721 -15.9525 -2.5015 0.9212
16.1181 -12.4607 -2.5015 0.9212
17.5012 -10.4294 -2.5015 0.9212
18.8008 3.5526 -2.3493 0.9258
17.5324 5.5669 -2.2586 0.9285
17.4109 7.9460 -2.3499 0.9258
9.2434 5.6524 -1.3303 0.9573
13.5904 13.7225 -2.3714 0.9251
3.8146 6.3756 -0.9122 0.9705
1.7415 5.6743 -0.7288 0.9764
-1.7976 5.6960 -0.7334 0.9762
-2.5897 5.7009 -0.7688 0.9751
-3.4699 5.6967 -0.8190 0.9735
-4.4648 5.6613 -0.8853 0.9714
-5.6433 5.6086 -0.9769 0.9684
-7.0804 5.5136 -1.1019 0.9645
-9.5619 5.7438 -1.3696 0.9560
-12.4411 5.5593 -1.6731 0.9466
-18.8284 3.4036 -2.3493 0.9258
-19.2672 1.1216 -2.3697 0.9252
-11.5716 -2.1445 -1.4450 0.9537
-11.4240 -3.5833 -1.4701 0.9529
-17.4181 -10.5675 -2.5015 0.9212
-14.3868 -14.4250 -2.5015 0.9212
-10.5214 -17.4460 -2.5015 0.9212
-8.3443 -18.5859 -2.5015 0.9212
-3.6593 -20.0418 -2.5015 0.9212
1.2378 -20.3355 -2.5015 0.9212
3.6773 -20.0385 -2.5015 0.9212
6.0632 -19.4500 -2.5015 0.9212
10.5369 -17.4366 -2.5015 0.9212
12.5597 -16.0411 -2.5015 0.9212
16.0303 -12.5736 -2.5015 0.9212
20.0353 -3.6945 -2.5015 0.9212
17.4628 7.8220 -2.3494 0.9258
15.1827 11.8446 -2.3644 0.9253
13.6843 13.6246 -2.3710 0.9251
5.5019 6.9892 -1.0922 0.9648
3.8475 6.3294 -0.9095 0.9706
2.5692 5.6692 -0.7642 0.9752
1.7851 5.6740 -0.7303 0.9763
1.0574 5.6785 -0.7092 0.9770
0.3608 5.6828 -0.6992 0.9773
-0.3261 5.6870 -0.6994 0.9773
-1.0237 5.6913 -0.7100 0.9770
-1.7536 5.6958 -0.7317 0.9763
-2.5414 5.7006 -0.7664 0.9752
-5.5685 5.6126 -0.9708 0.9686
-6.9892 5.5218 -1.0937 0.9647
-12.2770 5.5898 -1.6563 0.9471
-19.0929 1.2460 -2.3493 0.9258
-11.7977 -2.1008 -1.4714 0.9529
-11.4084 -3.4906 -1.4649 0.9531
-18.6222 -8.2629 -2.5015 0.9212
-17.4919 -10.4450 -2.5015 0.9212
-14.4878 -14.3237 -2.5015 0.9212
-3.8000 -20.0156 -2.5015 0.9212
3.5364 -20.0638 -2.5015 0.9212
5.9265 -19.4921 -2.5015 0.9212
18.5120 -8.5073 -2.5015 0.9212
19.4015 -6.2164 -2.5015 0.9212
20.0089 -3.8351 -2.5015 0.9212
20.3251 -1.3981 -2.5015 0.9212
20.3455 1.0592 -2.5015 0.9212
18.8489 3.2881 -2.3493 0.9258
18.3158 5.5337 -2.3493 0.9258
17.5163 7.6987 -2.3493 0.9258
13.7776 13.5260 -2.3707 0.9251
3.8803 6.2835 -0.9068 0.9707
2.6172 5.6689 -0.7667 0.9752
1.8289 5.6737 -0.7319 0.9763
1.0987 5.6782 -0.7101 0.9770
0.3985 5.6484 -0.6953 0.9774
-0.9825 5.6910 -0.7091 0.9770
-9.2616 5.7419 -1.3380 0.9570
-18.2005 5.9021 -2.3493 0.9258
-18.7787 3.6678 -2.3493 0.9258
-19.0837 1.3801 -2.3493 0.9258
-20.3491 -0.9878 -2.5015 0.9212
-11.6912 -1.9972 -1.4563 0.9533
-11.3930 -3.3985 -1.4598 0.9532
-10.7654 -17.2965 -2.5015 0.9212
-6.3185 -19.3685 -2.5015 0.9212
-1.5051 -20.3174 -2.5015 0.9212
3.3954 -20.0882 -2.5015 0.9212
8.0991 -18.6940 -2.5015 0.9212
12.3332 -16.2159 -2.5015 0.9212
14.1959 -14.6130 -2.5015 0.9212
15.8520 -12.7975 -2.5015 0.9212
17.2776 -10.7957 -2.5015 0.9212
19.3574 -6.3525 -2.5015 0.9212
20.3147 -1.5408 -2.5015 0.9212
20.3525 0.9163 -2.5015 0.9212
18.3543 5.4049 -2.3493 0.9258
16.5792 9.6645 -2.3563 0.9256
3.9129 6.2378 -0.9041 0.9708
1.1401 5.6780 -0.7111 0.9769
