ply
format ascii 1.0
element vertex 1582
property float32 x
property float32 y
property float32 z
property float32 I
end_header
0.0296 5.6848 1.3125 0.9769
-0.6595 5.6890 1.3222 0.9768
-4.9986 5.7157 1.7530 0.9693
-23.5309 21.1258 7.3007 0.8783
-48.6139 -11.5602 11.5364 0.8145
-71.8641 -36.9322 18.6539 0.7177
-16.2725 -30.2944 7.9391 0.8683
-11.8996 -46.2823 11.0326 0.8219
33.9408 17.2211 8.7868 0.8554
25.0459 16.7758 6.9595 0.8836
5.1554 5.6533 1.7664 0.9691
4.0300 5.6602 1.6041 0.9719
3.0814 5.6660 1.4890 0.9739
2.2485 5.6712 1.4084 0.9753
0.7785 5.6802 1.3236 0.9767
-0.5998 5.6887 1.3206 0.9768
-1.3071 5.6930 1.3485 0.9763
-2.8749 5.7026 1.4744 0.9741
-4.8945 5.7151 1.7372 0.9696
-28.2964 20.2576 8.0343 0.8669
-46.8966 -10.6396 11.1021 0.8209
-20.6294 -28.6586 8.1523 0.8651
-16.7963 -30.5070 8.0400 0.8668
-11.6574 -43.4680 10.3900 0.8313
14.6414 -17.2764 5.2283 0.9112
50.5846 -46.8544 15.9184 0.7535
50.1065 11.0954 11.8482 0.8100
47.2560 16.6391 11.5664 0.8141
25.6106 16.7724 7.0678 0.8819
4.1187 5.6597 1.6160 0.9717
2.3166 5.6707 1.4142 0.9752
0.8385 5.6798 1.3255 0.9767
0.1475 5.6841 1.3127 0.9769
-0.5403 5.6883 1.3192 0.9768
-4.7922 5.7144 1.7218 0.9698
-27.6807 20.2538 7.9186 0.8687
-6.8210 2.8072 1.7029 0.9702
-51.9708 -11.2261 12.2751 0.8039
-57.8571 -28.2340 14.8630 0.7678
-18.4619 -44.5317 11.1295 0.8205
-12.1308 -43.4294 10.4102 0.8310
15.7025 -45.7275 11.1621 0.8200
49.7075 -36.7675 14.2741 0.7758
50.4062 10.6150 11.8924 0.8094
48.8381 16.6294 11.9108 0.8091
26.3479 16.8679 7.2227 0.8795
5.3728 5.6519 1.8003 0.9685
4.2086 5.6591 1.6282 0.9715
3.2348 5.6651 1.5061 0.9736
0.8986 5.6794 1.3275 0.9767
0.2064 5.6837 1.3131 0.9769
-0.4808 5.6879 1.3178 0.9768
-1.9233 5.6968 1.3881 0.9756
-2.7278 5.7017 1.4592 0.9744
-4.6918 5.7138 1.7069 0.9701
-22.4385 21.4412 7.1652 0.8804
-27.0823 20.2501 7.8070 0.8704
-66.7603 -22.3469 16.2534 0.7490
-18.9222 -44.3381 11.1295 0.8205
21.2400 -44.9940 11.4869 0.8153
29.6572 -47.1279 12.8554 0.7957
49.9891 -48.2653 16.0423 0.7518
51.1859 -29.7567 13.6690 0.7842
53.0484 10.5988 12.4892 0.8009
50.1397 16.4950 12.1860 0.8052
35.0134 16.4177 8.9280 0.8532
25.1372 20.3158 7.4618 0.8757
5.4847 5.6513 1.8181 0.9682
-19.9726 -33.2417 7.5381 0.8538
-14.6138 -32.6894 6.9602 0.8642
27.4543 -45.3214 10.2999 0.8058
40.0070 -50.9901 12.5981 0.7679
49.9789 -49.9273 13.7318 0.7499
49.8012 -38.9913 12.2944 0.7728
49.8532 -30.1294 11.3227 0.7887
58.0348 10.5706 11.4664 0.7863
50.1339 15.5521 10.2032 0.8074
36.1542 16.2075 7.7015 0.8509
27.8276 16.7587 6.3143 0.8760
5.6357 5.6123 1.5460 0.9681
3.4430 5.6638 1.2884 0.9734
1.0586 5.6785 1.1228 0.9767
0.3624 5.6827 1.1069 0.9771
-0.3242 5.6870 1.1072 0.9771
-3.4162 5.7060 1.2927 0.9733
-7.2403 5.7295 1.7947 0.9631
-9.2890 2.9503 1.8944 0.9611
-16.8357 -36.6361 7.8373 0.8485
-13.9260 -43.4552 8.8700 0.8303
19.2842 -43.9286 9.3254 0.8224
26.7822 -45.2634 10.2231 0.8071
40.0003 -52.0837 12.7652 0.7652
49.9725 -50.9663 13.8745 0.7476
50.2306 15.0134 10.1906 0.8076
28.4844 16.7547 6.4236 0.8740
25.0298 19.1200 6.1224 0.8795
3.5236 5.6633 1.2965 0.9732
2.6407 5.6687 1.2156 0.9748
1.1196 5.6781 1.1250 0.9767
0.4215 5.6824 1.1076 0.9770
-0.2651 5.6866 1.1066 0.9771
-0.9606 5.6909 1.1218 0.9768
-2.4672 5.7001 1.2073 0.9750
-3.3361 5.7055 1.2847 0.9734
-7.0870 5.7285 1.7713 0.9635
-75.7278 -32.5442 16.0217 0.7147
-14.4231 -43.4522 8.8994 0.8298
-14.3552 -70.8687 14.0552 0.7448
39.9934 -53.2069 12.9383 0.7624
49.9660 -52.0270 14.0216 0.7453
38.2285 16.1947 8.0701 0.8444
25.4619 24.3268 6.8451 0.8663
4.6453 5.6564 1.4228 0.9706
1.1807 5.6777 1.1272 0.9766
0.4807 5.6820 1.1084 0.9770
-1.6221 5.6950 1.1510 0.9762
-2.3972 5.6997 1.2019 0.9751
-4.2467 5.7111 1.3834 0.9714
-5.4352 5.7184 1.5335 0.9684
-66.3875 -18.7239 13.4078 0.7550
-71.6495 -40.6594 16.0135 0.7148
-10.8169 -16.7978 3.8836 0.9218
-14.9116 -43.4142 8.9228 0.8294
-15.0887 -70.7161 14.0552 0.7448
25.4686 -45.1526 10.0767 0.8096
40.2097 -54.6648 13.1908 0.7584
44.2088 -46.9973 12.5419 0.7688
49.7358 -41.4966 12.5907 0.7680
50.5743 13.9815 10.1994 0.8075
39.3422 16.1879 8.2694 0.8408
29.8695 16.7462 6.6563 0.8698
25.0248 18.3078 6.0271 0.8813
4.7438 5.6558 1.4349 0.9704
3.6879 5.6623 1.3135 0.9728
1.9814 5.6728 1.1680 0.9758
0.5400 5.6817 1.1094 0.9770
-0.1471 5.6859 1.1056 0.9771
-1.5584 5.6946 1.1476 0.9762
-2.3278 5.6993 1.1967 0.9752
-3.1788 5.7045 1.2694 0.9737
-4.1551 5.7105 1.3727 0.9716
-5.3229 5.7177 1.5185 0.9687
-67.1278 -18.1840 13.5186 0.7532
-70.1575 -38.8573 15.5892 0.7212
-71.7989 -66.4949 19.0221 0.6711
-36.7535 -43.3616 11.0490 0.7932
-10.7972 -16.3915 3.8153 0.9231
-13.5603 -38.1876 7.8770 0.8478
-15.8205 -70.5560 14.0552 0.7448
40.0809 -55.6892 13.3370 0.7561
43.1973 -46.8860 12.3921 0.7712
53.0559 -45.2072 13.5490 0.7527
49.8380 -33.0139 11.6202 0.7838
54.9950 -27.5513 11.9564 0.7783
50.5708 13.4182 10.1701 0.8080
42.9781 17.1654 8.9958 0.8281
31.5040 17.2361 6.9803 0.8639
4.8439 5.6552 1.4474 0.9701
3.7717 5.6618 1.3224 0.9727
2.0474 5.6724 1.1722 0.9757
-1.4951 5.6942 1.1444 0.9763
-4.0649 5.7100 1.3624 0.9718
-5.2127 5.7170 1.5039 0.9690
-59.9224 -32.3818 13.2397 0.7576
-23.1463 -34.3588 8.0528 0.8447
-11.8971 -50.5975 10.1034 0.8091
14.1122 -54.9040 11.0192 0.7937
39.9715 -56.7685 13.4956 0.7536
49.7836 -33.7252 11.6884 0.7827
50.5674 12.8580 10.1421 0.8085
44.2843 17.1574 9.2315 0.8241
32.2852 17.2313 7.1135 0.8615
25.0200 17.5201 5.9372 0.8830
25.5534 22.9384 6.6748 0.8694
4.9459 5.6546 1.4603 0.9699
2.1139 5.6720 1.1766 0.9756
0.6590 5.6809 1.1117 0.9770
-0.0292 5.6851 1.1051 0.9771
-2.1791 5.6679 1.1803 0.9756
-3.0252 5.7036 1.2550 0.9740
-3.9760 5.7094 1.3524 0.9720
-5.1047 5.7163 1.4897 0.9693
-29.1224 19.9494 6.8616 0.8660
-10.0344 -19.1544 4.2032 0.9157
-13.8776 -36.6542 7.6184 0.8524
-12.4509 -50.5941 10.1279 0.8087
22.2372 -90.3884 18.0936 0.6843
39.9638 -58.0253 13.6952 0.7504
41.2477 -46.6745 12.1077 0.7758
49.7790 -34.4798 11.7705 0.7813
50.5639 12.3008 10.1153 0.8089
44.8584 16.8473 9.3143 0.8226
25.5504 22.4621 6.6128 0.8706
5.0497 5.6539 1.4735 0.9696
3.0060 5.6665 1.2468 0.9742
1.4281 5.6762 1.1377 0.9764
0.7187 5.6805 1.1130 0.9769
-1.3694 5.6934 1.1382 0.9764
-18.5938 49.9006 10.3512 0.8049
-2.9496 5.7031 1.2481 0.9742
-4.9986 5.7157 1.4760 0.9695
-6.3758 5.7242 1.6655 0.9657
-8.1891 5.7353 1.9434 0.9601
-48.4938 -11.5317 9.6891 0.8162
-71.7868 -36.8925 15.6888 0.7197
-10.2959 -19.1678 4.2293 0.9152
-11.6691 -45.3858 9.1090 0.8262
-12.4100 -94.1701 18.4631 0.6791
22.6102 -44.2774 9.6639 0.8166
45.7633 16.6483 9.4658 0.8200
33.9409 17.2211 7.3981 0.8563
3.0814 5.6660 1.2537 0.9741
2.2485 5.6712 1.1858 0.9754
0.0885 5.6844 1.1051 0.9771
-0.5998 5.6887 1.1119 0.9770
-1.3071 5.6930 1.1354 0.9765
-2.0521 5.6865 1.1751 0.9757
-2.8749 5.7026 1.2414 0.9743
-4.8945 5.7151 1.4626 0.9698
-7.9845 5.7162 1.9088 0.9608
-18.6773 -33.9235 7.5274 0.8540
-11.6574 -43.4680 8.7479 0.8324
-13.4021 -94.1584 18.4870 0.6787
50.0010 -46.3138 13.2479 0.7575
49.8193 -36.0578 11.9542 0.7783
49.8686 -27.6246 11.0814 0.7927
50.2066 11.1175 9.9956 0.8110
47.2560 16.6391 9.7384 0.8153
25.6106 16.7724 5.9508 0.8827
25.0421 21.1116 6.3667 0.8751
5.2631 5.6526 1.5013 0.9690
4.1187 5.6597 1.3606 0.9719
2.3166 5.6707 1.1907 0.9753
0.8385 5.6798 1.1160 0.9769
-1.2451 5.6926 1.1327 0.9765
-2.8010 5.7022 1.2349 0.9744
-4.7922 5.7144 1.4497 0.9701
-6.1122 5.7205 1.6273 0.9665
-7.8354 5.7331 1.8872 0.9612
-6.8201 2.8068 1.4336 0.9704
-67.8956 -14.6659 13.5019 0.7535
-59.5037 -29.0376 12.8701 0.7635
-15.1596 -36.5664 7.6945 0.8510
-12.1308 -43.4294 8.7649 0.8321
29.2849 -45.4836 10.5152 0.8022
40.0240 -48.2310 12.1828 0.7746
48.8380 16.6294 10.0284 0.8104
34.8896 16.8029 7.5274 0.8540
26.1932 16.7688 6.0454 0.8810
25.0394 20.6694 6.3112 0.8761
1.6169 5.6750 1.1470 0.9762
0.8986 5.6794 1.1177 0.9768
0.2064 5.6837 1.1055 0.9771
-0.4808 5.6879 1.1096 0.9770
-1.1833 5.6922 1.1301 0.9766
-2.7278 5.7017 1.2286 0.9746
-3.6330 5.7073 1.3151 0.9728
-22.4385 21.4412 6.0327 0.8812
-6.7997 2.8812 1.4355 0.9704
-89.5708 3.4849 17.4240 0.6940
-25.9530 -34.5225 8.3953 0.8386
-19.9696 -34.5564 7.7580 0.8499
14.6383 -44.1107 9.0341 0.8275
28.5829 -45.4207 10.4316 0.8036
49.9891 -48.2653 13.5069 0.7534
49.8095 -37.6473 12.1364 0.7754
54.0196 10.7928 10.7079 0.7989
50.1397 16.4950 10.2601 0.8065
26.7949 16.7651 6.1439 0.8792
5.4847 5.6513 1.5308 0.9684
-27.6023 -35.4434 7.1152 0.8337
-20.7583 -34.5493 6.3838 0.8494
-15.4753 -34.6165 6.0057 0.8576
-13.4208 -43.4215 7.1983 0.8319
-15.8130 -87.3270 14.0562 0.6981
13.9250 -44.4811 7.3823 0.8280
19.4393 -43.0643 7.4834 0.8258
27.3316 -45.1187 8.3550 0.8076
36.4560 -46.4642 9.3540 0.7873
27.7712 -16.7839 5.1394 0.8769
62.4152 -28.0969 10.8411 0.7579
54.2748 -9.9732 8.7402 0.7997
54.3560 3.2400 8.6244 0.8021
36.1542 16.2075 6.2753 0.8518
27.8276 16.7587 5.1450 0.8767
25.0324 19.5360 5.0292 0.8793
5.6357 5.6123 1.2597 0.9683
4.4532 5.6576 1.1404 0.9713
3.4431 5.6638 1.0498 0.9735
2.5697 5.6692 0.9858 0.9751
1.0586 5.6785 0.9149 0.9769
0.3624 5.6827 0.9019 0.9772
-3.4162 5.7060 1.0533 0.9734
-5.6667 5.7198 1.2752 0.9679
-88.8511 5.8973 14.1036 0.6972
-89.4033 -15.8061 14.3797 0.6923
-27.5976 -34.6900 7.0210 0.8357
-21.2467 -34.5463 6.4236 0.8485
-14.4226 -75.1967 12.1271 0.7334
13.5286 -44.8391 7.4180 0.8272
18.3803 -41.8697 7.2424 0.8309
44.3570 -45.2391 10.0348 0.7737
50.2439 -40.1844 10.1900 0.7706
50.2972 -31.1136 9.3673 0.7870
59.6084 -27.5797 10.4026 0.7664
54.7659 -17.7073 9.1162 0.7921
54.2712 -10.5549 8.7568 0.7994
54.3122 -3.8875 8.6242 0.8021
54.3526 2.6750 8.6190 0.8022
50.1304 14.9835 8.2870 0.8090
28.4845 16.7547 5.2341 0.8747
4.5485 5.6570 1.1497 0.9710
3.5236 5.6633 1.0564 0.9733
2.6407 5.6687 0.9905 0.9750
1.1196 5.6781 0.9166 0.9768
-0.2651 5.6866 0.9016 0.9772
-1.6862 5.6953 0.9408 0.9762
-3.3361 5.7055 1.0468 0.9736
-5.5498 5.7191 1.2622 0.9682
-9.1747 5.7414 1.7142 0.9571
-90.1550 -14.9776 14.4748 0.6907
-66.3041 -19.4441 10.9438 0.7559
-70.1314 -67.7032 15.4391 0.6738
-21.7412 -34.5433 6.4646 0.8476
-16.3416 -34.6112 6.0622 0.8564
-14.4334 -71.2548 11.5148 0.7450
12.8344 -44.1886 7.2880 0.8300
26.1769 -45.3050 8.2873 0.8090
50.2386 -41.0408 10.2746 0.7690
58.7145 -27.9082 10.2965 0.7685
54.1482 -18.1293 9.0442 0.7935
54.2676 -11.1389 8.7743 0.7990
54.3087 -4.4532 8.6305 0.8020
54.3491 2.1107 8.6145 0.8023
38.2284 16.1947 6.5757 0.8452
25.0274 18.7108 4.9493 0.8811
4.6453 5.6564 1.1593 0.9708
3.6052 5.6628 1.0632 0.9732
2.7123 5.6683 0.9953 0.9749
1.9029 5.6349 0.9420 0.9762
0.4807 5.6820 0.9032 0.9772
-1.6221 5.6950 0.9379 0.9763
-3.2570 5.7050 1.0405 0.9737
-8.9648 5.7401 1.6860 0.9578
-66.9148 -18.8726 11.0117 0.7546
-28.6385 -34.5061 7.1023 0.8339
-16.7642 -34.5737 6.0857 0.8559
-11.8973 -34.6384 5.8008 0.8622
-14.5266 -68.0816 11.0258 0.7543
25.4430 -45.1072 8.2024 0.8108
41.9104 -44.5539 9.6881 0.7806
54.1910 -18.7702 9.0833 0.7927
54.3864 8.1689 8.7106 0.8003
50.1235 13.8569 8.2366 0.8101
25.0249 18.3079 4.9110 0.8820
4.7438 5.6558 1.1692 0.9705
3.6879 5.6623 1.0703 0.9730
-0.8396 5.6901 0.9110 0.9770
-1.5584 5.6946 0.9351 0.9764
-2.3278 5.6993 0.9751 0.9754
-3.1788 5.7045 1.0343 0.9739
-4.1551 5.7105 1.1185 0.9718
-5.3229 5.7177 1.2373 0.9689
-6.7919 5.7267 1.4071 0.9647
-8.7616 5.7388 1.6589 0.9585
-69.0214 -18.6969 11.3259 0.7486
-91.1406 -36.9502 15.5765 0.6715
-64.4918 -46.6703 12.6085 0.7244
-71.2588 -65.9948 15.3830 0.6748
-30.9991 -36.5726 7.5934 0.8235
-24.1118 -36.6048 6.9424 0.8373
-12.2991 -34.6359 5.8214 0.8617
-15.2311 -67.9275 11.0258 0.7543
12.0486 -44.9391 7.3690 0.8283
17.6337 -43.8206 7.4814 0.8259
24.1009 -43.7819 7.9156 0.8168
41.0438 -44.5486 9.5939 0.7825
49.7801 -42.4160 10.3584 0.7673
54.8255 -19.6285 9.2232 0.7899
54.3018 -5.5875 8.6460 0.8017
54.3828 7.5932 8.6970 0.8006
50.1201 13.2986 8.2129 0.8106
42.9781 17.1654 7.3299 0.8291
31.5040 17.2361 5.6877 0.8646
25.0224 17.9111 4.8738 0.8828
25.5564 23.4236 5.4907 0.8690
4.8439 5.6552 1.1794 0.9703
3.7717 5.6618 1.0775 0.9728
2.0474 5.6724 0.9552 0.9759
-0.0882 5.6855 0.9006 0.9772
-0.7794 5.6898 0.9096 0.9770
-1.4951 5.6942 0.9324 0.9764
-2.2590 5.6988 0.9709 0.9755
-87.4125 44.3595 15.5255 0.6723
-90.1841 -35.4789 15.3493 0.6754
-70.2474 -63.7187 15.0213 0.6811
-24.5963 -36.5113 6.9726 0.8367
23.6413 -44.0202 7.9140 0.8168
40.7877 -45.2016 9.6430 0.7815
55.3927 -20.4813 9.3539 0.7873
44.2843 17.1574 7.5220 0.8250
25.0200 17.5202 4.8378 0.8836
3.8566 5.6613 1.0849 0.9726
2.1139 5.6720 0.9587 0.9758
0.6590 5.6809 0.9058 0.9771
-0.0292 5.6851 0.9005 0.9772
-0.7194 5.6894 0.9083 0.9770
-2.1791 5.6679 0.9618 0.9757
-3.0252 5.7036 1.0226 0.9742
-3.9760 5.7094 1.1019 0.9722
-5.1047 5.7163 1.2138 0.9694
-6.5112 5.7250 1.3732 0.9655
-8.3741 5.7364 1.6077 0.9597
-90.4448 -34.5037 15.3321 0.6757
-32.3176 -36.5645 7.7291 0.8207
-17.9770 -34.3159 6.1358 0.8548
13.3560 -54.2887 8.8549 0.7974
16.5693 -43.7733 7.4131 0.8273
31.7323 -46.0736 8.8606 0.7973
53.0935 -27.9896 9.5062 0.7842
55.9938 -21.3657 9.4922 0.7845
54.3352 -0.1426 8.6059 0.8025
44.8584 16.8473 7.5894 0.8236
25.0176 17.1350 4.8027 0.8844
25.5504 22.4621 5.3883 0.8713
3.9427 5.6607 1.0926 0.9724
3.0060 5.6665 1.0160 0.9744
2.1809 5.6716 0.9624 0.9757
0.7187 5.6805 0.9069 0.9771
-0.6595 5.6890 0.9071 0.9771
-1.3694 5.6934 0.9275 0.9766
-18.5939 49.9007 8.4343 0.8060
-3.8884 5.7089 1.0940 0.9724
-8.1891 5.7353 1.5835 0.9603
-65.4362 -44.3221 12.5177 0.7261
-32.9950 -36.5604 7.8001 0.8192
-18.2125 -33.9062 6.0959 0.8557
16.0611 -43.7956 7.3883 0.8279
22.7306 -44.5132 7.9162 0.8168
31.1127 -46.1913 8.8208 0.7981
50.2721 -35.5976 9.7564 0.7792
51.7709 -27.9815 9.3207 0.7879
56.6303 -22.2833 9.6388 0.7816
54.2912 -7.2978 8.6762 0.8010
54.3318 -0.7055 8.6060 0.8025
54.3723 5.8757 8.6619 0.8013
50.1099 11.6419 8.1480 0.8119
45.7633 16.6483 7.7129 0.8210
25.0459 16.7758 4.7745 0.8851
25.0449 21.5618 5.2343 0.8747
5.1554 5.6533 1.2118 0.9695
2.2485 5.6712 0.9662 0.9756
-0.5998 5.6887 0.9060 0.9771
-2.0521 5.6865 0.9575 0.9758
-2.8749 5.7026 1.0115 0.9745
-6.2436 5.7233 1.3415 0.9663
-8.0097 5.7342 1.5602 0.9609
-68.0257 -15.4332 11.0480 0.7539
-73.2998 -36.7154 12.9845 0.7175
-66.7122 -44.1853 12.6736 0.7232
-26.3395 -36.5911 7.1408 0.8331
-13.9224 -34.5911 5.9058 0.8598
22.2895 -44.7891 7.9238 0.8166
38.1096 -44.9678 9.3357 0.7876
50.2175 -36.3460 9.8183 0.7780
49.8686 -27.6246 9.0293 0.7938
68.1435 -27.6321 11.6465 0.7425
54.3283 -1.2686 8.6071 0.8025
54.3688 5.3060 8.6521 0.8015
50.1065 11.0954 8.1283 0.8123
47.2560 16.6391 7.9350 0.8164
34.8183 17.2151 6.1519 0.8544
25.6106 16.7724 4.8488 0.8834
25.0421 21.1116 5.1877 0.8758
5.2631 5.6526 1.2233 0.9692
3.1576 5.6656 1.0273 0.9741
2.3166 5.6707 0.9702 0.9755
0.8385 5.6798 0.9093 0.9770
0.1475 5.6841 0.9006 0.9772
-1.2451 5.6926 0.9229 0.9767
-1.9870 5.6902 0.9546 0.9759
-3.7169 5.7078 1.0788 0.9728
-7.8354 5.7331 1.5377 0.9614
-10.2507 5.7480 1.8614 0.9535
-89.6062 24.7789 14.7249 0.6863
-88.3616 2.5211 14.0008 0.6991
-26.9166 -36.5876 7.1941 0.8320
-12.1308 -43.4294 7.1418 0.8331
12.0921 -56.6914 9.1810 0.7908
15.1092 -43.9995 7.3683 0.8283
21.8568 -45.0849 7.9356 0.8163
50.2935 -47.5621 10.9636 0.7555
66.1366 -27.6198 11.3518 0.7481
54.2420 -15.3024 8.9264 0.7959
54.2842 -8.4451 8.7012 0.8005
54.3653 4.7377 8.6432 0.8017
50.4060 10.6150 8.1586 0.8117
48.8380 16.6294 8.1713 0.8114
34.8896 16.8029 6.1334 0.8548
26.1932 16.7688 4.9259 0.8817
4.2086 5.6591 1.1170 0.9718
2.3853 5.6703 0.9743 0.9754
0.2064 5.6837 0.9008 0.9772
-1.1833 5.6922 0.9208 0.9767
-3.6330 5.7073 1.0715 0.9730
-4.6918 5.7138 1.1710 0.9705
-22.4386 21.4412 4.9156 0.8819
-10.0710 5.7851 1.8395 0.9541
-88.1590 25.3646 14.5295 0.6897
-88.8550 3.4570 14.0839 0.6976
-89.6863 -18.4022 14.5009 0.6902
-65.9007 -22.0592 11.0069 0.7547
-74.0405 -35.1867 12.9838 0.7175
-34.9656 -36.4027 7.9945 0.8151
-27.3943 -36.4397 7.2205 0.8314
-14.7751 -34.6208 5.9619 0.8586
14.7064 -44.3159 7.3953 0.8277
28.3857 -45.1073 8.4412 0.8059
37.0654 -45.6196 9.3097 0.7882
50.2134 -48.4818 11.0551 0.7538
50.3086 -29.2467 9.2167 0.7900
64.4654 -27.7095 11.1136 0.7526
54.2383 -15.9099 8.9525 0.7954
54.3214 -2.3954 8.6120 0.8024
54.3618 4.1705 8.6354 0.8019
53.0484 10.5988 8.5681 0.8033
35.0134 16.4177 6.1250 0.8550
26.7949 16.7651 5.0061 0.8798
25.0367 20.2346 5.0986 0.8778
5.4847 5.6513 1.2473 0.9686
-11.9478 -38.6557 4.9679 0.8495
-15.9295 -87.9705 10.9771 0.6975
13.8685 -44.3007 5.6998 0.8294
14.5728 -32.2833 4.3490 0.8670
45.8729 -45.8255 7.9614 0.7700
49.8012 -38.9913 7.7660 0.7750
50.2219 -30.3522 7.2051 0.7894
51.2346 -23.0638 6.8988 0.7974
54.2748 -9.9732 6.7757 0.8006
54.3157 -3.3226 6.6816 0.8031
54.3560 3.2400 6.6859 0.8030
36.1542 16.2075 4.8648 0.8524
25.1329 19.6144 3.9145 0.8794
5.6357 5.6123 0.9766 0.9685
4.4532 5.6576 0.8840 0.9714
3.4431 5.6638 0.8138 0.9736
1.0586 5.6785 0.7092 0.9770
0.3624 5.6827 0.6992 0.9773
-1.0214 5.6913 0.7100 0.9770
-1.7507 5.6957 0.7316 0.9763
-2.5378 5.7006 0.7662 0.9752
-3.4162 5.7060 0.8166 0.9736
-4.4342 5.7122 0.8879 0.9713
-7.2403 5.7295 1.1337 0.9635
-9.3918 5.7427 1.3517 0.9566
-12.6260 5.7626 1.7041 0.9456
-9.2871 2.9497 1.1964 0.9615
-90.0965 5.9800 11.0868 0.6950
-27.4571 -34.5133 5.4151 0.8372
-14.9623 -78.0106 9.7531 0.7261
13.4988 -44.7403 5.7380 0.8283
18.7609 -42.7367 5.7308 0.8285
34.8572 -45.3870 7.0267 0.7940
50.2175 -31.0643 7.2503 0.7882
51.9569 -24.0395 7.0293 0.7940
54.2818 -17.5508 7.0047 0.7946
54.3526 2.6750 6.6817 0.8031
28.6022 16.8240 4.0744 0.8748
24.5596 23.9563 4.2126 0.8709
2.6407 5.6687 0.7678 0.9751
20.1932 61.9062 7.9953 0.7692
1.1196 5.6781 0.7106 0.9769
-0.2651 5.6866 0.6990 0.9773
-0.9606 5.6909 0.7086 0.9770
-1.6862 5.6953 0.7293 0.9763
-2.4672 5.7001 0.7626 0.9753
-5.5498 5.7191 0.9785 0.9684
-9.1747 5.7414 1.3289 0.9573
-76.0169 -32.6684 10.1591 0.7165
-35.6989 -34.4629 6.0925 0.8188
-14.4334 -71.2548 8.9267 0.7460
13.1248 -45.1885 5.7777 0.8273
26.0648 -45.1108 6.3970 0.8106
43.6420 -45.4422 7.7360 0.7758
49.8445 -31.5522 7.2432 0.7884
54.1778 -25.7517 7.3654 0.7853
54.3087 -4.4533 6.6907 0.8028
54.3491 2.1107 6.6783 0.8032
54.3899 8.7465 6.7640 0.8009
1.9029 5.6349 0.7303 0.9763
-0.9000 5.6905 0.7074 0.9770
-1.6221 5.6950 0.7271 0.9764
-2.3972 5.6997 0.7592 0.9754
-4.2467 5.7111 0.8738 0.9717
-6.9376 5.7276 1.1046 0.9644
-71.2840 -67.4030 12.0458 0.6734
14.7629 -52.8674 6.7396 0.8015
49.8400 -32.2775 7.2908 0.7872
54.3053 -5.0198 6.6963 0.8027
50.5743 13.9815 6.4427 0.8094
39.3422 16.1879 5.2236 0.8424
25.1253 18.3814 3.8224 0.8821
24.5536 22.9771 4.1290 0.8733
4.7438 5.6558 0.9064 0.9707
3.6879 5.6623 0.8297 0.9731
2.7846 5.6679 0.7754 0.9749
-0.1471 5.6859 0.6984 0.9773
-2.3278 5.6993 0.7559 0.9755
-3.1788 5.7045 0.8018 0.9740
-6.7919 5.7267 1.0908 0.9648
-29.4274 -0.6851 3.6142 0.8881
-68.1497 -18.4608 8.6693 0.7524
-29.2740 -34.5373 5.5590 0.8332
-18.0288 -36.2212 4.9679 0.8495
-13.5390 -38.1276 4.9679 0.8495
-14.2490 -63.5473 7.9964 0.7692
-4.1788 -41.6719 5.1423 0.8447
24.1109 -43.8000 6.1390 0.8175
32.6062 -45.3036 6.8535 0.7986
54.3484 -27.2273 7.4637 0.7827
54.2604 -12.3142 6.8318 0.7991
54.3018 -5.5875 6.7026 0.8025
54.3422 0.9834 6.6735 0.8033
50.5708 13.4182 6.4242 0.8099
42.9781 17.1654 5.6824 0.8299
24.5507 22.5019 4.0891 0.8744
4.8439 5.6552 0.9143 0.9704
2.8576 5.6674 0.7793 0.9747
2.0474 5.6724 0.7405 0.9760
0.5995 5.6813 0.7014 0.9772
-0.0882 5.6855 0.6982 0.9773
-1.4951 5.6942 0.7229 0.9766
-2.2590 5.6988 0.7527 0.9756
-4.0649 5.7100 0.8606 0.9721
-6.6499 5.7258 1.0775 0.9653
-8.5648 5.7376 1.2658 0.9593
-11.3398 5.7547 1.5614 0.9500
-29.8911 -34.5336 5.6080 0.8319
-23.2676 -34.5390 5.1134 0.8455
-18.4031 -36.0325 4.9679 0.8495
-11.8971 -50.5975 6.3820 0.8110
17.2866 -44.2772 5.8362 0.8257
23.5211 -43.7964 6.1040 0.8184
51.9383 -45.1918 8.4533 0.7577
50.2019 -34.0086 7.4452 0.7832
53.8683 -27.6887 7.4368 0.7834
54.2983 -6.1563 6.7097 0.8023
44.2843 17.1574 5.8313 0.8258
25.1205 17.5905 3.7654 0.8837
24.5478 22.0357 4.0503 0.8755
4.9459 5.6546 0.9224 0.9702
3.8566 5.6613 0.8411 0.9728
-2.1791 5.6679 0.7456 0.9758
-3.9760 5.7094 0.8543 0.9724
-5.1047 5.7163 0.9410 0.9696
-8.3741 5.7364 1.2463 0.9599
-11.0511 5.7529 1.5298 0.9510
-61.7459 15.0258 7.8028 0.7741
-31.2962 -0.0800 3.8427 0.8815
-69.1638 -17.2057 8.7511 0.7503
-74.5368 -39.2871 10.3454 0.7121
-30.5191 -34.5297 5.6584 0.8305
-23.8133 -34.5706 5.1543 0.8444
-18.7754 -35.8399 4.9679 0.8495
12.8693 -52.3105 6.6144 0.8049
15.8740 -41.9365 5.5057 0.8347
22.9377 -43.7928 6.0700 0.8194
31.0301 -45.0539 6.7170 0.8021
40.0421 -45.3102 7.4245 0.7837
50.8568 -45.1851 8.3531 0.7602
50.1972 -34.7695 7.4976 0.7819
53.1895 -28.0402 7.3828 0.7848
54.3883 -13.5340 6.8817 0.7978
54.2947 -6.7262 6.7175 0.8021
50.5639 12.3008 6.3895 0.8108
44.8584 16.8473 5.8836 0.8244
33.0966 17.2263 4.5812 0.8604
25.0176 17.1350 3.7232 0.8850
5.0497 5.6539 0.9308 0.9699
3.0060 5.6665 0.7876 0.9745
0.7187 5.6805 0.7030 0.9772
-18.5938 49.9007 6.5386 0.8069
-2.9496 5.7031 0.7884 0.9745
-4.9986 5.7157 0.9323 0.9699
-10.7738 5.7512 1.4995 0.9520
-69.2166 -16.4594 8.7357 0.7507
-74.8140 -38.4482 10.3281 0.7125
-31.1589 -34.5258 5.7103 0.8291
-14.3124 -36.6516 4.8312 0.8534
-11.7049 -45.5252 5.7716 0.8274
12.4833 -53.1070 6.6984 0.8026
50.0067 -45.3654 8.2902 0.7618
51.6212 -27.9005 7.2048 0.7894
54.2912 -7.2978 6.7261 0.8019
50.3234 5.4382 6.2149 0.8155
45.7633 16.6483 5.9793 0.8218
33.9409 17.2211 4.6732 0.8578
5.1554 5.6533 0.9394 0.9696
4.0300 5.6602 0.8531 0.9724
1.4907 5.6758 0.7205 0.9766
0.0885 5.6844 0.6980 0.9773
-0.5998 5.6887 0.7024 0.9772
-1.3071 5.6930 0.7172 0.9767
-2.0521 5.6865 0.7423 0.9759
-2.8749 5.7026 0.7841 0.9746
-4.8945 5.7151 0.9239 0.9701
-6.2436 5.7233 1.0400 0.9664
-8.0097 5.7342 1.2095 0.9611
-73.3550 -36.7430 10.0736 0.7185
-67.4250 -44.6574 9.9299 0.7219
-31.8103 -34.5218 5.7639 0.8276
-24.8804 -34.5641 5.2291 0.8423
-17.1323 -31.1174 4.3615 0.8666
-14.7506 -36.6489 4.8507 0.8528
-11.6573 -43.4680 5.5258 0.8341
-12.4058 -87.1588 10.8096 0.7013
14.9828 -42.2026 5.4987 0.8349
22.2992 -44.8084 6.1454 0.8173
29.7252 -45.1334 6.6356 0.8043
48.7584 -45.1628 8.1604 0.7650
49.8686 -27.6246 6.9998 0.7947
54.3809 -14.7351 6.9179 0.7969
54.3283 -1.2686 6.6725 0.8033
50.7010 4.9480 6.2549 0.8144
47.2560 16.6391 6.1515 0.8172
25.6106 16.7724 3.7589 0.8839
4.1187 5.6597 0.8594 0.9722
2.3166 5.6707 0.7521 0.9756
0.8385 5.6798 0.7050 0.9771
0.1475 5.6841 0.6981 0.9773
-0.5403 5.6883 0.7016 0.9772
-1.2451 5.6926 0.7155 0.9768
-1.9870 5.6902 0.7400 0.9760
-2.8010 5.7022 0.7800 0.9747
-4.7922 5.7144 0.9157 0.9704
-7.8354 5.7331 1.1921 0.9616
-89.5445 24.7619 11.4073 0.6877
-90.3560 -19.5175 11.3502 0.6890
-32.4741 -34.5177 5.8191 0.8261
-25.4256 -34.5608 5.2682 0.8412
-19.8801 -35.2391 4.9679 0.8495
14.6983 -42.8030 5.5568 0.8333
49.8645 -28.3015 7.0400 0.7937
54.2842 -8.4451 6.7454 0.8014
51.0182 4.4460 6.2880 0.8135
34.8896 16.8029 4.7548 0.8555
26.3480 16.8679 3.8413 0.8815
5.3728 5.6519 0.9575 0.9691
4.2086 5.6591 0.8659 0.9720
3.2348 5.6651 0.8010 0.9741
2.3853 5.6703 0.7553 0.9755
0.8986 5.6794 0.7060 0.9771
-1.9233 5.6968 0.7383 0.9761
-2.7278 5.7017 0.7761 0.9748
-3.6330 5.7073 0.8307 0.9731
-7.6660 5.7321 1.1753 0.9622
-10.0710 5.7851 1.4261 0.9543
-33.1511 -34.5136 5.8760 0.8246
-20.2440 -35.0313 4.9679 0.8495
-15.6383 -36.6434 4.8919 0.8517
-14.4292 -88.2290 10.9771 0.6975
28.3970 -45.1252 6.5465 0.8066
27.0666 -33.3132 5.2703 0.8412
46.9380 -45.3193 8.0112 0.7688
49.8095 -37.6474 7.6662 0.7775
50.2299 -29.2009 7.1339 0.7912
51.3179 -22.0582 6.8585 0.7984
54.3214 -2.3954 6.6763 0.8032
50.1397 16.4950 6.4810 0.8084
35.0134 16.4177 4.7483 0.8557
-27.6023 -35.4434 3.9303 0.8350
-16.3795 -36.6389 3.5112 0.8512
-13.4208 -43.4215 3.9762 0.8332
16.3318 -88.3661 7.8620 0.6971
13.9808 -44.6594 4.0942 0.8287
19.6253 -43.4764 4.1733 0.8257
35.4393 -45.1684 5.0229 0.7941
45.2756 -45.2289 5.5989 0.7734
50.0003 -39.1472 5.5557 0.7749
49.8532 -30.1294 5.0963 0.7914
54.2394 -16.9184 4.9708 0.7960
54.3747 -9.9916 4.8368 0.8009
54.4157 -3.3287 4.7697 0.8034
54.4972 9.9263 4.8463 0.8006
17.9701 5.5745 1.6461 0.9272
5.6357 5.6123 0.6958 0.9686
4.4532 5.6576 0.6299 0.9715
3.4431 5.6638 0.5799 0.9737
2.5697 5.6692 0.5446 0.9753
19.4874 61.9106 5.6785 0.7706
1.0586 5.6785 0.5054 0.9771
0.3624 5.6827 0.4982 0.9774
-0.3242 5.6870 0.4984 0.9774
-3.4162 5.7060 0.5818 0.9736
-5.6667 5.7198 0.7044 0.9682
-7.2403 5.7295 0.8078 0.9636
-9.3918 5.7427 0.9631 0.9568
-12.6260 5.7626 1.2142 0.9458
-9.2854 2.9492 0.8524 0.9616
-90.3817 -15.9791 8.0300 0.6917
-27.5976 -34.6901 3.8783 0.8369
-21.2467 -34.5463 3.5483 0.8497
-16.8357 -36.6361 3.5275 0.8505
-14.9623 -78.0107 6.9495 0.7269
15.5510 -89.3090 7.9311 0.6949
49.8489 -30.8363 5.1282 0.7903
54.2356 -17.5358 4.9869 0.7954
54.3711 -10.5743 4.8460 0.8006
54.4122 -3.8947 4.7726 0.8033
54.3598 2.6754 4.7616 0.8037
54.4936 9.3434 4.8371 0.8009
28.4845 16.7547 2.8912 0.8757
25.0299 19.1201 2.7556 0.8812
3.5236 5.6633 0.5836 0.9736
-0.9606 5.6909 0.5049 0.9771
-4.3397 5.7117 0.6276 0.9716
-9.1747 5.7414 0.9469 0.9575
-12.2828 5.7605 1.1869 0.9470
-14.6939 -18.0825 2.0385 0.9107
-21.7413 -34.5434 3.5709 0.8488
-17.2964 -36.6333 3.5443 0.8499
18.2075 -42.6718 4.0589 0.8300
26.1769 -45.3050 4.5777 0.8105
32.9635 -43.8544 4.7998 0.8023
43.3773 -45.1666 5.4788 0.7777
50.2386 -41.0408 5.6755 0.7707
49.8445 -31.5522 5.1611 0.7891
54.2318 -18.1573 5.0035 0.7948
54.3563 2.1110 4.7591 0.8038
38.2285 16.1947 3.6323 0.8465
29.1646 16.7505 2.9425 0.8737
25.0274 18.7108 2.7339 0.8821
3.6052 5.6628 0.5873 0.9734
2.7123 5.6683 0.5498 0.9751
1.9029 5.6349 0.5203 0.9764
1.1807 5.6777 0.5074 0.9770
0.4807 5.6820 0.4989 0.9774
-0.9000 5.6905 0.5040 0.9771
-1.6221 5.6950 0.5181 0.9765
-2.3972 5.6997 0.5410 0.9755
-3.2570 5.7050 0.5747 0.9740
-6.9376 5.7276 0.7871 0.9645
-8.9648 5.7401 0.9313 0.9582
-67.3986 -19.0090 6.1267 0.7549
-13.7167 -39.9353 3.6942 0.8440
13.8953 -90.9079 8.0458 0.6912
13.0056 -46.5744 4.2306 0.8235
25.4429 -45.1071 4.5309 0.8123
32.6471 -44.3835 4.8204 0.8015
49.7856 -41.5381 5.6726 0.7708
54.3639 -11.7469 4.8660 0.7999
39.3422 16.1879 3.7220 0.8430
24.5536 22.9771 2.9421 0.8737
4.7438 5.6558 0.6458 0.9708
3.6879 5.6623 0.5912 0.9732
2.7846 5.6679 0.5525 0.9750
-0.1471 5.6859 0.4976 0.9774
-4.1551 5.7105 0.6179 0.9720
-5.3229 5.7177 0.6834 0.9691
-6.7919 5.7267 0.7773 0.9650
-8.7616 5.7388 0.9163 0.9588
-11.6407 5.7565 1.1362 0.9492
-16.4288 5.7859 1.5239 0.9325
-24.1119 -36.6048 3.8349 0.8386
-18.2310 -36.6276 3.5795 0.8485
-13.5603 -38.1876 3.5454 0.8498
12.5919 -46.9655 4.2541 0.8226
17.1923 -42.7237 4.0291 0.8312
24.1009 -43.7819 4.3724 0.8182
32.3128 -44.8961 4.8394 0.8008
49.7802 -42.4160 5.7218 0.7690
49.8380 -33.0139 5.2301 0.7866
54.2495 -27.1778 5.3085 0.7838
54.3494 0.9835 4.7557 0.8039
40.5125 16.1807 3.8166 0.8393
31.5040 17.2361 3.1418 0.8657
3.7717 5.6618 0.5952 0.9731
2.8576 5.6674 0.5553 0.9748
-2.2590 5.6988 0.5363 0.9757
-3.1015 5.7040 0.5680 0.9743
-4.0649 5.7100 0.6132 0.9722
-5.2127 5.7170 0.6769 0.9694
-31.4496 -0.4062 2.7516 0.8814
-31.5272 -36.4237 4.2146 0.8241
-18.7055 -36.6247 3.5980 0.8478
-11.8971 -50.5976 4.5474 0.8116
12.1686 -47.3424 4.2766 0.8218
16.6923 -42.7550 4.0155 0.8317
40.7415 -45.1504 5.3206 0.7833
51.9589 -45.2097 6.0257 0.7584
54.2202 -20.0478 5.0575 0.7929
54.3982 -6.1676 4.7897 0.8027
44.5714 5.7531 3.9318 0.8349
50.1167 12.7434 4.5242 0.8125
41.7437 16.1731 3.9166 0.8355
25.0200 17.5202 2.6723 0.8846
4.9459 5.6546 0.6572 0.9703
2.9314 5.6670 0.5582 0.9747
2.1139 5.6720 0.5296 0.9760
1.3658 5.6766 0.5108 0.9768
-1.4321 5.6938 0.5137 0.9767
-2.1791 5.6679 0.5313 0.9759
-3.9760 5.7094 0.6087 0.9725
-5.1047 5.7163 0.6705 0.9697
-6.5112 5.7250 0.7585 0.9658
-11.0511 5.7529 1.0900 0.9512
-61.7391 15.0241 5.5591 0.7748
-32.3177 -36.5646 4.2694 0.8221
-19.1850 -36.6217 3.6170 0.8470
-12.4510 -50.5942 4.5585 0.8112
13.1992 -53.6514 4.8339 0.8010
31.2450 -45.3659 4.8193 0.8016
50.8770 -45.2031 5.9542 0.7609
54.2162 -20.6874 5.0769 0.7922
54.3947 -6.7386 4.7953 0.8025
50.1133 12.1912 4.5122 0.8129
43.0419 16.1651 4.0225 0.8314
33.0966 17.2263 3.2643 0.8609
24.7718 21.7776 2.8857 0.8760
3.9427 5.6607 0.6035 0.9727
3.0060 5.6665 0.5612 0.9746
1.4281 5.6762 0.5121 0.9768
0.7187 5.6805 0.5009 0.9773
-0.6595 5.6890 0.5011 0.9773
-2.9496 5.7031 0.5617 0.9745
-3.8884 5.7089 0.6043 0.9726
-4.9986 5.7157 0.6643 0.9700
-10.7738 5.7512 1.0685 0.9521
-48.0322 -11.4219 4.3195 0.8202
-74.9661 -38.5264 7.3741 0.7129
-67.1976 -45.5152 7.1007 0.7219
-19.8931 -28.2486 3.0228 0.8705
-19.6695 -36.6188 3.6366 0.8463
-14.3124 -36.6516 3.4424 0.8539
-13.0073 -50.5908 4.5701 0.8108
-5.4890 -41.6518 3.6756 0.8448
12.6973 -54.0175 4.8547 0.8003
15.6898 -42.7833 3.9868 0.8328
30.4029 -45.1375 4.7613 0.8037
17.1038 -19.7631 2.2866 0.9004
48.3895 -43.8983 5.7160 0.7693
50.9287 -27.5263 5.0649 0.7926
54.3047 -21.3682 5.1056 0.7911
54.3493 -14.1239 4.9129 0.7981
54.3911 -7.3112 4.8014 0.8022
45.1024 4.8740 3.9689 0.8335
44.4118 16.1566 4.1347 0.8272
33.9409 17.2211 3.3298 0.8583
25.0459 16.7758 2.6373 0.8860
3.0814 5.6660 0.5643 0.9744
1.4907 5.6758 0.5134 0.9767
0.7785 5.6802 0.5016 0.9772
-0.5998 5.6887 0.5005 0.9773
-3.8021 5.7083 0.6001 0.9728
-8.0097 5.7342 0.8618 0.9612
-14.4532 5.7738 1.3617 0.9394
-33.6849 -36.5562 4.3490 0.8191
-11.6573 -43.4680 3.9373 0.8347
-12.4058 -87.1588 7.7023 0.7022
22.2895 -44.7891 4.3770 0.8180
49.8193 -36.0578 5.3805 0.7812
54.3456 -14.7256 4.9261 0.7977
54.3356 -1.2688 4.7550 0.8039
47.9403 4.6786 4.2142 0.8241
50.1065 11.0954 4.4899 0.8138
34.8183 17.2151 3.3982 0.8556
25.6106 16.7724 2.6784 0.8843
25.0422 21.1116 2.8656 0.8768
1.5536 5.6754 0.5148 0.9767
-0.5403 5.6883 0.4999 0.9773
-1.9870 5.6902 0.5273 0.9761
-4.7922 5.7144 0.6525 0.9705
-10.2507 5.7480 1.0282 0.9539
-26.9167 -36.5876 3.9739 0.8333
-12.1308 -43.4294 3.9450 0.8344
17.9851 -84.3197 7.5430 0.7074
14.6926 -42.7866 3.9579 0.8339
21.8568 -45.0849 4.3835 0.8178
29.1817 -45.3234 4.7161 0.8054
47.1804 -44.6180 5.6812 0.7705
49.9140 -36.9202 5.4317 0.7794
51.1304 -21.3529 4.8477 0.8005
54.2493 -15.3044 4.9314 0.7975
54.3841 -8.4607 4.8152 0.8017
54.4248 -1.8351 4.7643 0.8036
50.4061 10.6150 4.5067 0.8132
48.8383 16.6294 4.5137 0.8129
26.1932 16.7688 2.7210 0.8826
25.0395 20.6695 2.8406 0.8778
4.2086 5.6591 0.6170 0.9721
-0.4808 5.6879 0.4994 0.9773
-1.9233 5.6968 0.5260 0.9761
-3.6330 5.7073 0.5919 0.9732
-22.4386 21.4412 2.7153 0.8828
-10.0710 5.7851 1.0161 0.9544
-20.1904 5.8091 1.8381 0.9191
-35.1047 -36.5475 4.4336 0.8159
-27.3943 -36.4397 3.9885 0.8327
-12.6163 -43.4265 3.9564 0.8340
11.4274 -56.4343 5.0376 0.7936
14.7104 -44.3278 4.0861 0.8290
36.7052 -45.1763 5.0925 0.7916
46.8546 -45.2388 5.6982 0.7699
54.2926 -23.3369 5.1702 0.7888
54.2456 -15.9120 4.9458 0.7969
54.3805 -9.0383 4.8229 0.8014
54.4214 -2.3998 4.7659 0.8035
53.0482 10.5987 4.7328 0.8048
16.9637 5.5807 1.5624 0.9308
35.0134 16.4177 3.3833 0.8562
25.0368 20.2347 2.8164 0.8787
5.4847 5.6513 0.6890 0.9689
-15.4551 -34.5712 1.9846 0.8593
-11.6214 -37.5998 2.0625 0.8542
-14.5552 -80.3811 4.2811 0.7209
17.1965 -54.9314 3.0166 0.7941
27.2766 -45.0280 2.7590 0.8099
24.4159 -31.1188 2.0729 0.8535
50.2491 -39.3420 3.3446 0.7744
47.3547 -21.3173 2.7216 0.8122
59.0969 10.7641 3.1481 0.7862
17.9701 5.5745 0.9860 0.9274
36.1542 16.2075 2.0764 0.8533
25.0324 19.5360 1.6641 0.8806
5.6357 5.6123 0.4168 0.9686
3.4431 5.6638 0.3474 0.9738
2.5697 5.6692 0.3262 0.9754
-0.3242 5.6870 0.2985 0.9774
-5.6605 5.7135 0.4215 0.9683
-12.6260 5.7626 0.7274 0.9459
-9.2834 2.9486 0.5105 0.9617
-31.0708 5.8759 1.6572 0.8810
-90.3848 -15.9797 4.8103 0.6924
-35.0065 -34.5023 2.5759 0.8213
-27.4571 -34.5134 2.3113 0.8381
-14.9623 -78.0107 4.1629 0.7275
15.7070 -90.2052 4.7986 0.6930
19.7779 -45.0533 2.5786 0.8211
26.6406 -45.0241 2.7417 0.8110
50.2439 -40.1844 3.3718 0.7728
49.5600 -22.9305 2.8619 0.8035
59.3238 -19.1810 3.2675 0.7790
59.2241 -4.2391 3.1117 0.7883
59.1771 2.9124 3.1051 0.7887
59.1301 10.1384 3.1441 0.7864
37.1671 16.2013 2.1249 0.8501
25.0299 19.1201 1.6507 0.8815
5.3656 6.6733 0.4488 0.9663
3.5236 5.6633 0.3496 0.9736
0.4215 5.6824 0.2986 0.9774
-0.9606 5.6909 0.3025 0.9771
-2.4630 5.6906 0.3250 0.9755
-3.3314 5.6973 0.3459 0.9739
-4.3302 5.6991 0.3751 0.9717
-12.2828 5.7605 0.7110 0.9471
-17.6053 5.7932 0.9713 0.9285
-43.8163 -1.9290 2.2985 0.8389
-21.7412 -34.5433 2.1391 0.8492
-12.9392 -27.4049 1.5883 0.8857
-11.6521 -35.1041 1.9384 0.8623
-15.8009 -78.0055 4.1711 0.7270
13.0845 -45.0497 2.4585 0.8287
26.1708 -27.2503 1.9801 0.8596
50.2386 -41.0408 3.3997 0.7712
49.5562 -23.5550 2.8756 0.8027
59.1811 2.2983 3.1039 0.7888
19.3508 5.5660 1.0552 0.9225
25.0273 18.7108 1.6377 0.8824
3.6052 5.6628 0.3518 0.9735
1.9029 5.6349 0.3117 0.9765
1.1807 5.6777 0.3039 0.9770
-0.2061 5.6862 0.2982 0.9775
-2.3931 5.6901 0.3235 0.9756
-3.2523 5.6967 0.3438 0.9741
-4.2370 5.6981 0.3721 0.9720
-5.4281 5.7110 0.4129 0.9689
-6.9175 5.7110 0.4701 0.9647
-8.9648 5.7401 0.5579 0.9583
-16.9987 5.7895 0.9411 0.9306
-67.3544 -18.9966 3.6676 0.7555
-36.4793 -34.4932 2.6311 0.8178
-22.5103 -27.1224 1.8472 0.8683
-22.2679 -34.5801 2.1555 0.8481
-16.7591 -34.5633 2.0131 0.8574
-12.0152 -34.9815 1.9384 0.8623
15.2370 -54.5651 2.9690 0.7970
18.1250 -43.7279 2.4807 0.8273
25.4009 -45.0325 2.7096 0.8129
32.6958 -27.2794 2.2316 0.8432
49.8400 -32.2775 3.1119 0.7883
43.2316 -21.1006 2.5211 0.8247
59.3331 -20.5513 3.2908 0.7776
59.2323 -5.4753 3.1175 0.7880
7.1197 6.6625 0.5110 0.9617
3.6879 5.6623 0.3541 0.9733
0.5400 5.6817 0.2991 0.9774
-4.1469 5.6993 0.3694 0.9722
-5.3155 5.7097 0.4088 0.9692
-11.6407 5.7565 0.6806 0.9493
-22.7761 -34.5770 2.1699 0.8472
-17.2022 -34.5605 2.0232 0.8567
-12.3770 -34.8552 1.9384 0.8623
17.2151 -42.7805 2.4167 0.8313
24.0965 -43.7737 2.6187 0.8186
25.1004 -27.2437 1.9414 0.8621
42.9884 -21.5362 2.5198 0.8248
50.5564 -18.1001 2.8141 0.8065
59.2364 -6.0952 3.1208 0.7878
42.2158 5.8944 2.2339 0.8430
40.5125 16.1807 2.2863 0.8397
24.7238 13.5266 1.4770 0.8933
5.7142 6.6712 0.4603 0.9654
0.5995 5.6813 0.2994 0.9774
-0.0882 5.6855 0.2980 0.9775
-3.0969 5.6955 0.3398 0.9744
-5.2050 5.7085 0.4049 0.9695
-8.5648 5.7376 0.5403 0.9595
-15.8920 5.7826 0.8863 0.9345
-31.3650 -0.4051 1.6439 0.8819
-29.8912 -34.5336 2.3936 0.8328
-12.7374 -34.7250 1.9384 0.8623
-10.7307 -96.8863 5.1086 0.6768
31.3550 -27.2822 2.1782 0.8466
50.2815 -34.0625 3.1829 0.7841
42.7457 -21.9716 2.5188 0.8249
59.2405 -6.7166 3.1246 0.7876
59.1932 0.4579 3.1023 0.7889
42.2615 5.4550 2.2332 0.8431
25.0200 17.5201 1.6008 0.8848
24.5478 22.0357 1.7288 0.8762
5.8344 6.6704 0.4644 0.9651
2.9314 5.6670 0.3344 0.9748
2.1139 5.6720 0.3172 0.9760
1.3658 5.6766 0.3060 0.9769
0.6590 5.6809 0.2997 0.9774
-0.0292 5.6851 0.2979 0.9775
-0.7194 5.6894 0.3005 0.9773
-2.1791 5.6679 0.3182 0.9760
-3.0206 5.6949 0.3378 0.9745
-5.0966 5.7073 0.4010 0.9698
-23.9667 5.8323 1.2927 0.9059
-65.0199 -45.0297 4.1449 0.7285
22.9476 -43.8117 2.5920 0.8203
59.3472 -22.6453 3.3290 0.7754
59.2941 -14.7547 3.2022 0.7829
59.2447 -7.3394 3.1286 0.7873
42.5570 5.0454 2.2459 0.8423
22.7930 5.5449 1.2294 0.9103
43.0419 16.1651 2.4096 0.8318
33.0966 17.2263 1.9554 0.8612
25.0176 17.1350 1.5892 0.8856
24.7718 21.7776 1.7286 0.8762
3.0060 5.6665 0.3362 0.9746
1.4281 5.6762 0.3067 0.9768
0.7187 5.6805 0.3001 0.9773
0.0296 5.6848 0.2979 0.9775
-1.3694 5.6934 0.3069 0.9768
-19.5776 52.5408 2.9385 0.7988
-8.1891 5.7353 0.5240 0.9607
-10.7738 5.7512 0.6400 0.9523
-48.0107 -11.4168 2.5863 0.8206
-31.1589 -34.5258 2.4373 0.8300
-19.8847 -28.2367 1.8099 0.8708
-13.5047 -34.5832 1.9457 0.8618
-5.4885 -41.6481 2.2016 0.8451
16.1572 -44.0579 2.4593 0.8286
30.4028 -45.1374 2.8521 0.8041
30.0647 -27.2743 2.1274 0.8499
59.3520 -23.3542 3.3426 0.7745
59.2985 -15.4101 3.2109 0.7824
59.2013 -0.7687 3.1029 0.7889
23.8390 5.5385 1.2826 0.9066
33.9409 17.2211 1.9946 0.8586
25.0460 16.7758 1.5798 0.8863
6.0815 6.6689 0.4730 0.9645
3.0814 5.6660 0.3380 0.9745
-1.3071 5.6930 0.3061 0.9769
-2.0521 5.6865 0.3168 0.9761
-2.8704 5.6937 0.3342 0.9748
-3.7973 5.7011 0.3590 0.9729
-4.8860 5.7050 0.3937 0.9704
-6.2436 5.7233 0.4439 0.9666
-10.5072 5.7495 0.6277 0.9532
-21.8455 5.7980 1.1845 0.9134
-31.8103 -34.5218 2.4602 0.8286
-24.8804 -34.5641 2.2319 0.8432
-12.4058 -87.1588 4.6138 0.7028
12.8785 -57.4546 3.0858 0.7899
15.7893 -44.4744 2.4733 0.8278
29.7250 -45.1332 2.8322 0.8054
24.4300 -28.8265 1.9803 0.8595
43.2593 -23.9634 2.5917 0.8203
59.3029 -16.0688 3.2200 0.7818
50.2067 11.1175 2.6950 0.8139
34.8183 17.2152 2.0356 0.8559
25.0421 21.1116 1.7165 0.8770
6.2086 6.6681 0.4775 0.9642
4.1187 5.6597 0.3668 0.9724
3.1576 5.6656 0.3399 0.9744
-0.5403 5.6883 0.2995 0.9774
-1.2451 5.6926 0.3054 0.9769
-3.7121 5.7004 0.3565 0.9731
-4.7834 5.7039 0.3901 0.9706
-25.4256 -34.5608 2.2486 0.8421
-14.3353 -34.5781 1.9617 0.8608
-10.0405 -65.6584 3.4810 0.7664
12.4891 -58.5528 3.1376 0.7868
18.7032 -54.4659 3.0180 0.7940
21.8344 -45.0386 2.6231 0.8183
29.0566 -45.1291 2.8129 0.8065
49.8645 -28.3015 3.0049 0.7948
59.2571 -9.2188 3.1429 0.7865
59.2093 -1.9964 3.1048 0.7888
50.8041 10.6988 2.7209 0.8122
48.8383 16.6294 2.7038 0.8133
34.8896 16.8029 2.0295 0.8563
25.0394 20.6694 1.7016 0.8780
3.2348 5.6651 0.3419 0.9742
2.3853 5.6703 0.3224 0.9757
0.8986 5.6794 0.3014 0.9772
0.2064 5.6837 0.2981 0.9775
-0.4808 5.6879 0.2992 0.9774
-2.7234 5.6926 0.3307 0.9750
-22.4386 21.4412 1.6265 0.8831
-10.0710 5.7851 0.6087 0.9545
-20.1904 5.8091 1.1011 0.9193
-33.1511 -34.5136 2.5080 0.8256
-25.9531 -34.5226 2.2635 0.8411
-19.9683 -34.5541 2.0915 0.8523
-14.7558 -34.5755 1.9701 0.8602
-11.6723 -40.1772 2.1927 0.8457
-10.7768 -65.8960 3.4993 0.7653
17.8169 -87.9892 4.7049 0.6980
14.9823 -45.1473 2.4929 0.8265
28.3969 -45.1251 2.7942 0.8077
24.4224 -30.0588 2.0297 0.8563
49.8095 -37.6474 3.2722 0.7787
49.7656 -21.3913 2.8385 0.8050
59.3118 -17.3981 3.2394 0.7807
59.2613 -9.8495 3.1484 0.7861
59.1665 4.5391 3.1099 0.7884
54.0194 10.7928 2.8869 0.8020
16.9637 5.5807 0.9359 0.9310
5.5648 5.7338 0.4188 0.9685
-27.6023 -35.4434 0.7841 0.8355
-20.7583 -34.5493 0.7035 0.8511
-15.2752 -34.1688 0.6533 0.8609
-13.4208 -43.4216 0.7933 0.8338
-12.0305 -66.4382 1.1785 0.7633
27.1296 -86.6614 1.5851 0.6954
20.3475 -45.0762 0.8633 0.8205
25.5254 -42.1371 0.8599 0.8211
61.2891 -27.5900 1.1732 0.7642
80.7792 4.8150 1.4125 0.7234
17.9103 5.5560 0.3273 0.9277
24.6959 11.0709 0.4724 0.8974
27.9426 16.8281 0.5694 0.8777
25.1028 19.5909 0.5558 0.8804
5.0721 6.4438 0.1431 0.9677
2.5697 5.6692 0.1086 0.9754
-0.3242 5.6870 0.0994 0.9775
-1.7507 5.6957 0.1040 0.9764
-2.5297 5.6825 0.1086 0.9754
-4.4021 5.6708 0.1253 0.9717
-5.6226 5.6753 0.1394 0.9685
-7.2403 5.7295 0.1612 0.9637
-9.3918 5.7427 0.1922 0.9569
-12.5581 5.7316 0.2410 0.9463
-9.2815 2.9479 0.1700 0.9618
-31.0708 5.8759 0.5520 0.8812
-66.9483 -20.3886 1.2216 0.7558
-27.4571 -34.5134 0.7698 0.8383
-21.2467 -34.5463 0.7079 0.8502
24.4118 -31.7862 0.6996 0.8519
26.7223 -27.2537 0.6662 0.8584
34.1331 -27.2993 0.7629 0.8396
18.5933 5.5573 0.3387 0.9253
25.1002 19.1738 0.5513 0.8813
25.5657 24.9377 0.6234 0.8669
5.1233 6.3719 0.1427 0.9678
2.6407 5.6687 0.1092 0.9753
0.4215 5.6824 0.0995 0.9775
-0.9606 5.6909 0.1007 0.9772
-3.3223 5.6819 0.1149 0.9740
-12.2178 5.7300 0.2355 0.9474
-17.6053 5.7932 0.3235 0.9285
-29.3462 5.8653 0.5224 0.8872
-66.9824 -19.6430 1.2184 0.7563
-14.6898 -18.0774 0.4066 0.9110
-21.7412 -34.5433 0.7124 0.8493
-16.1303 -34.1635 0.6594 0.8597
-13.5770 -40.9031 0.7523 0.8416
24.0077 -82.6583 1.5024 0.7087
24.3402 -42.1260 0.8492 0.8231
24.4076 -32.4717 0.7091 0.8500
33.4120 -27.2948 0.7531 0.8415
43.2140 -27.3551 0.8927 0.8150
40.4323 6.5020 0.7148 0.8489
24.6878 10.4585 0.4680 0.8983
29.2757 16.8143 0.5893 0.8737
25.1278 18.7859 0.5476 0.8820
25.4620 24.3268 0.6147 0.8686
5.1742 6.3005 0.1423 0.9679
3.6052 5.6628 0.1172 0.9735
2.7123 5.6683 0.1097 0.9752
0.4807 5.6820 0.0995 0.9774
-0.9000 5.6905 0.1006 0.9772
-2.3926 5.6889 0.1077 0.9756
-3.2435 5.6813 0.1142 0.9742
-4.2230 5.6792 0.1235 0.9721
-5.3926 5.6735 0.1366 0.9692
-8.9648 5.7401 0.1858 0.9583
-16.9987 5.7895 0.3134 0.9307
-27.7971 5.8558 0.4958 0.8926
-22.5244 -27.1393 0.6156 0.8684
-16.5640 -34.1609 0.6627 0.8591
-13.5684 -39.5037 0.7291 0.8461
-12.0623 -56.5322 1.0090 0.7935
15.9323 -57.0552 1.0340 0.7890
20.2795 -48.9258 0.9245 0.8091
24.4033 -33.1761 0.7189 0.8481
25.6303 -27.2470 0.6529 0.8610
32.7091 -27.2905 0.7436 0.8433
42.2299 -27.3490 0.8782 0.8177
43.7546 -21.3559 0.8499 0.8230
79.9790 -27.7024 1.4774 0.7128
39.6664 5.9579 0.7001 0.8517
20.0921 5.5546 0.3639 0.9200
25.5595 23.9184 0.6110 0.8693
5.2249 6.2295 0.1419 0.9680
3.6879 5.6623 0.1179 0.9733
2.7846 5.6679 0.1102 0.9751
1.9814 5.6728 0.1049 0.9762
1.2422 5.6773 0.1014 0.9770
-0.8396 5.6901 0.1004 0.9773
-1.5584 5.6946 0.1031 0.9767
-3.1656 5.6808 0.1135 0.9743
-4.1353 5.6833 0.1227 0.9723
-8.7616 5.7388 0.1828 0.9590
-11.6077 5.7402 0.2260 0.9495
-16.4288 5.7859 0.3040 0.9327
-26.3233 5.8308 0.4706 0.8978
-29.4183 -0.6849 0.5139 0.8889
-30.8763 -36.4277 0.8335 0.8261
-25.2292 -38.3011 0.8006 0.8324
-11.8548 -52.8698 0.9458 0.8051
20.2705 -50.3732 0.9478 0.8047
24.0310 -33.3891 0.7181 0.8483
32.0237 -27.2863 0.7344 0.8451
41.2774 -27.3432 0.8642 0.8203
24.6877 9.8603 0.4640 0.8991
25.1229 17.9830 0.5393 0.8837
2.8576 5.6674 0.1108 0.9749
-2.2576 5.6953 0.1069 0.9758
-5.1715 5.6718 0.1340 0.9698
-6.6499 5.7258 0.1532 0.9655
-11.3070 5.7380 0.2213 0.9505
-25.1158 5.8370 0.4501 0.9020
-31.3721 -0.4052 0.5476 0.8820
-90.5716 -35.6314 1.6989 0.6775
-11.8290 -50.3082 0.9021 0.8132
-9.8068 -88.5448 1.5550 0.7002
23.2345 -90.3945 1.6291 0.6884
22.6154 -42.1100 0.8343 0.8259
24.3942 -34.6453 0.7396 0.8441
24.5805 -27.2405 0.6404 0.8635
74.8440 -27.6734 1.3928 0.7267
40.2855 5.1999 0.7090 0.8500
32.2852 17.2313 0.6388 0.8638
25.1205 17.5905 0.5353 0.8845
3.8566 5.6613 0.1196 0.9730
2.9314 5.6670 0.1114 0.9748
2.1139 5.6720 0.1057 0.9761
0.6590 5.6809 0.0998 0.9774
-0.0292 5.6851 0.0992 0.9775
-0.7194 5.6894 0.1001 0.9773
-2.1791 5.6679 0.1060 0.9760
-8.3741 5.7364 0.1772 0.9602
-11.0185 5.7359 0.2168 0.9515
-15.3855 5.7795 0.2869 0.9364
-23.9454 5.8271 0.4302 0.9061
-65.4318 -16.2773 1.1769 0.7636
-19.5715 -28.4125 0.6022 0.8711
-17.8916 -34.1528 0.6730 0.8571
-12.4510 -50.5942 0.9095 0.8118
24.4372 -27.6523 0.6441 0.8627
39.3991 -27.2901 0.8366 0.8255
72.3532 -27.6080 1.3517 0.7336
22.7930 5.5449 0.4095 0.9104
25.0176 17.1350 0.5293 0.8858
25.5505 22.4621 0.5938 0.8728
3.0060 5.6665 0.1120 0.9747
2.1809 5.6716 0.1061 0.9760
1.4281 5.6762 0.1022 0.9769
0.0296 5.6848 0.0992 0.9775
-0.6595 5.6890 0.1000 0.9773
-1.3694 5.6934 0.1022 0.9768
-18.5938 49.9006 0.9295 0.8081
-2.9373 5.6793 0.1116 0.9747
-3.8726 5.6856 0.1201 0.9729
-6.3758 5.7242 0.1496 0.9663
-8.1891 5.7353 0.1745 0.9608
-19.8763 -28.2248 0.6026 0.8710
21.4980 -42.0995 0.8251 0.8277
40.3682 -21.8184 0.8010 0.8323
82.4786 -21.4340 1.4875 0.7111
40.7239 4.4008 0.7150 0.8489
24.6878 8.9812 0.4586 0.9002
25.0460 16.7758 0.5262 0.8864
25.0449 21.5619 0.5768 0.8762
5.4250 5.9490 0.1405 0.9683
3.0814 5.6660 0.1126 0.9745
-1.3071 5.6930 0.1020 0.9769
-2.0521 5.6865 0.1055 0.9761
-3.7865 5.6850 0.1192 0.9730
-4.8554 5.6694 0.1303 0.9706
-8.0097 5.7342 0.1719 0.9614
-10.4752 5.7321 0.2084 0.9534
-21.8455 5.7980 0.3945 0.9135
-73.4924 -36.8118 1.4347 0.7198
-81.7735 -54.1608 1.7120 0.6754
-74.1721 -63.1906 1.7008 0.6772
-31.4682 -34.1506 0.8106 0.8305
-14.6926 -36.5048 0.6869 0.8543
-12.2300 -85.9238 1.5149 0.7067
20.9485 -42.0944 0.8207 0.8285
24.3797 -37.0170 0.7737 0.8375
50.1066 11.0954 0.8958 0.8144
24.6877 8.6927 0.4569 0.9006
24.7118 12.2182 0.4812 0.8956
5.4744 5.8796 0.1402 0.9684
4.1187 5.6597 0.1222 0.9724
2.3166 5.6707 0.1069 0.9758
-1.2451 5.6926 0.1017 0.9770
-1.9870 5.6902 0.1052 0.9762
-2.7892 5.6783 0.1104 0.9750
-3.7017 5.6844 0.1184 0.9732
-6.8188 2.8063 0.1287 0.9709
-27.6151 -37.5370 0.8134 0.8299
-14.1684 -34.1756 0.6458 0.8624
-11.2786 -40.3785 0.7318 0.8456
-10.7635 -70.3861 1.2429 0.7521
20.2508 -58.9726 1.0884 0.7792
21.8570 -45.0852 0.8746 0.8184
24.4263 -29.4349 0.6677 0.8581
36.8822 -27.2809 0.8008 0.8323
66.0152 -27.5691 1.2487 0.7511
80.6098 -22.7410 1.4620 0.7153
80.7579 7.0377 1.4150 0.7230
50.4060 10.6150 0.8991 0.8138
24.6876 8.4061 0.4552 0.9009
24.7073 11.8991 0.4787 0.8961
26.3480 16.8679 0.5461 0.8824
25.1098 20.7275 0.5683 0.8779
5.5236 5.8106 0.1399 0.9684
4.2086 5.6591 0.1231 0.9722
3.2348 5.6651 0.1139 0.9742
2.3853 5.6703 0.1074 0.9757
1.6169 5.6750 0.1030 0.9767
-1.1833 5.6922 0.1015 0.9770
-1.9233 5.6968 0.1050 0.9762
-2.7163 5.6778 0.1099 0.9751
-4.6540 5.6679 0.1280 0.9711
-7.6660 5.7321 0.1671 0.9624
-6.7981 2.8805 0.1289 0.9709
-36.7393 5.9108 0.6495 0.8617
-72.8339 -34.6133 1.4076 0.7243
-27.6101 -36.7267 0.8020 0.8321
-19.7298 -34.1415 0.6883 0.8541
-11.2689 -38.7885 0.7050 0.8508
30.0106 -90.4330 1.6632 0.6830
24.3517 -38.6970 0.7981 0.8328
36.1215 -27.3016 0.7903 0.8343
64.2295 -27.6081 1.2203 0.7560
80.6043 -23.6439 1.4662 0.7146
16.9005 5.5600 0.3106 0.9313
26.9057 16.8344 0.5540 0.8808
5.5648 5.7338 0.1395 0.9685
-7.7523 -42.8121 -0.7594 0.8402
16.8347 -91.0873 -1.6169 0.6903
19.7013 -43.6446 -0.8358 0.8257
27.2853 -27.2572 -0.6732 0.8570
34.8735 -27.3038 -0.7731 0.8376
45.2838 -27.3678 -0.9236 0.8092
62.8128 -28.2759 -1.2024 0.7591
59.2048 10.7837 -1.0504 0.7860
25.0325 19.5360 -0.5543 0.8807
5.0721 6.4438 -0.1431 0.9677
3.4431 5.6638 -0.1157 0.9738
19.4874 61.9106 -1.1329 0.7713
1.0586 5.6785 -0.1008 0.9772
-0.3242 5.6870 -0.0994 0.9775
-9.3918 5.7427 -0.1922 0.9569
-12.4598 5.6868 -0.2391 0.9467
-82.8987 -14.6562 -1.4694 0.7141
-67.5762 -20.5798 -1.2330 0.7538
-17.6634 -22.2028 -0.4952 0.8927
-14.1985 -23.0863 -0.4731 0.8972
-11.2400 -24.4592 -0.4699 0.8979
-8.9121 -27.8097 -0.5097 0.8897
-7.7624 -40.4716 -0.7193 0.8480
44.2314 -27.3613 -0.9078 0.8121
59.6084 -27.5797 -1.1466 0.7689
61.9379 10.6198 -1.0969 0.7777
25.0299 19.1201 -0.5498 0.8816
5.1233 6.3719 -0.1427 0.9678
2.6407 5.6687 -0.1092 0.9753
1.1196 5.6781 -0.1010 0.9771
-0.2651 5.6866 -0.0994 0.9775
-2.4609 5.6857 -0.1081 0.9755
-5.4702 5.6371 -0.1371 0.9691
-7.0870 5.7285 -0.1591 0.9642
-9.1747 5.7414 -0.1889 0.9576
-12.1570 5.7014 -0.2344 0.9477
-17.6053 5.7932 -0.3235 0.9285
-63.2539 4.8570 -1.1073 0.7758
-97.1310 -4.2761 -1.6971 0.6778
-67.0372 -19.6591 -1.2194 0.7562
-64.8495 -27.8692 -1.2320 0.7540
-69.8907 -40.6242 -1.4111 0.7237
-25.1594 -24.2883 -0.6104 0.8694
-14.4307 -22.9282 -0.4729 0.8973
-9.1175 -27.4681 -0.5052 0.8907
-7.8534 -38.7707 -0.6905 0.8536
24.2159 -41.9109 -0.8449 0.8240
24.4076 -32.4717 -0.7091 0.8500
26.1708 -27.2503 -0.6595 0.8597
33.4120 -27.2948 -0.7531 0.8415
83.4013 -27.9235 -1.5352 0.7034
42.3152 6.8048 -0.7481 0.8424
19.1655 5.5127 -0.3481 0.9233
39.8567 16.8845 -0.7555 0.8410
29.1647 16.7505 -0.5871 0.8741
25.0274 18.7108 -0.5454 0.8825
25.4620 24.3268 -0.6147 0.8686
5.1742 6.3005 -0.1423 0.9679
1.9029 5.6349 -0.1038 0.9765
-0.2061 5.6862 -0.0993 0.9775
-1.6221 5.6950 -0.1034 0.9766
-4.2111 5.6633 -0.1232 0.9722
-8.9648 5.7401 -0.1858 0.9583
-11.8569 5.7113 -0.2297 0.9487
-16.9987 5.7895 -0.3134 0.9307
-83.0143 -12.9090 -1.4664 0.7146
-67.2827 -18.9764 -1.2202 0.7560
-26.4107 -24.9728 -0.6344 0.8647
-14.7508 -22.9068 -0.4756 0.8967
-11.8162 -24.3692 -0.4727 0.8973
-7.9093 -37.0683 -0.6616 0.8593
14.6416 -95.7904 -1.6914 0.6786
15.9430 -57.0935 -1.0347 0.7889
15.0180 -36.2320 -0.6846 0.8548
23.6370 -41.9055 -0.8398 0.8249
25.6303 -27.2470 -0.6529 0.8610
32.7091 -27.2905 -0.7436 0.8433
42.2299 -27.3490 -0.8782 0.8177
57.4003 -28.0161 -1.1149 0.7745
42.3125 6.3554 -0.7468 0.8427
20.0158 5.5335 -0.3625 0.9203
41.7368 17.1732 -0.7878 0.8348
29.8695 16.7462 -0.5977 0.8720
25.0249 18.3079 -0.5412 0.8833
3.6879 5.6623 -0.1180 0.9733
2.7846 5.6679 -0.1102 0.9751
1.2422 5.6773 -0.1014 0.9770
-1.5584 5.6946 -0.1031 0.9767
-2.3249 5.6921 -0.1073 0.9757
-3.1571 5.6656 -0.1132 0.9744
-4.1238 5.6675 -0.1223 0.9723
-8.7616 5.7388 -0.1828 0.9590
-29.4134 -0.6847 -0.5134 0.8890
-63.6632 -25.8103 -1.1991 0.7597
-71.7842 -51.9475 -1.5467 0.7015
-27.6653 -25.6216 -0.6582 0.8600
-19.0493 -22.4744 -0.5142 0.8888
-12.0175 -24.1441 -0.4708 0.8977
-9.3054 -26.2053 -0.4854 0.8947
-7.8324 -34.9308 -0.6249 0.8666
15.9127 -39.5439 -0.7440 0.8432
23.0651 -41.9002 -0.8349 0.8258
41.2774 -27.3432 -0.8642 0.8203
54.9951 -27.5513 -1.0737 0.7819
