ply
format ascii 1.0
element vertex 1570
property float32 x
property float32 y
property float32 z
property float32 I
end_header
45.5911 16.6494 5.9595 0.8223
33.8338 17.2218 4.6615 0.8581
2.2379 5.6712 0.7486 0.9757
1.4805 5.6759 0.7202 0.9766
0.7685 5.6802 0.7038 0.9772
0.0783 5.6845 0.6980 0.9773
-1.3185 5.6931 0.7175 0.9767
-4.9158 5.7152 0.9256 0.9701
-8.0481 5.7344 1.2134 0.9610
-10.5655 5.7499 1.4769 0.9527
-14.5378 5.7679 1.9204 0.9389
-78.5655 -18.0420 9.8977 0.7226
-24.7255 -34.5650 5.2181 0.8426
-14.6200 -36.6497 4.8448 0.8530
-12.5436 -47.3659 6.0163 0.8208
-12.1222 -87.1605 10.8050 0.7014
15.0572 -41.9572 5.4734 0.8356
22.0206 -43.8661 6.0266 0.8205
29.9864 -45.1822 6.6583 0.8037
49.3656 -35.4520 7.4624 0.7828
68.9074 -27.6368 9.1159 0.7414
53.4211 -14.2537 6.7888 0.8003
53.4624 -7.5371 6.6293 0.8045
49.6377 5.0466 6.1262 0.8179
34.0082 16.9928 4.6679 0.8579
23.7432 25.7251 4.2984 0.8684
4.0807 5.6599 0.8567 0.9723
2.2867 5.6709 0.7508 0.9757
1.5257 5.6756 0.7216 0.9766
0.1207 5.6842 0.6981 0.9773
-0.5676 5.6885 0.7019 0.9772
-2.0207 5.6974 0.7422 0.9759
-2.8265 5.6832 0.7793 0.9747
-3.7578 5.7081 0.8391 0.9728
-4.8418 5.7147 0.9197 0.9703
-6.1776 5.7229 1.0340 0.9666
-7.9215 5.7337 1.2007 0.9614
-10.3785 5.7488 1.4567 0.9533
-91.4598 24.7683 11.6344 0.6826
-74.1784 -36.7199 10.1628 0.7164
-14.9365 -36.6477 4.8592 0.8526
-12.5349 -45.9473 5.8478 0.8254
-12.7842 -87.1565 10.8160 0.7012
14.7554 -42.1003 5.4776 0.8355
29.4910 -45.1623 6.6228 0.8046
48.2453 -45.0299 8.1031 0.7665
49.3622 -36.0098 7.5023 0.7817
53.4185 -14.6800 6.8021 0.7999
49.8625 4.6945 6.1494 0.8172
47.7508 16.6361 6.2087 0.8156
34.0955 16.7202 4.6626 0.8581
25.9405 16.8704 3.7994 0.8828
24.3102 20.3644 3.8938 0.8800
4.1448 5.6595 0.8613 0.9721
3.1796 5.6654 0.7977 0.9742
2.3358 5.6706 0.7530 0.9756
1.5710 5.6753 0.7230 0.9765
0.1631 5.6840 0.6982 0.9773
-1.2294 5.6925 0.7151 0.9768
-2.7831 5.7021 0.7791 0.9748
-3.6969 5.7077 0.8350 0.9730
-6.0854 5.7224 1.0257 0.9669
-7.7975 5.7329 1.1883 0.9617
-91.1999 -19.5180 11.4515 0.6867
-19.4656 -34.3828 4.8513 0.8528
-12.4909 -44.4787 5.6726 0.8301
11.3971 -53.7427 6.7455 0.8014
28.9920 -45.1289 6.5860 0.8056
47.8224 -45.3063 8.0886 0.7668
49.1895 -36.4483 7.5171 0.7814
53.4574 -8.3504 6.6433 0.8041
52.5958 11.0515 6.5990 0.8053
48.8998 16.6290 6.3418 0.8121
26.3641 16.8678 3.8430 0.8815
24.3083 20.0567 3.8695 0.8807
4.2096 5.6591 0.8660 0.9720
3.2352 5.6651 0.8010 0.9741
1.6165 5.6750 0.7245 0.9765
-0.4821 5.6879 0.7009 0.9773
-1.9254 5.6968 0.7384 0.9761
-2.7305 5.7018 0.7762 0.9748
-3.6366 5.7073 0.8309 0.9731
-7.6760 5.7321 1.1763 0.9621
-10.0194 5.7466 1.4182 0.9545
-13.6425 5.7688 1.8187 0.9421
-87.3263 25.0509 11.1548 0.6934
-76.1510 -36.2942 10.3578 0.7118
-17.9125 -31.0969 4.4064 0.8653
-12.5190 -43.3362 5.5386 0.8338
-14.2910 -88.2523 10.9772 0.6975
11.0871 -54.2697 6.8011 0.7999
21.3500 -45.0113 6.1169 0.8181
28.5176 -45.1259 6.5544 0.8064
36.9784 -45.3306 7.1829 0.7900
49.0865 -36.9414 7.5431 0.7807
49.0367 -28.3679 6.9559 0.7959
50.5850 -21.6126 6.7542 0.8012
53.4132 -15.5379 6.8302 0.7992
53.5348 4.2367 6.5938 0.8054
49.3115 16.3603 6.3792 0.8111
24.3064 19.7527 3.8457 0.8814
23.7362 24.5917 4.1966 0.8713
1.6623 5.6748 0.7260 0.9765
10.2715 61.9673 7.7124 0.7764
0.2478 5.6834 0.6985 0.9773
-0.4395 5.6877 0.7004 0.9773
-1.1408 5.6920 0.7128 0.9769
-2.6784 5.7014 0.7734 0.9749
-3.5769 5.7070 0.8270 0.9732
-4.6254 5.7134 0.9026 0.9708
-5.9054 5.7213 1.0096 0.9674
-7.5570 5.7314 1.1646 0.9625
-9.8469 5.7455 1.3998 0.9551
-26.3092 -34.5553 5.3326 0.8394
-11.1922 -19.0999 2.7181 0.9146
10.7674 -54.7824 6.8551 0.7985
20.8904 -44.9030 6.0809 0.8191
28.0476 -45.1230 6.5235 0.8073
48.9834 -37.4386 7.5700 0.7800
49.4821 -29.1196 7.0496 0.7934
50.3788 -21.9697 6.7483 0.8013
53.4105 -15.9696 6.8448 0.7988
53.4524 -9.1672 6.6589 0.8037
53.4926 -2.6320 6.5760 0.8059
49.4092 15.9852 6.3762 0.8112
27.2412 16.8624 3.9337 0.8789
24.3046 19.4524 3.8223 0.8821
23.7339 24.2254 4.1641 0.8723
4.3414 5.6583 0.8757 0.9717
3.3476 5.6644 0.8079 0.9738
2.4851 5.6697 0.7601 0.9754
1.7082 5.6745 0.7276 0.9764
10.7459 61.9644 7.7218 0.7761
-1.0967 5.6917 0.7117 0.9769
-1.8312 5.6962 0.7347 0.9762
-2.6266 5.7011 0.7707 0.9750
-3.5177 5.7066 0.8231 0.9733
-5.8175 5.7207 1.0018 0.9677
-9.6787 5.7445 1.3819 0.9557
-13.0875 5.7654 1.7560 0.9440
-90.7087 4.8019 11.1532 0.6935
-61.0356 -27.9821 8.2443 0.7629
-20.7155 -34.7556 4.9680 0.8495
-16.1587 -36.4958 4.9007 0.8514
-15.6040 -88.0296 10.9772 0.6975
45.7177 -45.2934 7.9018 0.7715
49.0794 -38.0944 7.6285 0.7785
50.1190 -22.3021 6.7356 0.8017
53.5430 -16.4446 6.8773 0.7979
53.4498 -9.5771 6.6673 0.8035
53.4901 -3.0314 6.5783 0.8058
53.5299 3.4348 6.5862 0.8056
53.5703 10.0121 6.6915 0.8028
49.3065 15.5472 6.3479 0.8119
-24.1761 -36.6044 3.8379 0.8385
-14.5036 -40.6997 3.7801 0.8407
12.4035 -46.4181 4.2035 0.8245
24.7857 -45.1031 4.5026 0.8133
31.8536 -44.3205 4.7751 0.8032
48.9568 -41.7615 5.6298 0.7723
49.0113 -32.5017 5.1451 0.7897
47.7910 -23.9688 4.6776 0.8068
53.3984 -19.1409 4.9628 0.7963
53.5219 0.9568 4.6833 0.8066
20.9306 5.5512 1.8945 0.9167
24.1914 17.3184 2.6029 0.8874
23.7617 21.7838 2.8203 0.8786
4.8092 5.6166 0.6469 0.9707
3.7698 5.6618 0.5951 0.9731
2.8556 5.6674 0.5552 0.9748
2.0452 5.6724 0.5275 0.9761
1.3015 5.6770 0.5096 0.9769
-0.0910 5.6855 0.4975 0.9774
-1.4989 5.6942 0.5151 0.9766
-2.2635 5.6989 0.5365 0.9757
-4.0717 5.7100 0.6136 0.9722
-6.6621 5.7259 0.7686 0.9653
-11.3686 5.7548 1.1148 0.9501
-91.3444 -36.0835 8.5925 0.6741
11.7932 -45.4901 4.1114 0.8280
24.3486 -45.1005 4.4841 0.8140
40.9313 -45.1515 5.3318 0.7829
44.1424 -22.5520 4.3368 0.8195
53.3956 -19.5900 4.9760 0.7958
43.6228 5.7525 3.8495 0.8381
21.5825 5.5523 1.9497 0.9144
41.3976 16.1752 3.8885 0.8366
32.0624 17.2327 3.1846 0.8640
24.1897 17.0461 2.5890 0.8880
5.7984 6.6707 0.7733 0.9651
2.0930 5.6721 0.5290 0.9760
0.6397 5.6810 0.5002 0.9773
-0.0487 5.6853 0.4974 0.9774
-1.4535 5.6939 0.5141 0.9767
-2.2144 5.6986 0.5349 0.9758
-3.0439 5.6887 0.5645 0.9744
-8.4446 5.7369 0.8932 0.9598
-11.1590 5.7536 1.0984 0.9508
-7.6320 2.8324 0.7122 0.9678
-62.6234 14.9719 5.6332 0.7722
-13.3066 -55.2030 4.9680 0.7961
23.2144 -43.7764 4.3351 0.8196
40.3336 -45.1638 5.2976 0.7842
49.0073 -33.5607 5.1966 0.7878
52.9262 -27.5386 5.2197 0.7870
43.7585 5.4391 3.8578 0.8377
42.3102 16.1696 3.9628 0.8337
32.6364 17.2291 3.2288 0.8623
24.1943 16.7810 2.5760 0.8885
2.9620 5.6668 0.5594 0.9747
2.1410 5.6718 0.5304 0.9760
1.3907 5.6764 0.5113 0.9768
0.6825 5.6808 0.5006 0.9773
-0.6964 5.6892 0.5015 0.9772
-1.4084 5.6936 0.5131 0.9767
-2.1655 5.6983 0.5333 0.9758
-2.9899 5.6892 0.5623 0.9745
-3.9441 5.7092 0.6071 0.9725
-6.4633 5.7247 0.7554 0.9659
-10.8930 5.7195 1.0764 0.9518
-7.6275 2.8956 0.7138 0.9678
-70.0725 -17.1946 6.3124 0.7485
-32.3779 -36.4185 4.2633 0.8223
-25.3636 -36.5971 3.8956 0.8363
-12.5949 -50.5933 4.5614 0.8111
11.4649 -47.1011 4.2411 0.8231
16.1373 -42.9437 4.0136 0.8318
30.9373 -45.1408 4.7878 0.8027
39.7605 -45.1951 5.2664 0.7853
49.0040 -34.0974 5.2230 0.7869
51.9659 -27.5327 5.1451 0.7897
53.3900 -20.4954 5.0034 0.7948
53.5262 -13.4309 4.8281 0.8012
53.5673 -6.7396 4.7235 0.8051
53.5145 -0.2393 4.6820 0.8066
44.0038 5.1371 3.8760 0.8370
49.2841 11.8991 4.4357 0.8158
43.2585 16.1637 4.0402 0.8308
33.2267 17.2255 3.2744 0.8605
24.5799 16.7787 2.6037 0.8874
24.2155 21.2238 2.8171 0.8787
5.9742 6.6696 0.7834 0.9647
3.9544 5.6607 0.6041 0.9727
3.0157 5.6664 0.5616 0.9746
1.4355 5.6762 0.5122 0.9768
0.0360 5.6847 0.4974 0.9774
-0.6534 5.6890 0.5010 0.9773
-1.3634 5.6934 0.5122 0.9768
-2.1170 5.6980 0.5318 0.9759
-19.4958 37.7779 3.7193 0.8431
-4.9907 5.7157 0.6639 0.9700
-19.6642 -36.6188 3.6364 0.8463
15.6964 -42.7345 3.9830 0.8329
22.3828 -43.7713 4.3011 0.8209
51.0325 -27.5269 5.0729 0.7923
53.3872 -20.9519 5.0176 0.7943
53.5236 -13.8548 4.8370 0.8009
44.1901 4.8255 3.8891 0.8365
24.2135 20.9052 2.7987 0.8795
4.0172 5.6603 0.6073 0.9725
1.4805 5.6759 0.5132 0.9767
0.7685 5.6802 0.5015 0.9772
-0.6105 5.6887 0.5006 0.9773
-1.3185 5.6931 0.5113 0.9768
-2.8884 5.7007 0.5591 0.9747
-3.8193 5.7084 0.6009 0.9728
-4.9158 5.7152 0.6595 0.9702
-6.2712 5.7235 0.7428 0.9665
-8.0481 5.7344 0.8646 0.9611
-10.5655 5.7499 1.0524 0.9528
-14.5541 5.7744 1.3699 0.9391
-75.6943 -38.1749 7.4169 0.7115
-45.8963 -39.3280 5.2879 0.7845
-20.0159 -36.6166 3.6509 0.8457
-13.3970 -50.5884 4.5785 0.8105
-12.1222 -87.1605 7.6990 0.7023
12.3851 -54.3962 4.8808 0.7993
22.0110 -43.8469 4.2923 0.8212
30.1037 -45.3589 4.7628 0.8037
37.6005 -44.0460 5.0667 0.7925
47.7363 -43.8942 5.6736 0.7708
53.5096 -1.0365 4.6824 0.8066
46.6488 16.6429 4.3332 0.8197
34.0082 16.9928 3.3261 0.8584
25.3765 16.7738 2.6613 0.8850
23.7432 25.7251 3.0627 0.8689
2.2867 5.6709 0.5350 0.9757
0.8116 5.6800 0.5020 0.9772
-0.5676 5.6885 0.5001 0.9773
-1.2739 5.6928 0.5104 0.9768
-2.0207 5.6974 0.5289 0.9760
-2.8265 5.6832 0.5553 0.9748
-3.7578 5.7081 0.5979 0.9729
-10.3785 5.7488 1.0380 0.9535
-14.2390 5.7725 1.3442 0.9402
-46.2053 -38.9996 5.2899 0.7844
-33.9909 -36.5543 4.3671 0.8184
-20.3704 -36.6144 3.6657 0.8452
-13.8003 -50.5859 4.5874 0.8101
14.8036 -42.2376 3.9157 0.8355
29.4711 -45.1319 4.7158 0.8054
36.8816 -43.8615 5.0137 0.7945
49.2419 -27.5159 4.9350 0.7973
52.2178 -21.3958 4.9371 0.7973
53.5598 -7.9581 4.7373 0.8046
53.5072 -1.4353 4.6830 0.8066
49.2770 10.7380 4.4123 0.8167
24.2097 20.2803 2.7630 0.8809
3.1796 5.6654 0.5684 0.9743
2.3358 5.6706 0.5366 0.9757
1.5710 5.6753 0.5152 0.9766
0.8540 5.6748 0.5021 0.9772
-0.5248 5.6882 0.4998 0.9773
-1.2294 5.6925 0.5095 0.9769
-1.9729 5.6971 0.5275 0.9761
-3.6969 5.7077 0.5950 0.9731
-4.7687 5.7143 0.6512 0.9706
-10.1965 5.7476 1.0240 0.9541
-13.9354 5.7706 1.3196 0.9412
-34.4992 -36.5512 4.3973 0.8172
-12.4909 -44.4787 4.0419 0.8307
14.6815 -42.9107 3.9678 0.8335
21.6863 -44.8544 4.3588 0.8187
46.6162 -44.1635 5.6180 0.7727
45.3452 -33.5998 4.9376 0.7972
49.0397 -27.8842 4.9355 0.7973
53.5157 -15.1363 4.8657 0.7999
53.5573 -8.3659 4.7425 0.8044
50.4610 4.3719 4.4313 0.8160
50.5149 10.6143 4.5160 0.8128
16.4207 5.5841 1.5174 0.9327
26.2093 16.7687 2.7222 0.8826
23.7385 24.9635 3.0138 0.8708
4.2096 5.6591 0.6171 0.9721
3.2352 5.6651 0.5708 0.9741
2.3853 5.6703 0.5382 0.9756
0.2054 5.6837 0.4976 0.9774
-4.6966 5.7138 0.6471 0.9707
-5.9947 5.7218 0.7250 0.9673
-7.6760 5.7321 0.8382 0.9623
-10.0194 5.7466 1.0105 0.9547
-20.2514 5.8094 1.8432 0.9189
-34.8892 -36.4172 4.4123 0.8167
-15.5756 -36.6438 3.4835 0.8523
-12.5452 -43.4269 3.9547 0.8340
21.3407 -44.9916 4.3566 0.8188
48.9869 -36.8665 5.3639 0.7818
49.0367 -28.3679 4.9563 0.7965
53.4683 -22.8445 5.0869 0.7918
53.4205 -15.5400 4.8674 0.7998
53.5548 -8.7747 4.7479 0.8042
34.3579 16.2185 3.3240 0.8585
24.2059 19.6710 2.7289 0.8823
23.7362 24.5917 2.9902 0.8718
4.2751 5.6587 0.6205 0.9719
3.2912 5.6647 0.5732 0.9740
2.4350 5.6700 0.5399 0.9755
1.6623 5.6748 0.5173 0.9765
10.2716 61.9674 5.4954 0.7771
0.2478 5.6834 0.4977 0.9774
-0.4395 5.6877 0.4991 0.9774
-1.1408 5.6920 0.5079 0.9770
-2.6784 5.7014 0.5511 0.9750
-4.6254 5.7134 0.6431 0.9709
-5.9054 5.7213 0.7194 0.9675
-10.0924 2.9767 0.9206 0.9586
-78.5594 -36.7266 7.5870 0.7060
-27.8522 -36.5819 4.0226 0.8314
-15.8980 -36.6418 3.4945 0.8518
-12.8958 -43.4247 3.9632 0.8337
-13.6325 -80.3868 7.1333 0.7208
11.1580 -56.7699 5.0617 0.7927
14.4471 -44.3728 4.0827 0.8291
36.1683 -45.0180 5.0522 0.7930
46.1180 -45.0143 5.6382 0.7720
48.9834 -37.4386 5.3939 0.7807
53.4654 -23.3157 5.1030 0.7912
53.4178 -15.9717 4.8779 0.7994
53.5523 -9.1843 4.7536 0.8040
53.6730 10.4456 4.7839 0.8029
35.0226 16.2144 3.3765 0.8564
27.0812 16.7633 2.7865 0.8800
24.2041 19.3720 2.7123 0.8830
4.3414 5.6583 0.6240 0.9718
1.7082 5.6745 0.5185 0.9765
10.7459 61.9644 5.5021 0.7768
-0.3969 5.6874 0.4988 0.9774
-1.0967 5.6917 0.5071 0.9770
-2.6266 5.7011 0.5492 0.9751
-3.5177 5.7066 0.5865 0.9734
-4.5550 5.7130 0.6392 0.9711
-5.8175 5.7207 0.7138 0.9678
-7.4403 5.7307 0.8216 0.9630
-9.6787 5.7445 0.9847 0.9558
-90.7739 4.8054 7.9528 0.6942
-11.1897 -18.7736 1.9121 0.9160
-16.1587 -36.4958 3.4919 0.8519
-13.2479 -43.4226 3.9719 0.8334
14.0960 -44.4156 4.0769 0.8294
20.6665 -45.3010 4.3563 0.8188
27.5822 -45.1204 4.6267 0.8087
35.7096 -45.1314 5.0350 0.7937
45.6549 -45.2312 5.6226 0.7726
49.0307 -29.3479 4.9993 0.7950
47.6686 -21.2117 4.5647 0.8110
53.4152 -16.4054 4.8887 0.7990
53.5901 -3.0371 4.6960 0.8061
53.5371 3.4352 4.6935 0.8062
35.7087 16.2102 3.4309 0.8543
-23.8525 -28.0678 1.9304 0.8628
-22.8138 -34.5418 2.1694 0.8472
-12.5546 -55.7141 2.9931 0.7955
12.9648 -91.7182 4.8545 0.6900
14.2818 -53.4475 2.8993 0.8012
17.9025 -44.5891 2.5181 0.8249
24.7581 -45.0529 2.6941 0.8139
31.9874 -27.2861 2.2034 0.8450
49.0113 -32.5017 3.0820 0.7901
42.2824 -21.2061 2.4790 0.8274
58.5082 -20.9726 3.2573 0.7796
58.4082 -6.0264 3.0773 0.7904
19.8398 2.7668 1.0498 0.9229
20.9497 5.5562 1.1359 0.9168
31.5038 17.2361 1.8820 0.8660
24.1914 17.3184 1.5592 0.8877
2.8556 5.6674 0.3326 0.9749
2.0452 5.6724 0.3160 0.9761
1.3015 5.6770 0.3052 0.9769
-0.0910 5.6855 0.2980 0.9775
-4.0669 5.7033 0.3671 0.9723
-5.2139 5.7086 0.4052 0.9695
-7.6795 2.7851 0.4281 0.9678
-25.2584 5.8402 1.3587 0.9014
-23.2070 -34.5744 2.1823 0.8464
-17.5744 -34.5582 2.0319 0.8562
-12.6757 -34.7496 1.9385 0.8623
-12.5787 -53.9439 2.9029 0.8010
17.3060 -44.0497 2.4803 0.8273
24.1286 -44.6928 2.6618 0.8159
24.6950 -27.2412 1.9270 0.8631
26.9079 -18.1339 1.7005 0.8781
42.1108 -21.5140 2.4783 0.8274
58.5115 -21.4669 3.2663 0.7791
58.4596 -13.7465 3.1473 0.7862
58.3645 0.6085 3.0589 0.7915
24.1897 17.0461 1.5509 0.8882
4.3065 6.3646 0.4027 0.9697
2.0930 5.6721 0.3169 0.9761
-0.0487 5.6853 0.2980 0.9775
-0.7395 5.6895 0.3007 0.9773
-2.2144 5.6986 0.3204 0.9758
-3.0439 5.6886 0.3381 0.9745
-4.0027 5.7027 0.3651 0.9725
-5.1356 5.7077 0.4024 0.9697
-6.5542 5.7186 0.4559 0.9658
-8.4446 5.7369 0.5350 0.9599
-7.6320 2.8324 0.4266 0.9679
-24.4061 5.8350 1.3151 0.9044
-32.1611 -0.2155 1.6855 0.8791
-38.4659 -34.4810 2.7073 0.8131
-12.9342 -34.6543 1.9385 0.8623
-12.5676 -52.1372 2.8107 0.8067
11.5264 -91.3413 4.8250 0.6916
16.4295 -42.7515 2.4003 0.8324
23.2292 -43.8043 2.5985 0.8199
31.0321 -27.2802 2.1654 0.8475
58.4140 -6.9078 3.0827 0.7901
58.3673 0.1738 3.0589 0.7915
42.3102 16.1696 2.3738 0.8341
24.1943 16.7810 1.5431 0.8888
2.9620 5.6668 0.3351 0.9747
-0.0063 5.6850 0.2979 0.9775
-2.1655 5.6983 0.3195 0.9759
-6.4599 5.7217 0.4522 0.9660
-8.3095 5.7360 0.5292 0.9604
-23.6066 5.8301 1.2743 0.9072
-32.2737 0.0241 1.6914 0.8787
-78.8691 -19.3531 4.2560 0.7223
-65.5665 -45.1157 4.1711 0.7270
-23.9586 -34.5698 2.2043 0.8450
-12.5267 -50.3194 2.7176 0.8124
11.0658 -93.2798 4.9229 0.6864
16.9039 -44.9837 2.5184 0.8249
23.9616 -27.2367 1.9012 0.8648
30.5667 -27.2773 2.1470 0.8487
49.4520 -34.4092 3.1573 0.7856
41.7566 -22.1236 2.4765 0.8276
58.5183 -22.4640 3.2850 0.7780
41.7633 4.8756 2.2036 0.8450
43.2585 16.1637 2.4202 0.8311
24.5799 16.7787 1.5597 0.8876
24.2155 21.2237 1.6875 0.8790
5.9742 6.6696 0.4693 0.9648
1.4355 5.6762 0.3068 0.9768
0.7254 5.6805 0.3001 0.9773
-0.6534 5.6890 0.3001 0.9773
-2.1170 5.6980 0.3186 0.9759
-19.4958 37.7780 2.2279 0.8434
-3.8765 5.7017 0.3613 0.9728
-4.9823 5.7061 0.3970 0.9701
-6.3636 5.7215 0.4485 0.9663
-8.1774 5.7352 0.5235 0.9608
-14.8386 5.7598 0.8342 0.9382
-22.6922 5.7839 1.2273 0.9105
-48.7641 -11.5815 2.6267 0.8181
-31.1271 -34.4909 2.4349 0.8302
-14.7125 -27.3977 1.6298 0.8829
-13.4980 -34.5832 1.9456 0.8618
-11.4689 -87.2196 4.6103 0.7030
18.8762 -80.1427 4.3150 0.7191
16.3458 -44.5024 2.4846 0.8270
22.4107 -43.8260 2.5797 0.8211
23.5881 -27.2184 1.8876 0.8657
41.5500 -22.4121 2.4741 0.8277
58.4689 -15.1349 3.1652 0.7851
58.4199 -7.7926 3.0888 0.7897
58.3730 -0.6958 3.0594 0.7915
41.9329 4.5790 2.2107 0.8445
23.5934 5.5107 1.2698 0.9075
45.5912 16.6494 2.5437 0.8233
24.2135 20.9052 1.6765 0.8797
4.4101 6.2139 0.3993 0.9699
3.0699 5.6661 0.3377 0.9745
2.2379 5.6712 0.3195 0.9759
1.4805 5.6759 0.3074 0.9768
0.7685 5.6802 0.3004 0.9773
0.0783 5.6845 0.2979 0.9775
-1.3185 5.6931 0.3063 0.9769
-2.0687 5.6977 0.3177 0.9760
-4.9105 5.7090 0.3946 0.9703
-6.2678 5.7204 0.4447 0.9666
-8.0481 5.7344 0.5179 0.9612
-13.7949 -34.5814 1.9512 0.8615
-12.5436 -47.3659 2.5679 0.8218
-12.1222 -87.1605 4.6119 0.7029
12.4840 -54.8304 2.9471 0.7983
15.7326 -43.8392 2.4410 0.8298
41.6398 -22.8625 2.4895 0.8267
58.4720 -15.6013 3.1716 0.7847
58.4229 -8.2364 3.0921 0.7895
58.3759 -1.1308 3.0599 0.7915
34.0082 16.9928 1.9924 0.8587
25.3764 16.7738 1.5942 0.8853
2.2867 5.6709 0.3205 0.9758
1.5257 5.6756 0.3080 0.9767
0.8116 5.6800 0.3007 0.9773
-4.8375 5.7097 0.3922 0.9705
-6.1737 5.7193 0.4410 0.9669
-10.3785 5.7488 0.6218 0.9536
-14.2390 5.7725 0.8052 0.9403
-19.2267 -34.5587 2.0726 0.8535
-12.5349 -45.9474 2.4960 0.8263
15.4759 -44.1558 2.4521 0.8291
21.8134 -44.2727 2.5866 0.8206
49.4418 -36.0679 3.2073 0.7826
42.0404 -23.4917 2.5239 0.8246
58.4258 -8.6811 3.0956 0.7893
47.5947 4.4809 2.5054 0.8257
15.9675 5.5630 0.8862 0.9345
34.0955 16.7202 1.9901 0.8589
25.7882 16.7713 1.6122 0.8841
24.2097 20.2802 1.6551 0.8812
6.2468 6.6679 0.4788 0.9641
4.4783 6.1148 0.3972 0.9701
1.5710 5.6753 0.3086 0.9767
0.8540 5.6748 0.3008 0.9773
0.1631 5.6840 0.2980 0.9775
-1.2294 5.6925 0.3052 0.9769
-2.7831 5.7021 0.3325 0.9749
-3.6920 5.7002 0.3559 0.9732
-6.0810 5.7183 0.4375 0.9671
-7.7975 5.7329 0.5072 0.9620
-10.1965 5.7476 0.6134 0.9542
-13.9354 5.7706 0.7905 0.9414
-20.8488 5.8131 1.1343 0.9170
-32.5793 -34.5171 2.4875 0.8269
-25.4831 -34.5254 2.2489 0.8421
-19.5640 -34.5566 2.0811 0.8529
-14.3941 -34.5777 1.9629 0.8607
-12.4909 -44.4787 2.4212 0.8311
-13.4295 -87.0360 4.6153 0.7028
12.6276 -59.5451 3.1900 0.7836
15.0860 -44.0930 2.4423 0.8297
21.5810 -44.6364 2.5984 0.8199
16.3422 -19.7315 1.3427 0.9025
28.7806 -27.2664 2.0777 0.8532
58.5320 -24.4938 3.3253 0.7756
58.4783 -16.5400 3.1849 0.7839
58.3816 -2.0014 3.0614 0.7914
52.5957 11.0515 2.8166 0.8063
26.2092 16.7687 1.6306 0.8828
24.2078 19.9737 1.6448 0.8819
4.5121 6.0657 0.3962 0.9702
3.2352 5.6651 0.3419 0.9742
2.3853 5.6703 0.3224 0.9757
1.6165 5.6750 0.3092 0.9766
0.8916 5.6391 0.2992 0.9774
-0.4821 5.6879 0.2992 0.9774
-2.7306 5.7018 0.3313 0.9750
-13.6425 5.7688 0.7763 0.9424
-36.9449 5.9120 1.9608 0.8608
-33.0660 -34.5141 2.5050 0.8258
-25.9068 -34.5578 2.2635 0.8411
-18.0228 -31.2884 1.8923 0.8653
-12.5190 -43.3362 2.3640 0.8347
-10.6333 -65.6647 3.4862 0.7661
15.1172 -45.2824 2.5019 0.8260
28.5175 -45.1258 2.7976 0.8075
28.3519 -27.2637 2.0614 0.8542
49.0865 -36.9414 3.2197 0.7819
49.0367 -28.3679 2.9690 0.7970
58.5355 -25.0095 3.3360 0.7749
58.4815 -17.0123 3.1919 0.7835
58.4317 -9.5737 3.1031 0.7889
58.3845 -2.4370 3.0625 0.7913
58.3382 4.6168 3.0669 0.7910
53.2773 10.7810 2.8487 0.8043
16.8235 5.5816 0.9289 0.9315
34.3579 16.2185 1.9911 0.8588
26.6401 16.7660 1.6496 0.8815
24.2059 19.6710 1.6346 0.8826
4.5458 6.0169 0.3952 0.9702
3.2912 5.6647 0.3433 0.9741
2.4350 5.6700 0.3234 0.9756
10.3543 62.4668 3.3184 0.7760
-0.4395 5.6877 0.2990 0.9774
-3.5720 5.6992 0.3525 0.9734
-4.6209 5.7078 0.3849 0.9710
-5.9002 5.7162 0.4305 0.9676
-9.8469 5.7455 0.5975 0.9554
-13.3601 5.7671 0.7626 0.9434
-35.1954 5.9013 1.8703 0.8668
-33.5596 -34.5111 2.5228 0.8246
-11.1896 -19.0954 1.1599 0.9152
-15.0008 -34.5740 1.9751 0.8599
17.4959 -53.7368 2.9617 0.7974
28.0475 -45.1229 2.7844 0.8083
58.4347 -10.0217 3.1071 0.7886
58.3874 -2.8729 3.0637 0.7912
17.2444 5.5790 0.9499 0.9300
35.0226 16.2145 2.0226 0.8568
4.5793 5.9683 0.3942 0.9703
3.3476 5.6644 0.3448 0.9740
2.4851 5.6697 0.3244 0.9755
1.7082 5.6745 0.3106 0.9765
0.2902 5.6832 0.2982 0.9775
-1.0967 5.6917 0.3038 0.9771
-2.6266 5.7011 0.3290 0.9752
-4.5504 5.7073 0.3825 0.9712
-5.8119 5.7152 0.4272 0.9679
-13.0875 5.7654 0.7495 0.9443
-26.7087 -34.5432 2.2884 0.8395
11.1980 -59.3038 3.1629 0.7853
27.5267 -45.0296 2.7659 0.8095
27.5139 -27.2586 2.0298 0.8563
49.0794 -38.0944 3.2559 0.7797
49.4790 -29.6162 3.0221 0.7938
48.0518 -21.3823 2.7563 0.8100
58.4377 -10.4709 3.1114 0.7884
58.3902 -3.3091 3.0650 0.7912
58.1279 10.8639 3.0991 0.7891
17.6847 5.5763 0.9718 0.9284
-29.3202 -34.5019 0.7903 0.8343
-14.4014 -40.4130 0.7489 0.8423
-12.9181 -57.3273 1.0257 0.7905
15.2639 -57.1229 1.0321 0.7894
23.5782 -32.8063 0.7052 0.8508
25.0693 -27.2436 0.6462 0.8623
31.9873 -27.2861 0.7339 0.8452
43.4996 -21.8166 0.8494 0.8231
20.9497 5.5562 0.3783 0.9169
23.8443 9.5219 0.4482 0.9024
24.1914 17.3184 0.5193 0.8878
4.8092 5.6166 0.1291 0.9709
2.0452 5.6724 0.1053 0.9762
0.5969 5.6813 0.0997 0.9774
-0.0910 5.6855 0.0993 0.9775
-1.4989 5.6942 0.1028 0.9767
-2.2635 5.6989 0.1070 0.9758
-3.1044 5.6994 0.1133 0.9744
-25.2449 5.8371 0.4523 0.9015
-32.2214 -0.4560 0.5625 0.8790
-66.3073 -17.3218 1.1962 0.7602
-91.3555 -36.0879 1.7145 0.6751
-14.3956 -39.4646 0.7333 0.8453
23.4348 -90.3957 1.6300 0.6883
22.7362 -42.1137 0.8354 0.8257
24.6950 -27.2412 0.6418 0.8632
31.5055 -27.2831 0.7275 0.8464
26.9046 -18.1317 0.5663 0.8783
75.2995 -27.6262 1.4000 0.7255
39.4394 5.2009 0.6944 0.8529
21.5825 5.5523 0.3890 0.9147
23.8801 12.8349 0.4732 0.8972
24.2195 21.8737 0.5696 0.8776
23.7530 27.3261 0.6320 0.8652
2.9086 5.6671 0.1112 0.9748
2.0930 5.6721 0.1055 0.9761
1.3460 5.6767 0.1018 0.9769
0.6397 5.6810 0.0998 0.9774
-0.0487 5.6853 0.0992 0.9775
-1.4535 5.6939 0.1026 0.9768
-3.0439 5.6887 0.1126 0.9745
-3.9913 5.6864 0.1213 0.9726
-11.1348 5.7410 0.2187 0.9511
-7.6319 2.8324 0.1421 0.9680
-26.1206 -38.2956 0.8091 0.8307
-17.6903 -34.1540 0.6714 0.8574
23.2141 -33.3366 0.7091 0.8500
24.3258 -27.2390 0.6375 0.8641
39.9159 -27.3348 0.8444 0.8240
22.2521 5.5482 0.4003 0.9123
44.0377 16.8298 0.8229 0.8281
24.2175 21.5466 0.5658 0.8784
23.7505 26.9157 0.6266 0.8662
2.9620 5.6668 0.1116 0.9747
2.1410 5.6718 0.1058 0.9760
-0.0063 5.6850 0.0992 0.9775
-1.4084 5.6936 0.1024 0.9768
-2.1655 5.6983 0.1064 0.9759
-2.9899 5.6893 0.1122 0.9746
-6.4146 5.6816 0.1496 0.9663
-10.8930 5.7195 0.2148 0.9520
-7.6274 2.8955 0.1424 0.9679
-23.5945 5.8271 0.4242 0.9073
-66.2515 -16.2570 1.1907 0.7612
-32.3779 -36.4185 0.8506 0.8229
-18.0131 -34.1520 0.6740 0.8569
22.0011 -90.3869 1.6238 0.6892
19.4725 -51.8194 0.9663 0.8013
23.9616 -27.2367 0.6332 0.8649
39.8964 -21.1380 0.7881 0.8347
71.9111 -27.6053 1.3445 0.7348
85.5132 -21.4571 1.5389 0.7028
22.9618 5.5438 0.4123 0.9098
23.8735 12.3766 0.4694 0.8980
24.5800 16.7787 0.5195 0.8878
24.2155 21.2238 0.5621 0.8791
23.9901 26.7825 0.6276 0.8660
0.7254 5.6805 0.1000 0.9774
0.0360 5.6847 0.0992 0.9775
-0.6534 5.6890 0.1000 0.9774
-2.1170 5.6980 0.1061 0.9760
-19.4958 37.7779 0.7420 0.8436
-6.3183 5.6808 0.1483 0.9666
-8.1774 5.7352 0.1743 0.9608
-10.7058 5.7233 0.2119 0.9526
-14.8386 5.7598 0.2778 0.9383
-22.6922 5.7839 0.4088 0.9106
-30.8041 -34.1330 0.8025 0.8320
-18.3385 -34.1500 0.6766 0.8564
-12.9952 -50.5908 0.9117 0.8114
19.4275 -52.8925 0.9835 0.7982
21.5294 -42.1025 0.8254 0.8276
23.5651 -34.9392 0.7356 0.8448
30.1090 -27.2745 0.7091 0.8500
39.7333 -21.4321 0.7880 0.8348
70.3157 -27.5955 1.3185 0.7392
39.9022 4.3573 0.7006 0.8516
45.5912 16.6494 0.8472 0.8235
23.8710 12.1506 0.4675 0.8984
24.2839 20.9659 0.5600 0.8795
24.2575 26.6784 0.6294 0.8657
4.4112 6.2154 0.1330 0.9700
2.2379 5.6712 0.1064 0.9759
1.4805 5.6759 0.1024 0.9768
0.7685 5.6802 0.1001 0.9773
0.0783 5.6845 0.0992 0.9775
-0.6105 5.6887 0.0999 0.9774
-2.0687 5.6977 0.1058 0.9760
-3.8036 5.6851 0.1194 0.9730
-4.8959 5.6921 0.1311 0.9704
-8.0481 5.7344 0.1725 0.9612
-10.5655 5.7499 0.2100 0.9530
-22.1476 5.8211 0.3997 0.9125
-48.9690 -11.2455 0.8770 0.8179
-74.1305 -37.3863 1.4492 0.7174
-31.2661 -34.1301 0.8079 0.8310
-20.3743 -28.4822 0.6113 0.8693
-14.5625 -36.5056 0.6860 0.8545
20.7685 -91.2161 1.6329 0.6878
19.4200 -54.1142 1.0035 0.7945
23.6098 -27.6570 0.6347 0.8646
29.6588 -27.2718 0.7033 0.8511
39.5358 -21.7073 0.7873 0.8349
68.9074 -27.6369 1.2960 0.7430
46.6488 16.6429 0.8645 0.8203
25.5264 16.8729 0.5341 0.8848
24.5426 26.5913 0.6316 0.8652
4.4460 6.1666 0.1327 0.9700
3.1246 5.6658 0.1129 0.9744
2.2867 5.6709 0.1067 0.9758
0.8116 5.6800 0.1002 0.9773
-2.0207 5.6974 0.1055 0.9761
-2.8265 5.6832 0.1108 0.9749
-4.8226 5.6921 0.1302 0.9706
-10.3784 5.7488 0.2071 0.9536
-14.1713 5.7450 0.2669 0.9407
-74.3329 -36.7964 1.4477 0.7176
-82.5983 -54.1565 1.7240 0.6736
-18.9971 -34.1460 0.6820 0.8553
19.4122 -55.3870 1.0244 0.7907
20.7405 -42.0951 0.8191 0.8288
23.5581 -36.0767 0.7521 0.8417
23.6072 -28.0749 0.6403 0.8635
79.7875 -21.9265 1.4443 0.7182
23.8718 11.7066 0.4641 0.8991
25.9406 16.8704 0.5401 0.8836
24.2800 20.3392 0.5529 0.8810
3.1796 5.6654 0.1134 0.9743
1.5710 5.6753 0.1028 0.9767
-0.5248 5.6882 0.0997 0.9774
-1.2294 5.6925 0.1017 0.9770
-1.9729 5.6971 0.1052 0.9762
-4.7498 5.6916 0.1294 0.9708
-6.0388 5.6786 0.1447 0.9674
-7.7975 5.7329 0.1689 0.9620
-10.1965 5.7476 0.2043 0.9543
-13.8675 5.7425 0.2620 0.9417
-20.8488 5.8131 0.3778 0.9171
-72.9176 -35.4221 1.4150 0.7230
-12.4910 -44.4788 0.8064 0.8312
28.7806 -27.2664 0.6920 0.8533
36.8409 -27.2983 0.8004 0.8324
39.1999 -22.2893 0.7871 0.8349
65.8789 -27.5682 1.2465 0.7515
79.9648 6.9280 1.4010 0.7253
50.5150 10.6143 0.9010 0.8134
23.8721 11.4870 0.4624 0.8994
26.3641 16.8678 0.5463 0.8823
24.2781 20.0318 0.5494 0.8817
4.5151 6.0698 0.1320 0.9702
3.2352 5.6651 0.1139 0.9742
1.6165 5.6750 0.1030 0.9767
0.8916 5.6391 0.0997 0.9774
-0.4821 5.6879 0.0996 0.9774
-1.1850 5.6923 0.1015 0.9770
-2.7305 5.7018 0.1103 0.9750
-3.6216 5.6839 0.1176 0.9734
-4.6779 5.6911 0.1286 0.9710
-5.9487 5.6779 0.1435 0.9676
-7.6760 5.7321 0.1672 0.9624
-10.0194 5.7466 0.2016 0.9548
-36.9449 5.9120 0.6531 0.8610
-73.3399 -34.9545 1.4181 0.7225
-28.3874 -37.8667 0.8261 0.8275
-15.5143 -36.4997 0.6923 0.8533
-12.1155 -41.9394 0.7620 0.8398
19.9482 -42.0558 0.8124 0.8301
23.5508 -37.2665 0.7695 0.8383
28.3519 -27.2637 0.6866 0.8544
38.6948 -22.3851 0.7803 0.8362
79.7796 -23.2079 1.4503 0.7172
16.7599 5.5605 0.3082 0.9318
24.7427 25.6345 0.6219 0.8672
4.5494 6.0217 0.1317 0.9703
3.2912 5.6647 0.1144 0.9741
2.4350 5.6700 0.1077 0.9756
1.6623 5.6748 0.1032 0.9766
-0.4395 5.6877 0.0996 0.9774
-1.1408 5.6920 0.1013 0.9770
-1.8782 5.6965 0.1047 0.9763
-3.5621 5.6835 0.1171 0.9735
-5.8599 5.6772 0.1424 0.9679
-7.5570 5.7314 0.1656 0.9628
-9.8469 5.7455 0.1990 0.9554
-10.0888 2.9757 0.1836 0.9588
-33.2754 -34.2188 0.8331 0.8262
-11.1894 -19.0950 0.3863 0.9153
-14.8262 -34.1715 0.6502 0.8616
-11.6099 -68.4603 1.2120 0.7575
19.3867 -59.5444 1.0930 0.7784
23.5470 -37.8824 0.7786 0.8366
27.9295 -27.2611 0.6812 0.8554
35.7246 -27.3048 0.7849 0.8354
63.2952 -27.6024 1.2053 0.7586
79.6885 -23.8266 1.4518 0.7170
79.9574 5.7288 1.3992 0.7256
17.1820 5.5588 0.3152 0.9303
23.8726 11.0523 0.4592 0.9001
27.1932 16.8327 0.5582 0.8799
24.3046 19.4524 0.5434 0.8829
24.7403 25.2527 0.6171 0.8681
4.5835 5.9738 0.1314 0.9703
3.3476 5.6644 0.1148 0.9740
2.4851 5.6697 0.1081 0.9755
0.2902 5.6832 0.0993 0.9775
-0.3968 5.6874 0.0995 0.9774
-1.0967 5.6917 0.1012 0.9771
-1.8312 5.6962 0.1044 0.9763
-2.6266 5.7011 0.1096 0.9752
-3.5032 5.6831 0.1165 0.9736
-5.7725 5.6765 0.1413 0.9681
-7.4403 5.7307 0.1639 0.9631
-9.6787 5.7445 0.1965 0.9560
-33.6005 5.8915 0.5954 0.8724
-90.9411 4.8142 1.5896 0.6947
-60.7344 -27.8441 1.1662 0.7654
-33.7679 -34.2114 0.8391 0.8251
-20.3472 -34.1377 0.6937 0.8530
-15.1288 -34.1697 0.6523 0.8611
-12.1016 -39.6653 0.7239 0.8471
28.6979 -90.4251 1.6559 0.6842
27.5139 -27.2586 0.6760 0.8565
48.9799 -38.0171 1.0823 0.7803
37.8156 -22.6350 0.7693 0.8384
62.0123 -27.5945 1.1848 0.7622
79.9538 5.1303 1.3985 0.7258
17.6238 5.5571 0.3226 0.9287
23.8729 10.8373 0.4576 0.9004
-19.0957 -22.4705 -0.5147 0.8887
-15.1960 -23.0080 -0.4813 0.8956
-18.2126 -36.4832 -0.7118 0.8495
-9.8208 -27.5590 -0.5107 0.8895
-8.9256 -88.1148 -1.5459 0.7017
23.0268 -41.9024 -0.8346 0.8259
25.0693 -27.2436 -0.6462 0.8623
31.9873 -27.2861 -0.7339 0.8452
41.2320 -27.3429 -0.8636 0.8204
54.9332 -27.5509 -1.0727 0.7820
77.8106 -27.8916 -1.4428 0.7184
66.1295 1.1822 -1.1545 0.7675
19.8293 2.7653 -0.3495 0.9230
20.9497 5.5562 -0.3783 0.9169
31.5038 17.2361 -0.6268 0.8662
24.1914 17.3184 -0.5193 0.8878
4.8092 5.6166 -0.1291 0.9709
4.2701 6.4132 -0.1345 0.9696
2.8556 5.6674 -0.1108 0.9749
-0.0910 5.6855 -0.0993 0.9775
-1.4989 5.6942 -0.1028 0.9767
-3.1044 5.6994 -0.1133 0.9744
-4.0435 5.6705 -0.1216 0.9725
-5.1708 5.6614 -0.1338 0.9698
-8.5827 5.7377 -0.1802 0.9595
-7.6793 2.7850 -0.1426 0.9678
-24.9056 5.7587 -0.4462 0.9028
-32.2160 -0.4559 -0.5624 0.8791
-83.8505 -11.3753 -1.4770 0.7128
-27.6055 -25.1191 -0.6515 0.8613
-19.3212 -22.3957 -0.5163 0.8884
-15.2654 -22.7428 -0.4781 0.8962
-12.3792 -24.3424 -0.4767 0.8965
-8.7055 -37.3336 -0.6691 0.8578
-8.6446 -79.4357 -1.3947 0.7264
14.2328 -36.2272 -0.6794 0.8558
31.5055 -27.2831 -0.7275 0.8464
53.9149 -27.5447 -1.0568 0.7849
76.5470 -28.0838 -1.4232 0.7217
66.0477 0.6886 -1.1529 0.7678
32.0624 17.2327 -0.6354 0.8645
24.1897 17.0461 -0.5165 0.8884
24.2195 21.8737 -0.5697 0.8776
2.9086 5.6671 -0.1112 0.9748
2.0930 5.6721 -0.1055 0.9761
0.6397 5.6810 -0.0998 0.9774
-0.0487 5.6853 -0.0992 0.9775
-5.0971 5.6650 -0.1330 0.9700
-6.4658 5.6416 -0.1498 0.9663
-32.1756 -0.2156 -0.5616 0.8792
-83.8845 -10.7441 -1.4762 0.7130
-69.1410 -36.8302 -1.3674 0.7310
-72.6214 -50.7713 -1.5467 0.7015
-28.6347 -25.6682 -0.6712 0.8574
-19.5229 -22.2916 -0.5172 0.8882
-26.1206 -38.2956 -0.8091 0.8307
-10.0947 -27.0466 -0.5039 0.8909
-8.6228 -74.0995 -1.3021 0.7420
22.6939 -90.3012 -1.6252 0.6890
22.2166 -41.8949 -0.8277 0.8272
31.0321 -27.2802 -0.7212 0.8476
39.9158 -27.3348 -0.8444 0.8240
41.0113 -21.3390 -0.8070 0.8311
73.7066 -27.6664 -1.3742 0.7298
24.1944 16.7811 -0.5140 0.8889
24.2175 21.5466 -0.5658 0.8784
4.3410 6.3138 -0.1337 0.9698
2.9620 5.6668 -0.1116 0.9747
2.1410 5.6718 -0.1058 0.9760
1.3907 5.6764 -0.1020 0.9769
-0.0063 5.6850 -0.0992 0.9775
-0.6964 5.6892 -0.1000 0.9773
-1.4084 5.6936 -0.1024 0.9768
-10.8930 5.7195 -0.2148 0.9520
-7.6273 2.8955 -0.1424 0.9679
-91.0942 11.1166 -1.6018 0.6927
-72.1358 -49.6360 -1.5284 0.7045
-12.6836 -24.0475 -0.4746 0.8969
-10.1799 -26.6669 -0.4982 0.8921
14.8613 -39.5481 -0.7374 0.8445
21.8165 -41.8911 -0.8244 0.8278
23.5684 -34.3889 -0.7277 0.8464
23.9616 -27.2367 -0.6332 0.8649
30.5667 -27.2773 -0.7151 0.8488
40.2813 -21.3419 -0.7957 0.8333
71.9036 -27.6024 -1.3444 0.7348
86.5911 -21.7276 -1.5583 0.6997
39.0232 4.5557 -0.6858 0.8546
22.9618 5.5438 -0.4123 0.9098
33.2267 17.2255 -0.6533 0.8609
24.5800 16.7787 -0.5195 0.8878
3.0157 5.6664 -0.1120 0.9746
1.4355 5.6762 -0.1022 0.9768
0.7254 5.6805 -0.1000 0.9774
0.0360 5.6847 -0.0992 0.9775
-2.1170 5.6980 -0.1061 0.9760
-19.4958 37.7779 -0.7420 0.8436
-3.8546 5.6695 -0.1197 0.9729
-8.1774 5.7352 -0.1743 0.9608
-10.7058 5.7233 -0.2119 0.9526
-22.6922 5.7839 -0.4088 0.9106
-65.5533 0.5373 -1.1443 0.7693
-67.7962 -7.6589 -1.1909 0.7611
-48.8310 -11.5974 -0.8761 0.8181
-83.7587 -30.9418 -1.5586 0.6996
-9.4945 -72.2047 -1.2712 0.7473
14.5386 -39.5824 -0.7360 0.8448
71.8683 -28.2048 -1.3476 0.7343
86.5869 -22.4134 -1.5612 0.6992
40.5351 4.4264 -0.7118 0.8495
4.4112 6.2154 -0.1330 0.9700
1.4805 5.6759 -0.1024 0.9768
-2.0687 5.6977 -0.1058 0.9760
-3.7929 5.6691 -0.1191 0.9731
-4.8812 5.6750 -0.1307 0.9705
-6.1800 5.6403 -0.1460 0.9671
-8.0481 5.7344 -0.1725 0.9612
-22.1476 5.8211 -0.3997 0.9125
-65.3446 1.0224 -1.1407 0.7699
-71.0108 -7.4867 -1.2464 0.7515
-48.9470 -11.2404 -0.8766 0.8180
-83.7225 -30.2217 -1.5537 0.7004
-68.3527 -34.4723 -1.3362 0.7362
-20.6641 -22.5570 -0.5340 0.8848
-8.7064 -32.8761 -0.5936 0.8728
-8.7196 -62.6954 -1.1049 0.7763
14.2042 -39.5803 -0.7340 0.8452
21.0255 -41.8838 -0.8180 0.8290
23.6098 -27.6570 -0.6347 0.8646
29.6588 -27.2718 -0.7033 0.8511
68.9075 -27.6369 -1.2959 0.7430
86.5827 -23.1017 -1.5642 0.6987
34.0083 16.9928 -0.6636 0.8589
24.2116 20.5908 -0.5548 0.8806
4.4460 6.1666 -0.1327 0.9700
3.1246 5.6658 -0.1129 0.9744
2.2867 5.6709 -0.1067 0.9758
0.1207 5.6842 -0.0992 0.9775
-2.8265 5.6832 -0.1108 0.9749
-3.7327 5.6699 -0.1185 0.9732
-7.9215 5.7337 -0.1707 0.9616
-13.9923 5.6725 -0.2635 0.9414
-71.8735 -47.1246 -1.5002 0.7090
-21.0216 -22.6070 -0.5388 0.8838
-16.2448 -22.3557 -0.4824 0.8953
-8.6365 -31.6575 -0.5728 0.8770
20.6346 -41.8801 -0.8149 0.8296
23.6072 -28.0749 -0.6403 0.8635
37.4497 -27.3196 -0.8091 0.8307
86.5784 -23.7928 -1.5672 0.6982
24.2097 20.2803 -0.5513 0.8813
24.7475 26.4158 -0.6318 0.8652
4.4806 6.1181 -0.1324 0.9701
3.1796 5.6654 -0.1134 0.9743
2.3358 5.6706 -0.1070 0.9758
0.1631 5.6840 -0.0993 0.9775
-0.5248 5.6882 -0.0997 0.9774
-1.2294 5.6925 -0.1017 0.9770
-1.9729 5.6971 -0.1052 0.9762
-3.6742 5.6727 -0.1180 0.9733
-4.7353 5.6743 -0.1290 0.9709
-5.9973 5.6395 -0.1437 0.9676
-7.7975 5.7329 -0.1689 0.9620
-20.8488 5.8131 -0.3778 0.9171
-80.2721 -7.2559 -1.4069 0.7244
-71.7174 -46.2621 -1.4897 0.7108
-69.0004 -57.3652 -1.5663 0.6984
-21.4877 -22.7658 -0.5464 0.8823
-16.4307 -22.2609 -0.4829 0.8952
-13.4870 -23.8225 -0.4778 0.8963
-8.7146 -56.4787 -0.9975 0.7956
19.4041 -56.7135 -1.0463 0.7868
16.3342 -19.7219 -0.4470 0.9026
41.3018 -23.4845 -0.8293 0.8269
66.8696 -27.9828 -1.2653 0.7483
52.5957 11.0515 -0.9381 0.8065
16.1231 5.4829 -0.2973 0.9341
24.2078 19.9737 -0.5478 0.8820
4.5151 6.0698 -0.1320 0.9702
3.2352 5.6651 -0.1139 0.9742
2.3853 5.6703 -0.1074 0.9757
1.6165 5.6750 -0.1030 0.9767
0.2054 5.6837 -0.0993 0.9775
-1.1850 5.6923 -0.1015 0.9770
-1.9254 5.6968 -0.1050 0.9762
-2.7305 5.7018 -0.1103 0.9750
-3.6162 5.6754 -0.1175 0.9734
-4.6637 5.6739 -0.1282 0.9710
-5.9080 5.6391 -0.1426 0.9679
-10.0194 5.7466 -0.2016 0.9548
-20.2514 5.8094 -0.3677 0.9192
-36.9449 5.9120 -0.6531 0.8610
-97.9826 -8.1216 -1.7161 0.6748
-83.8161 -28.1550 -1.5433 0.7021
-67.5127 -32.1772 -1.3054 0.7414
-21.9749 -22.9373 -0.5545 0.8807
-16.6008 -22.1443 -0.4831 0.8952
-13.7020 -23.7874 -0.4792 0.8960
-10.7283 -25.2398 -0.4787 0.8961
-8.6594 -53.4748 -0.9456 0.8052
19.6599 -96.2327 -1.7144 0.6751
19.8207 -41.7870 -0.8073 0.8311
23.5508 -37.2665 -0.7695 0.8383
23.6020 -28.9329 -0.6517 0.8612
86.4415 6.8409 -1.5136 0.7069
53.2773 10.7810 -0.9488 0.8046
36.4491 17.2057 -0.7035 0.8511
26.6402 16.7661 -0.5494 0.8817
24.2059 19.6710 -0.5444 0.8827
24.7427 25.6345 -0.6219 0.8672
4.5494 6.0217 -0.1317 0.9703
10.2716 61.9674 -1.0964 0.7778
0.2478 5.6834 -0.0993 0.9775
-0.4395 5.6877 -0.0996 0.9774
-1.1408 5.6920 -0.1013 0.9770
-1.8782 5.6965 -0.1047 0.9763
-2.6784 5.7014 -0.1100 0.9751
-4.5930 5.6735 -0.1274 0.9712
-10.0871 2.9751 -0.1836 0.9588
-35.1955 5.9013 -0.6229 0.8670
-83.7893 -16.6308 -1.4911 0.7105
-67.3167 -31.4706 -1.2971 0.7428
-71.3267 -44.5196 -1.4676 0.7144
-69.1343 -55.7559 -1.5503 0.7010
-22.1914 -22.8206 -0.5556 0.8804
-9.1091 -30.6736 -0.5585 0.8798
-8.6523 -51.0200 -0.9033 0.8130
15.2379 -46.8018 -0.8591 0.8213
19.5390 -41.9983 -0.8085 0.8308
23.5470 -37.8824 -0.7786 0.8366
40.3790 -23.7626 -0.8178 0.8291
63.3366 -27.6204 -1.2061 0.7585
86.4375 6.1931 -1.5126 0.7070
54.4292 10.5927 -0.9679 0.8010
34.1177 15.7955 -0.6562 0.8604
24.2041 19.3720 -0.5411 0.8834
4.5835 5.9738 -0.1314 0.9703
3.3476 5.6644 -0.1148 0.9740
1.7082 5.6745 -0.1034 0.9766
10.7459 61.9645 -1.0977 0.7776
-2.6266 5.7011 -0.1096 0.9752
-4.5232 5.6731 -0.1266 0.9714
-5.7337 5.6383 -0.1404 0.9683
-7.4403 5.7307 -0.1639 0.9631
-9.6787 5.7445 -0.1965 0.9560
-12.9550 5.7071 -0.2471 0.9449
-33.6005 5.8915 -0.5954 0.8724
-83.7500 -26.7512 -1.5346 0.7035
-71.5079 -43.8961 -1.4646 0.7149
-22.5057 -22.8013 -0.5592 0.8797
-14.0309 -23.5405 -0.4784 0.8962
-9.1554 -30.0084 -0.5476 0.8820
-8.6305 -48.6887 -0.8631 0.8205
23.5965 -29.8224 -0.6638 0.8589
35.1796 -27.3057 -0.7773 0.8368
39.6823 -23.7523 -0.8073 0.8311
86.4335 5.5461 -1.5118 0.7072
57.8476 10.8115 -1.0272 0.7902
17.4544 5.5037 -0.3195 0.9294
-18.8588 -22.1918 -1.5263 0.8899
-12.0844 -24.2072 -1.4179 0.8973
-8.4123 -37.3315 -2.0055 0.8579
-4.8104 -47.4888 -2.5015 0.8260
12.3222 -46.1139 -2.5015 0.8260
15.0326 -37.4413 -2.1145 0.8508
20.6709 -28.7612 -1.8562 0.8677
25.0693 -27.2436 -1.9403 0.8622
30.1390 -25.7094 -2.0761 0.8533
30.5998 -15.3468 -1.7941 0.8719
46.5446 -10.5795 -2.5015 0.8260
47.7242 0.8531 -2.5015 0.8260
18.5527 13.2817 -1.1958 0.9127
24.2215 22.2053 -1.7221 0.8767
4.2701 6.4132 -0.4038 0.9696
2.8556 5.6674 -0.3326 0.9749
0.5969 5.6813 -0.2994 0.9774
-0.0910 5.6855 -0.2980 0.9775
-3.1044 5.6994 -0.3401 0.9743
-4.0330 5.6558 -0.3641 0.9726
-6.5172 5.6014 -0.4504 0.9662
-11.3238 5.7322 -0.6652 0.9504
-7.6793 2.7850 -0.4281 0.9678
-44.9791 4.8102 -2.3707 0.8343
-32.2233 -0.4560 -1.6889 0.8789
-44.4208 -6.0262 -2.3493 0.8356
-44.3936 -17.5367 -2.5015 0.8260
-27.3630 -24.8984 -1.9388 0.8623
-19.2302 -22.2902 -1.5428 0.8888
-12.2398 -24.0684 -1.4151 0.8975
-9.8220 -26.9265 -1.5021 0.8915
-8.4008 -36.0269 -1.9387 0.8623
-5.1618 -47.4320 -2.5005 0.8260
0.5865 -47.7283 -2.5015 0.8260
14.2328 -36.2272 -2.0399 0.8556
23.4710 -33.1758 -2.1298 0.8498
24.6846 -27.2297 -1.9261 0.8631
30.4900 -15.5771 -1.7944 0.8718
44.8112 -16.4405 -2.5015 0.8260
46.4646 -10.9259 -2.5015 0.8260
47.4420 -5.2523 -2.5015 0.8260
47.7293 0.4976 -2.5015 0.8260
39.6031 5.2225 -2.0935 0.8521
18.3409 7.1663 -1.0320 0.9242
18.3935 9.8860 -1.0944 0.9198
18.5573 13.0770 -1.1898 0.9131
23.9178 21.6012 -1.6890 0.8789
4.3057 6.3634 -0.4027 0.9697
2.0930 5.6721 -0.3169 0.9761
1.3460 5.6767 -0.3058 0.9769
-0.7395 5.6895 -0.3007 0.9773
-1.4535 5.6939 -0.3080 0.9767
-3.0439 5.6886 -0.3381 0.9745
-3.9718 5.6587 -0.3623 0.9727
-5.0818 5.6479 -0.3982 0.9700
-11.1348 5.7410 -0.6565 0.9511
-23.8664 5.7059 -1.2860 0.9064
-42.1277 -22.4407 -2.5015 0.8260
-39.1196 -27.3494 -2.5015 0.8260
-28.3259 -25.3915 -1.9936 0.8587
-19.5259 -22.2950 -1.5532 0.8881
-12.4693 -24.0742 -1.4209 0.8971
-9.9242 -26.5896 -1.4874 0.8925
-8.3900 -34.8063 -1.8764 0.8664
-5.5022 -47.2825 -2.4947 0.8264
21.0016 -39.6037 -2.3493 0.8356
23.1121 -33.1901 -2.1196 0.8504
24.3143 -27.2261 -1.9130 0.8640
30.9120 -27.1746 -2.1570 0.8480
36.9863 -25.3286 -2.3493 0.8356
47.4016 -5.6055 -2.5015 0.8260
39.6013 4.9224 -2.0914 0.8523
22.2521 5.5482 -1.2019 0.9122
18.3381 7.0082 -1.0289 0.9244
18.3898 9.7082 -1.0898 0.9201
23.9158 21.2781 -1.6776 0.8797
4.3410 6.3138 -0.4016 0.9698
2.1410 5.6718 -0.3177 0.9760
0.6825 5.6808 -0.2999 0.9773
-0.6964 5.6892 -0.3004 0.9773
-1.4084 5.6936 -0.3074 0.9768
-2.9899 5.6892 -0.3368 0.9746
-5.0094 5.6515 -0.3958 0.9702
-6.3239 5.6012 -0.4427 0.9667
-10.8930 5.7195 -0.6448 0.9519
-7.6272 2.8954 -0.4276 0.9679
-32.3642 0.0242 -1.6961 0.8784
-45.5816 -11.1850 -2.4597 0.8286
-44.6500 -16.8734 -2.5015 0.8260
-42.2937 -22.1263 -2.5015 0.8260
-39.3221 -27.0573 -2.5015 0.8260
-33.6017 -29.6723 -2.3493 0.8356
-15.5694 -22.4651 -1.4325 0.8963
-8.3799 -33.6618 -1.8180 0.8703
-5.5503 -44.7879 -2.3652 0.8346
-0.1246 -47.7317 -2.5015 0.8260
5.6230 -47.3995 -2.5015 0.8260
15.7687 -41.9628 -2.3493 0.8356
23.4645 -34.2372 -2.1753 0.8468
36.7966 -25.6034 -2.3493 0.8356
30.4667 -16.1419 -1.8069 0.8710
47.3585 -5.9584 -2.5015 0.8260
22.9618 5.5438 -1.2380 0.9097
18.3363 6.8514 -1.0259 0.9246
19.0560 13.0080 -1.2092 0.9117
23.9138 20.9593 -1.6665 0.8804
23.9902 26.7825 -1.8844 0.8659
4.3762 6.2645 -0.4005 0.9699
3.0157 5.6664 -0.3364 0.9746
1.4355 5.6762 -0.3068 0.9768
0.7254 5.6805 -0.3001 0.9773
-1.3634 5.6934 -0.3068 0.9768
-16.1689 31.3313 -1.8478 0.8683
-3.8512 5.6644 -0.3590 0.9729
-6.2297 5.6011 -0.4390 0.9670
-14.4307 5.6014 -0.8113 0.9399
-22.6922 5.7839 -1.2273 0.9105
-33.1494 4.2962 -1.7518 0.8747
-44.5196 0.3649 -2.3333 0.8367
-45.0212 -10.6925 -2.4251 0.8308
-44.7744 -16.5404 -2.5015 0.8260
-39.5226 -26.7636 -2.5015 0.8260
-33.8218 -29.4212 -2.3493 0.8356
-20.1425 -22.3193 -1.5756 0.8865
-15.7737 -22.4016 -1.4359 0.8961
-8.6158 -33.5419 -1.8149 0.8705
-0.4801 -47.7294 -2.5015 0.8260
5.2698 -47.4401 -2.5015 0.8260
20.4094 -39.9122 -2.3493 0.8356
23.4611 -34.7851 -2.1989 0.8453
28.0878 -25.4436 -1.9862 0.8592
30.5234 -16.4643 -1.8175 0.8703
46.2088 -11.9614 -2.5015 0.8260
44.5628 4.8662 -2.3493 0.8356
23.5934 5.5107 -1.2698 0.9075
18.3371 6.6965 -1.0231 0.9248
18.6691 9.5028 -1.0979 0.9195
19.3614 13.0061 -1.2224 0.9108
23.9119 20.6448 -1.6556 0.8811
24.2491 26.6692 -1.8890 0.8656
4.4112 6.2154 -0.3994 0.9699
3.0699 5.6661 -0.3377 0.9745
2.2379 5.6712 -0.3195 0.9759
1.4805 5.6759 -0.3074 0.9768
0.0783 5.6845 -0.2979 0.9775
-1.3185 5.6931 -0.3063 0.9769
-2.0687 5.6977 -0.3177 0.9760
-3.7916 5.6672 -0.3573 0.9731
-6.1370 5.6011 -0.4354 0.9673
-10.5655 5.7499 -0.6304 0.9530
-32.9630 4.5219 -1.7437 0.8752
-44.5806 -4.7002 -2.3493 0.8356
-44.8963 -16.2064 -2.5015 0.8260
-42.6186 -21.4938 -2.5015 0.8260
-39.7209 -26.4685 -2.5015 0.8260
-34.0400 -29.1685 -2.3493 0.8356
-20.5749 -22.4596 -1.5963 0.8851
-15.9260 -22.2638 -1.4346 0.8962
-12.9854 -23.7553 -1.4188 0.8972
-8.7346 -32.9826 -1.7881 0.8723
-0.8356 -47.7245 -2.5015 0.8260
4.9163 -47.4780 -2.5015 0.8260
14.6463 -40.8121 -2.2724 0.8406
29.5441 -27.1662 -2.1034 0.8515
38.6694 -21.2316 -2.3119 0.8380
46.1185 -12.3052 -2.5015 0.8260
47.7229 -0.9244 -2.5015 0.8260
44.5978 4.5342 -2.3493 0.8356
19.0139 9.5006 -1.1139 0.9184
19.6735 13.0042 -1.2359 0.9099
23.9100 20.3343 -1.6449 0.8819
3.1246 5.6658 -0.3391 0.9744
2.2867 5.6709 -0.3205 0.9758
0.1207 5.6842 -0.2980 0.9775
-1.2739 5.6928 -0.3057 0.9769
-2.0207 5.6974 -0.3168 0.9761
-2.8265 5.6832 -0.3326 0.9749
-4.7931 5.6573 -0.3886 0.9707
-7.9215 5.7337 -0.5125 0.9616
-13.8807 5.6272 -0.7850 0.9418
-32.9615 4.7722 -1.7454 0.8751
-43.8843 -9.7342 -2.3558 0.8352
-45.0159 -15.8715 -2.5015 0.8260
-16.0345 -22.0663 -1.4295 0.8965
-13.2347 -23.7885 -1.4267 0.8967
-10.3074 -25.2898 -1.4312 0.8964
-6.5058 -44.3531 -2.3493 0.8356
-1.1909 -47.7170 -2.5015 0.8260
14.3331 -40.8954 -2.2711 0.8407
36.2153 -26.4192 -2.3493 0.8356
38.5102 -21.5191 -2.3119 0.8380
46.0255 -12.6484 -2.5015 0.8260
47.2135 -7.0152 -2.5015 0.8260
47.7147 -1.2800 -2.5015 0.8260
44.6303 4.2019 -2.3493 0.8356
43.9237 9.5715 -2.3560 0.8352
19.3690 9.4985 -1.1306 0.9172
18.5284 12.0499 -1.1583 0.9153
4.4806 6.1181 -0.3974 0.9701
3.1796 5.6654 -0.3405 0.9743
1.5710 5.6753 -0.3086 0.9767
-0.5248 5.6882 -0.2994 0.9774
-1.9729 5.6971 -0.3160 0.9761
-2.7831 5.7021 -0.3325 0.9749
-3.6742 5.6727 -0.3542 0.9733
-5.9598 5.6043 -0.4287 0.9678
-7.7975 5.7329 -0.5072 0.9620
-10.1965 5.7476 -0.6134 0.9542
-13.6208 5.6404 -0.7726 0.9427
-40.1108 -25.8739 -2.5015 0.8260
-16.2481 -22.0136 -1.4339 0.8962
-13.3461 -23.5737 -1.4197 0.8972
-10.4544 -25.1137 -1.4256 0.8968
-8.7175 -31.0420 -1.6898 0.8788
-6.4049 -41.5097 -2.2012 0.8452
4.2085 -47.5459 -2.5015 0.8260
9.9021 -46.6934 -2.5015 0.8260
19.5125 -40.3582 -2.3493 0.8356
36.0175 -26.6882 -2.3493 0.8356
38.3488 -21.8054 -2.3119 0.8380
37.1104 -15.5295 -2.1083 0.8512
47.1600 -7.3667 -2.5015 0.8260
47.7038 -1.6353 -2.5015 0.8260
44.6604 3.8693 -2.3493 0.8356
18.3395 6.2366 -1.0152 0.9253
18.3722 8.8405 -1.0685 0.9216
18.5955 15.3430 -1.2635 0.9080
4.5151 6.0698 -0.3965 0.9702
1.6165 5.6750 -0.3092 0.9766
0.8916 5.6391 -0.2992 0.9774
-0.4821 5.6879 -0.2992 0.9774
-1.1850 5.6923 -0.3047 0.9770
-2.7306 5.7018 -0.3313 0.9750
-3.6162 5.6754 -0.3527 0.9734
-4.6497 5.6567 -0.3838 0.9711
-5.8759 5.6085 -0.4257 0.9680
-10.0194 5.7466 -0.6053 0.9548
-13.3688 5.6531 -0.7607 0.9435
-20.2514 5.8094 -1.1041 0.9191
-33.1432 5.3037 -1.7591 0.8742
-44.6745 -3.7030 -2.3493 0.8356
-43.9037 -9.0545 -2.3493 0.8356
-21.7283 -22.6799 -1.6460 0.8818
-13.5432 -23.5116 -1.4220 0.8970
-10.6208 -24.9869 -1.4229 0.8970
-8.8034 -30.4740 -1.6624 0.8807
-1.9018 -47.6939 -2.5015 0.8260
3.8543 -47.5760 -2.5015 0.8260
21.1309 -33.4374 -2.0730 0.8535
23.6020 -28.9329 -1.9568 0.8611
28.2421 -27.1582 -2.0534 0.8548
38.1853 -22.0904 -2.3119 0.8380
37.0515 -15.8304 -2.1116 0.8510
45.8320 -13.3325 -2.5015 0.8260
47.1038 -7.7177 -2.5015 0.8260
47.6903 -1.9906 -2.5015 0.8260
44.0152 8.9068 -2.3535 0.8354
18.5209 11.6562 -1.1469 0.9161
24.2395 25.1131 -1.8292 0.8695
3.2912 5.6647 -0.3433 0.9741
7.7858 46.9708 -2.4952 0.8264
0.2478 5.6834 -0.2981 0.9775
-0.4395 5.6877 -0.2990 0.9774
-3.5588 5.6781 -0.3512 0.9735
-5.7932 5.6126 -0.4227 0.9682
-7.5570 5.7314 -0.4971 0.9627
-13.1247 5.6655 -0.7492 0.9443
-10.0853 2.9746 -0.5511 0.9588
-45.0443 2.0482 -2.3631 0.8348
-43.9700 -8.7273 -2.3493 0.8356
-45.3592 -14.8617 -2.5015 0.8260
-34.8938 -28.1415 -2.3493 0.8356
-22.1259 -22.7533 -1.6633 0.8806
-11.1892 -19.0947 -1.1598 0.9152
-9.0322 -30.4143 -1.6627 0.8807
13.8781 -42.6253 -2.3493 0.8356
20.8357 -33.5205 -2.0684 0.8538
23.7033 -29.5031 -1.9834 0.8593
27.8334 -27.1673 -2.0384 0.8557
35.5920 -27.2034 -2.3477 0.8357
38.0197 -22.3742 -2.3119 0.8380
45.7314 -13.6736 -2.5015 0.8260
47.0450 -8.0683 -2.5015 0.8260
47.6742 -2.3457 -2.5015 0.8260
44.0572 8.5742 -2.3523 0.8355
16.7890 5.4317 -0.9248 0.9318
18.3656 8.5027 -1.0606 0.9221
3.3476 5.6644 -0.3448 0.9740
2.4851 5.6697 -0.3244 0.9755
8.1346 46.9068 -2.4950 0.8264
-2.6266 5.7011 -0.3290 0.9752
-3.5018 5.6808 -0.3497 0.9736
-4.5097 5.6562 -0.3791 0.9714
-5.7116 5.6166 -0.4198 0.9684
-9.6787 5.7445 -0.5899 0.9559
-12.8877 5.6774 -0.7381 0.9452
-19.1469 5.8026 -1.0485 0.9230
-45.0457 2.3846 -2.3640 0.8347
-44.0337 -8.3995 -2.3493 0.8356
-40.6788 -24.9712 -2.5015 0.8260
-32.0484 -25.4550 -2.1449 0.8488
-22.5614 -22.8578 -1.6832 0.8793
-11.0750 -25.0138 -1.4337 0.8962
-7.8241 -44.1396 -2.3493 0.8356
13.5603 -42.7276 -2.3493 0.8356
23.7005 -29.9539 -2.0018 0.8581
26.5655 -26.3190 -1.9598 0.8609
35.0435 -27.2000 -2.3249 0.8372
37.8520 -22.6567 -2.3119 0.8380
44.7357 2.8705 -2.3493 0.8356
18.3624 8.3357 -1.0568 0.9224
-15.3727 -18.0895 -2.0769 0.9091
-14.7990 -22.4068 -2.3493 0.8978
-11.9856 -24.0094 -2.3477 0.8979
-2.8815 -28.4469 -2.5015 0.8915
0.5643 -28.5869 -2.5015 0.8915
7.3812 -27.6233 -2.5015 0.8915
10.6533 -26.5337 -2.5015 0.8915
13.5737 -24.7005 -2.4658 0.8930
15.6717 -21.8053 -2.3493 0.8978
23.8290 -15.8022 -2.5015 0.8915
25.5582 -12.8183 -2.5015 0.8915
27.8813 -6.3374 -2.5015 0.8915
28.4415 -2.9345 -2.5015 0.8915
28.5879 0.5110 -2.5015 0.8915
19.7202 2.7501 -1.7420 0.9232
18.7720 7.4964 -1.7685 0.9220
18.8384 10.3067 -1.8787 0.9174
18.9286 13.5508 -2.0367 0.9108
20.1279 18.4525 -2.3890 0.8962
4.8092 5.6166 -0.6469 0.9707
2.8556 5.6674 -0.5552 0.9748
2.0452 5.6724 -0.5275 0.9761
1.3015 5.6770 -0.5096 0.9769
0.5969 5.6813 -0.4998 0.9773
-0.0910 5.6855 -0.4975 0.9774
-0.7827 5.6898 -0.5025 0.9772
-1.4989 5.6942 -0.5151 0.9766
-2.2635 5.6989 -0.5365 0.9757
-4.0330 5.6558 -0.6077 0.9725
-5.1396 5.6273 -0.6668 0.9699
-6.4704 5.5612 -0.7464 0.9663
-25.2523 5.8388 -2.2676 0.9012
-27.6641 -7.2268 -2.5015 0.8915
-26.5928 -10.5049 -2.5015 0.8915
-25.1347 -13.6301 -2.5015 0.8915
-23.3108 -16.5570 -2.5015 0.8915
-15.4998 -17.9661 -2.0760 0.9091
-9.2021 -25.2269 -2.3493 0.8978
-6.0980 -26.1513 -2.3493 0.8978
20.2993 -17.5788 -2.3493 0.8978
27.8333 -6.5449 -2.5015 0.8915
28.5909 0.2981 -2.5015 0.8915
21.5825 5.5523 -1.9497 0.9144
18.7686 7.3334 -1.7629 0.9223
2.9086 5.6671 -0.5573 0.9747
2.0930 5.6721 -0.5290 0.9760
1.3460 5.6767 -0.5104 0.9768
0.6397 5.6810 -0.5002 0.9773
-0.7395 5.6895 -0.5020 0.9772
-1.4535 5.6939 -0.5141 0.9767
-3.0439 5.6887 -0.5645 0.9744
-6.3766 5.5637 -0.7404 0.9666
-8.4446 5.7369 -0.8932 0.9598
-11.1076 5.7270 -1.0934 0.9511
-7.6317 2.8323 -0.7122 0.9678
-26.6786 3.0542 -2.3493 0.8978
-27.7172 -7.0206 -2.5015 0.8915
-17.6919 -20.2008 -2.3493 0.8978
-15.1311 -22.1838 -2.3493 0.8978
-6.2926 -26.1051 -2.3493 0.8978
-3.3050 -28.4008 -2.5015 0.8915
0.1384 -28.5922 -2.5015 0.8915
3.5797 -28.3675 -2.5015 0.8915
6.9690 -27.7302 -2.5015 0.8915
13.3708 -25.2140 -2.4969 0.8917
17.8866 -20.0286 -2.3493 0.8978
23.5910 -16.1554 -2.5015 0.8915
25.3644 -13.1976 -2.5015 0.8915
18.7652 7.1714 -1.7575 0.9225
20.3907 18.1418 -2.3878 0.8962
18.1257 20.5411 -2.3967 0.8958
4.3410 6.3138 -0.6704 0.9697
2.9620 5.6668 -0.5594 0.9747
1.3907 5.6764 -0.5113 0.9768
-0.0063 5.6850 -0.4974 0.9774
-2.9899 5.6892 -0.5623 0.9745
-3.9112 5.6616 -0.6020 0.9727
-4.9945 5.6347 -0.6588 0.9702
-8.3095 5.7360 -0.8834 0.9603
-10.8930 5.7195 -1.0764 0.9518
-23.2018 5.7301 -2.0909 0.9085
-26.6551 3.2528 -2.3493 0.8978
-26.8528 0.0201 -2.3493 0.8978
-21.2525 -18.7672 -2.4805 0.8924
-15.2960 -22.0705 -2.3493 0.8978
-9.5768 -25.0870 -2.3493 0.8978
-3.5164 -28.3754 -2.5015 0.8915
-0.0746 -28.5924 -2.5015 0.8915
6.7622 -27.7813 -2.5015 0.8915
10.0577 -26.7651 -2.5015 0.8915
