ply
format ascii 1.0
element vertex 1557
property float32 x
property float32 y
property float32 z
property float32 I
end_header
4.8671 5.6551 0.3910 0.9706
3.7902 5.6617 0.3571 0.9731
2.8731 5.6673 0.3330 0.9749
2.0607 5.6723 0.3163 0.9761
1.3157 5.6769 0.3054 0.9769
-0.7681 5.6785 0.3003 0.9773
-2.2453 5.6890 0.3205 0.9758
-3.0818 5.6866 0.3390 0.9744
-5.2001 5.7169 0.4050 0.9695
-6.6239 5.7163 0.4585 0.9656
-15.8511 5.7824 0.8843 0.9346
-29.6555 -0.3675 1.5543 0.8880
-23.2787 -34.5740 2.1844 0.8462
-17.6348 -34.5579 2.0333 0.8561
-9.9849 -42.5685 2.2915 0.8393
21.3203 -82.6282 4.4722 0.7105
24.0462 -44.6535 2.6579 0.8162
31.8705 -45.1464 2.8962 0.8014
26.1317 -28.8831 2.0413 0.8555
31.4452 -27.2827 2.1818 0.8464
51.9773 -35.0968 3.2869 0.7779
60.9945 -14.3925 3.2844 0.7780
60.8952 0.5927 3.1915 0.7835
43.9859 5.7712 2.3250 0.8372
21.6360 5.5520 1.1706 0.9144
41.4663 16.1748 2.3326 0.8367
31.1818 16.7381 1.8547 0.8678
7.3819 6.6609 0.5211 0.9610
4.9194 5.6547 0.3928 0.9704
3.8338 5.6614 0.3583 0.9730
2.9109 5.6671 0.3339 0.9748
2.0948 5.6721 0.3169 0.9761
-0.0478 5.6853 0.2980 0.9775
-0.7374 5.6783 0.3001 0.9773
-3.0426 5.6862 0.3380 0.9745
-3.9982 5.6957 0.3647 0.9725
-6.5556 5.7185 0.4559 0.9658
-24.4382 5.8352 1.3168 0.9043
45.5832 -27.3696 0.9281 0.8084
5.6292 5.6504 0.1392 0.9686
4.4165 5.6578 0.1253 0.9717
3.3988 5.6436 0.1150 0.9740
2.5409 5.6694 0.1084 0.9755
-0.3499 5.6760 0.0993 0.9775
-3.4266 5.6586 0.1155 0.9739
-4.4492 5.6715 0.1258 0.9716
-7.3205 5.7300 0.1623 0.9635
-12.8147 5.7637 0.2453 0.9453
-65.2642 -20.3103 1.1931 0.7608
-71.9390 -32.3358 1.3767 0.7294
-27.0906 -34.5156 0.7659 0.8390
-23.1134 -38.1491 0.7786 0.8366
-8.6355 -19.1316 0.3664 0.9195
-11.8565 -37.8896 0.6930 0.8531
-10.3410 -56.0199 0.9943 0.7962
21.9807 -49.0757 0.9386 0.8064
25.3589 -42.1301 0.8583 0.8214
26.1036 -33.4572 0.7407 0.8439
34.6908 -27.3027 0.7706 0.8381
60.9031 -27.5876 1.1670 0.7653
82.4809 4.7550 1.4421 0.7185
58.6304 10.5669 1.0399 0.7879
26.3896 8.1356 0.4820 0.8954
38.5234 17.1929 0.7364 0.8447
28.0406 16.8275 0.5708 0.8774
8.9200 6.9404 0.1973 0.9558
4.4648 5.6575 0.1258 0.9716
3.4377 5.6401 0.1153 0.9739
2.5771 5.6691 0.1087 0.9754
0.3669 5.6827 0.0994 0.9775
-0.3180 5.6471 0.0987 0.9776
-1.0135 5.6667 0.1005 0.9772
-1.7402 5.6714 0.1035 0.9765
-2.5205 5.6678 0.1083 0.9755
-3.3854 5.6583 0.1151 0.9740
-4.4218 5.6986 0.1259 0.9716
-7.2402 5.7295 0.1612 0.9637
-9.3632 5.7241 0.1916 0.9570
-12.6322 5.7626 0.2424 0.9460
-18.2703 5.7973 0.3346 0.9262
-72.9773 -32.3372 1.3933 0.7266
-8.7447 -19.1020 0.3667 0.9194
-11.8521 -37.1809 0.6812 0.8555
-10.1537 -53.4129 0.9490 0.8045
21.9762 -49.7736 0.9497 0.8044
25.7407 -33.3563 0.7354 0.8449
34.3109 -27.3004 0.7653 0.8391
29.4657 -18.1212 0.6038 0.8708
60.0399 -27.5823 1.1533 0.7677
88.5166 4.6309 1.5472 0.7015
18.4968 5.5948 0.3373 0.9256
39.0728 17.1896 0.7451 0.8430
7.3124 5.6274 0.1611 0.9638
5.7495 5.6496 0.1407 0.9683
6.1437 9.9602 0.2043 0.9543
2.6134 5.6689 0.1090 0.9753
1.8252 5.6737 0.1040 0.9764
-0.9824 5.6665 0.1004 0.9773
-3.3445 5.6580 0.1147 0.9740
-18.5399 24.1575 0.5315 0.8853
-9.2510 5.7233 0.1899 0.9574
-17.9324 5.7952 0.3289 0.9274
-30.2249 5.8707 0.5374 0.8841
-65.2985 -19.5620 1.1898 0.7613
-29.2309 -36.4379 0.8154 0.8295
-15.8608 -34.1652 0.6575 0.8601
-9.9970 -51.1054 0.9089 0.8119
26.9558 -90.4174 1.6469 0.6856
21.9719 -50.4886 0.9611 0.8023
24.7491 -42.1244 0.8528 0.8225
26.5667 -27.2528 0.6643 0.8588
33.9361 -27.2980 0.7602 0.8401
45.8399 -21.3546 0.8830 0.8168
39.6354 17.1861 0.7541 0.8413
28.7216 16.8233 0.5810 0.8753
26.8099 20.4061 0.5881 0.8739
5.8106 5.6493 0.1415 0.9681
6.1430 9.8415 0.2025 0.9546
1.1264 5.6781 0.1010 0.9771
-0.9514 5.6663 0.1003 0.9773
-2.4500 5.6711 0.1078 0.9756
-3.3038 5.6577 0.1144 0.9741
-18.3356 24.1562 0.5294 0.8857
-7.0829 5.7285 0.1590 0.9642
-17.6057 5.7932 0.3235 0.9285
-29.3625 5.8654 0.5226 0.8871
-65.3156 -19.1892 1.1883 0.7616
-16.0815 -34.1639 0.6591 0.8598
-12.0711 -36.5209 0.6714 0.8574
-10.1212 -50.3187 0.8959 0.8144
26.0968 -34.5717 0.7561 0.8409
26.2838 -27.2510 0.6609 0.8594
33.5662 -27.2958 0.7552 0.8411
43.4403 -27.3565 0.8961 0.8143
45.2879 -21.3913 0.8742 0.8184
5.8724 5.6489 0.1422 0.9679
3.5704 5.6529 0.1167 0.9736
1.8919 5.6733 0.1044 0.9764
1.1578 5.6779 0.1011 0.9771
0.4580 5.6822 0.0995 0.9775
-1.6415 5.6707 0.1030 0.9767
-3.2634 5.6574 0.1140 0.9742
-17.9822 23.9541 0.5228 0.8871
-9.0324 5.7217 0.1866 0.9581
-12.0424 5.7274 0.2328 0.9480
-65.3326 -18.8173 1.1867 0.7619
-16.3033 -34.1625 0.6607 0.8595
-12.2864 -36.5196 0.6726 0.8571
26.0944 -34.9534 0.7614 0.8399
33.2011 -27.2935 0.7502 0.8420
44.6116 -21.3625 0.8638 0.8205
82.0181 -27.7150 1.5112 0.7073
42.2452 6.6895 0.7466 0.8427
19.4635 5.5500 0.3533 0.9222
40.8022 17.1789 0.7728 0.8377
29.4273 16.8189 0.5916 0.8732
26.8071 19.9574 0.5834 0.8749
5.9348 5.6485 0.1430 0.9678
2.7236 5.6682 0.1098 0.9752
1.9254 5.6731 0.1046 0.9763
1.1892 5.6777 0.1013 0.9771
0.4884 5.6820 0.0995 0.9774
-1.6088 5.6705 0.1029 0.9767
-4.2054 5.6644 0.1231 0.9722
-6.9297 5.7276 0.1569 0.9647
-8.9258 5.7210 0.1851 0.9585
-11.8764 5.7260 0.2301 0.9486
-16.9835 5.7893 0.3132 0.9307
-27.7732 5.8557 0.4954 0.8927
-28.3011 -34.1484 0.7742 0.8374
-18.1528 -28.2394 0.5860 0.8743
-12.5024 -36.5182 0.6737 0.8569
-10.7399 -50.6047 0.9030 0.8131
25.3900 -90.4077 1.6391 0.6868
23.8487 -42.1161 0.8448 0.8240
26.0920 -35.3407 0.7668 0.8388
26.1391 -27.6842 0.6646 0.8587
32.8410 -27.2913 0.7453 0.8430
41.4077 17.1752 0.7825 0.8358
29.7900 16.8167 0.5971 0.8721
26.8058 19.7357 0.5810 0.8753
3.6613 5.6625 0.1177 0.9734
1.9591 5.6729 0.1048 0.9763
1.2207 5.6775 0.1014 0.9770
0.5188 5.6818 0.0996 0.9774
-0.1688 5.6860 0.0993 0.9775
-0.8593 5.6705 0.1001 0.9773
-4.1586 5.6641 0.1227 0.9723
-5.3702 5.7180 0.1369 0.9691
-6.8545 5.7271 0.1559 0.9649
-8.8211 5.7202 0.1835 0.9588
-11.7139 5.7246 0.2276 0.9492
-27.0197 5.8470 0.4825 0.8953
-63.8150 -17.6474 1.1557 0.7673
-28.6072 -34.1465 0.7776 0.8368
-12.7193 -36.5169 0.6750 0.8567
-8.3230 -88.5539 1.5525 0.7006
23.8625 -86.7382 1.5703 0.6977
21.9530 -53.5289 1.0099 0.7934
23.5523 -42.1133 0.8422 0.8245
32.4854 -27.2891 0.7406 0.8439
45.9788 -22.6216 0.8944 0.8146
41.5312 16.9681 0.7831 0.8357
30.0353 16.7452 0.6002 0.8715
26.8044 19.5158 0.5787 0.8758
6.0618 5.6477 0.1446 0.9674
4.7639 5.6557 0.1291 0.9709
3.7039 5.6622 0.1181 0.9733
1.9928 5.6727 0.1049 0.9762
0.5492 5.6816 0.0996 0.9774
-0.1385 5.6858 0.0993 0.9775
-1.5437 5.6701 0.1026 0.9768
-2.3098 5.6751 0.1069 0.9758
-3.1438 5.6565 0.1130 0.9744
-5.3129 5.7176 0.1362 0.9693
-6.7804 5.7267 0.1549 0.9651
-8.7191 5.7202 0.1820 0.9591
-11.5551 5.7233 0.2251 0.9497
-16.2822 5.7442 0.3014 0.9333
-26.2617 5.8294 0.4696 0.8980
-27.7298 -0.6386 0.4841 0.8950
-63.7956 -17.2774 1.1537 0.7677
-88.7632 -35.9903 1.6719 0.6817
-25.2004 -38.3013 0.8003 0.8324
-15.5825 -31.3553 0.6112 0.8693
-12.9370 -36.5156 0.6762 0.8564
-9.9623 -44.6004 0.7977 0.8329
-8.7981 -88.5510 1.5533 0.7005
26.0872 -36.1321 0.7779 0.8367
32.1343 -27.2870 0.7358 0.8448
41.4394 -27.3442 0.8666 0.8199
77.8332 -27.6918 1.4420 0.7186
41.3430 5.8724 0.7289 0.8462
20.7164 5.5514 0.3744 0.9178
30.4103 16.7429 0.6059 0.8703
26.8031 19.2975 0.5765 0.8762
6.0976 5.6208 0.1448 0.9674
4.8152 5.6554 0.1296 0.9707
2.0267 5.6725 0.1051 0.9762
1.2839 5.6771 0.1016 0.9770
0.5797 5.6814 0.0997 0.9774
-0.1083 5.6856 0.0993 0.9775
-0.7982 5.6734 0.1000 0.9773
-3.1043 5.6562 0.1126 0.9745
-5.2562 5.7173 0.1356 0.9694
-6.7072 5.7262 0.1539 0.9653
-8.6254 5.7246 0.1807 0.9594
-11.3997 5.7221 0.2226 0.9503
-25.6320 5.8328 0.4588 0.9002
-29.8411 -0.5285 0.5210 0.8875
-89.0202 -35.5445 1.6731 0.6815
-29.2276 -34.1427 0.7845 0.8354
-25.4921 -38.2995 0.8031 0.8319
-9.1302 -87.1790 1.5300 0.7042
21.9430 -55.1685 1.0363 0.7886
22.9648 -42.1078 0.8372 0.8254
26.0817 -36.5322 0.7835 0.8356
26.1336 -28.5782 0.6760 0.8565
31.7876 -27.2848 0.7312 0.8457
40.9594 -27.3412 0.8596 0.8212
76.5195 -27.6837 1.4204 0.7221
26.8017 19.0810 0.5743 0.8767
3.7902 5.6617 0.1189 0.9731
2.8731 5.6673 0.1109 0.9749
2.0607 5.6723 0.1053 0.9761
0.6103 5.6812 0.0997 0.9774
-0.0780 5.6855 0.0992 0.9775
-3.0652 5.6560 0.1123 0.9746
-4.0204 5.6630 0.1212 0.9726
-5.2001 5.7169 0.1349 0.9696
-6.6349 5.7258 0.1530 0.9655
-8.5331 5.7289 0.1794 0.9597
-11.2476 5.7208 0.2203 0.9508
-15.8510 5.7824 0.2945 0.9347
-29.6622 -0.3676 0.5178 0.8881
-63.7571 -16.5415 1.1497 0.7683
-65.2216 -46.1724 1.3948 0.7264
-29.5420 -34.1408 0.7881 0.8348
-25.6293 -38.0651 0.8010 0.8323
-15.9684 -31.2922 0.6132 0.8689
-12.5223 -34.1857 0.6355 0.8645
-9.5793 -40.8395 0.7322 0.8455
-9.5988 -87.1761 1.5309 0.7041
23.3244 -90.3951 1.6295 0.6883
26.0736 -36.9346 0.7891 0.8345
26.1317 -28.8831 0.6799 0.8557
40.4871 -27.3383 0.8527 0.8225
42.2256 -21.6184 0.8280 0.8271
43.9902 17.1593 0.8242 0.8279
31.1818 16.7381 0.6177 0.8680
26.8004 18.8663 0.5721 0.8771
6.9133 6.2381 0.1625 0.9634
3.8338 5.6614 0.1193 0.9730
2.9109 5.6671 0.1112 0.9748
1.3475 5.6767 0.1018 0.9769
-0.0478 5.6853 0.0992 0.9775
-2.2047 5.6744 0.1063 0.9759
-3.9750 5.6627 0.1208 0.9727
-5.1445 5.7166 0.1342 0.9697
-6.5635 5.7253 0.1520 0.9658
-11.0987 5.7196 0.2179 0.9513
-15.5887 5.7808 0.2902 0.9356
-24.4298 5.8332 0.4384 0.9044
45.5832 -27.3696 -0.9281 0.8084
34.8133 15.7596 -0.6670 0.8582
7.2657 5.7156 -0.1614 0.9637
4.4165 5.6578 -0.1253 0.9717
3.3988 5.6436 -0.1150 0.9740
2.5409 5.6694 -0.1084 0.9755
0.3366 5.6829 -0.0994 0.9775
-0.3499 5.6760 -0.0993 0.9775
-1.0438 5.6619 -0.1005 0.9772
-1.7689 5.6577 -0.1035 0.9766
-2.5495 5.6519 -0.1082 0.9755
-4.4492 5.6715 -0.1258 0.9716
-9.4344 5.6989 -0.1924 0.9569
-12.8147 5.7637 -0.2453 0.9453
-18.6199 5.7994 -0.3404 0.9249
-81.2717 -14.8708 -1.4421 0.7185
-65.8724 -20.4996 -1.2042 0.7588
-25.1128 -25.0735 -0.6194 0.8676
-13.5810 -22.4158 -0.4575 0.9005
-8.6354 -19.1314 -0.3664 0.9195
17.6823 -57.0868 -1.0432 0.7873
25.2294 -41.9149 -0.8539 0.8222
27.1414 -27.2563 -0.6714 0.8574
45.0333 -27.3662 -0.9198 0.8099
61.1269 -27.6890 -1.1715 0.7646
26.7424 20.8075 -0.5914 0.8732
5.6890 5.6500 -0.1400 0.9684
4.4648 5.6575 -0.1258 0.9716
0.3669 5.6827 -0.0994 0.9775
-1.7359 5.6575 -0.1033 0.9766
-7.2402 5.7295 -0.1612 0.9637
-9.3211 5.6983 -0.1907 0.9572
-31.1374 5.8763 -0.5531 0.8809
-62.7960 4.1380 -1.0985 0.7774
-65.6398 -20.0450 -1.1980 0.7599
-63.2571 -28.0300 -1.2077 0.7582
-68.3286 -40.7580 -1.3887 0.7274
-17.8992 -22.5571 -0.5026 0.8912
-8.7446 -19.1018 -0.3667 0.9194
-6.1859 -32.5404 -0.5782 0.8759
17.4472 -57.4060 -1.0473 0.7866
17.4616 -39.5484 -0.7546 0.8412
24.9251 -41.9121 -0.8512 0.8228
25.7362 -33.3505 -0.7353 0.8449
34.3108 -27.3004 -0.7653 0.8391
60.4812 -27.7850 -1.1618 0.7662
18.4968 5.5948 -0.3373 0.9256
35.7079 15.7092 -0.6809 0.8555
28.2613 16.7561 -0.5735 0.8768
4.5136 5.6572 -0.1263 0.9715
2.6134 5.6689 -0.1090 0.9753
-0.2894 5.6754 -0.0992 0.9775
-0.9821 5.6648 -0.1004 0.9773
-2.4790 5.6553 -0.1078 0.9756
-3.3262 5.6271 -0.1141 0.9742
-5.6051 5.7194 -0.1398 0.9685
-7.1610 5.7290 -0.1601 0.9640
-9.2097 5.6978 -0.1890 0.9576
-12.4540 5.7615 -0.2395 0.9466
-17.9324 5.7952 -0.3289 0.9274
-81.2332 -13.9727 -1.4387 0.7191
-65.1766 -19.5254 -1.1876 0.7617
-26.3452 -25.7504 -0.6430 0.8630
-13.8491 -22.3191 -0.4585 0.9003
-8.2010 -25.2620 -0.4636 0.8992
-6.1386 -31.3810 -0.5581 0.8799
-6.3764 -87.8611 -1.5376 0.7030
16.3473 -95.8008 -1.6964 0.6779
26.9290 -90.3272 -1.6452 0.6859
24.6227 -41.9093 -0.8484 0.8233
33.9361 -27.2980 -0.7602 0.8401
43.9622 -27.3597 -0.9038 0.8129
85.5571 -27.9008 -1.5708 0.6977
28.6034 16.7540 -0.5786 0.8758
5.8106 5.6493 -0.1415 0.9681
2.6500 5.6687 -0.1092 0.9753
0.4276 5.6824 -0.0995 0.9775
-0.2596 5.6866 -0.0994 0.9775
-0.9514 5.6662 -0.1003 0.9773
-2.4440 5.6570 -0.1076 0.9756
-3.2858 5.6269 -0.1137 0.9743
-18.1831 23.9553 -0.5250 0.8866
-5.5455 5.7191 -0.1390 0.9686
-7.0829 5.7285 -0.1590 0.9642
-17.6057 5.7932 -0.3235 0.9285
-29.3625 5.8654 -0.5226 0.8871
-81.2843 -13.5368 -1.4384 0.7192
-62.8961 -27.0737 -1.1952 0.7604
-67.6386 -39.3772 -1.3661 0.7312
-27.1766 -26.2819 -0.6599 0.8596
-18.3450 -22.6207 -0.5084 0.8900
-11.2067 -23.8077 -0.4593 0.9001
-8.2887 -25.0772 -0.4610 0.8997
-6.2535 -31.0900 -0.5535 0.8808
26.4060 -90.3240 -1.6426 0.6863
24.3222 -41.9065 -0.8458 0.8238
26.0968 -34.5717 -0.7561 0.8409
26.2838 -27.2510 -0.6609 0.8594
59.3385 -28.0280 -1.1455 0.7691
84.1205 -27.9279 -1.5471 0.7015
90.0242 3.7503 -1.5727 0.6974
18.7713 5.4607 -0.3412 0.9248
36.6370 15.6551 -0.6954 0.8527
28.9516 16.7519 -0.5838 0.8748
4.6124 5.6566 -0.1274 0.9712
3.5704 5.6529 -0.1167 0.9736
2.6867 5.6685 -0.1095 0.9752
1.8919 5.6733 -0.1044 0.9764
1.1578 5.6779 -0.1011 0.9771
-0.2293 5.6864 -0.0993 0.9775
-1.6375 5.6570 -0.1028 0.9767
-2.4091 5.6587 -0.1073 0.9757
-5.4864 5.7187 -0.1383 0.9688
-9.0085 5.7066 -0.1861 0.9582
-11.9096 5.6642 -0.2302 0.9486
-17.2897 5.7912 -0.3183 0.9297
-81.2133 -13.0816 -1.4358 0.7196
-65.5795 -18.8885 -1.1912 0.7611
-28.4480 -27.2201 -0.6873 0.8543
-18.6465 -22.7441 -0.5134 0.8890
-8.4844 -25.2187 -0.4644 0.8990
-6.3754 -30.8471 -0.5498 0.8816
-6.1718 -74.1146 -1.2981 0.7427
25.8845 -90.3208 -1.6400 0.6867
16.7330 -39.5958 -0.7503 0.8420
24.0237 -41.9037 -0.8431 0.8243
42.9274 -27.3533 -0.8885 0.8158
57.5679 -27.5671 -1.1141 0.7746
19.1396 5.4576 -0.3474 0.9235
26.7368 19.9050 -0.5818 0.8752
5.9348 5.6485 -0.1430 0.9678
4.6625 5.6563 -0.1279 0.9711
3.5960 5.6270 -0.1166 0.9736
1.1892 5.6777 -0.1013 0.9771
-0.8900 5.6691 -0.1002 0.9773
-1.6049 5.6568 -0.1026 0.9768
-2.3743 5.6603 -0.1071 0.9757
-3.2059 5.6265 -0.1130 0.9744
-11.7468 5.6635 -0.2276 0.9492
-16.9835 5.7893 -0.3132 0.9307
-27.1766 5.7299 -0.4848 0.8948
-61.5514 5.3729 -1.0785 0.7810
-64.5579 -18.2230 -1.1709 0.7646
-81.2210 -33.9424 -1.5365 0.7032
-67.2020 -38.1721 -1.3490 0.7340
-70.1472 -51.9339 -1.5235 0.7053
-14.3433 -22.3132 -0.4630 0.8993
-8.6040 -25.1315 -0.4637 0.8992
-6.4884 -73.2068 -1.2828 0.7453
16.4631 -39.5422 -0.7476 0.8425
26.1391 -27.6842 -0.6646 0.8587
32.8410 -27.2913 -0.7453 0.8430
42.4232 -27.3502 -0.8810 0.8172
19.5624 5.4658 -0.3545 0.9220
37.6060 15.5983 -0.7106 0.8497
26.7355 19.6839 -0.5795 0.8756
3.6613 5.6625 -0.1177 0.9734
0.5188 5.6818 -0.0996 0.9774
-2.3393 5.6610 -0.1069 0.9758
-3.1662 5.6263 -0.1127 0.9745
-4.1343 5.6310 -0.1219 0.9724
-8.8141 5.7157 -0.1834 0.9588
-11.5876 5.6629 -0.2251 0.9497
-26.6062 5.7576 -0.4752 0.8968
-63.8039 -17.6444 -1.1555 0.7673
-81.2079 -33.4308 -1.5329 0.7037
-69.9716 -51.2301 -1.5137 0.7068
-19.0413 -22.7284 -0.5175 0.8881
-11.5902 -23.6365 -0.4595 0.9000
-6.7880 -72.2213 -1.2662 0.7481
22.9941 -83.5816 -1.5131 0.7069
23.4320 -41.8982 -0.8379 0.8253
26.0896 -35.7335 -0.7723 0.8378
26.1373 -27.9788 -0.6683 0.8580
32.4854 -27.2891 -0.7406 0.8439
43.3731 -21.3396 -0.8437 0.8242
80.8902 -17.7298 -1.4455 0.7180
41.5312 16.9681 -0.7831 0.8357
26.7341 19.4646 -0.5772 0.8761
4.7639 5.6557 -0.1291 0.9709
3.7039 5.6622 -0.1181 0.9733
2.7979 5.6678 -0.1103 0.9750
1.2523 5.6773 -0.1015 0.9770
-0.8287 5.6720 -0.1001 0.9773
-2.3040 5.6608 -0.1067 0.9758
-4.0882 5.6308 -0.1215 0.9725
-5.3129 5.7176 -0.1362 0.9693
-6.7804 5.7267 -0.1549 0.9651
-8.7191 5.7202 -0.1820 0.9591
-11.4318 5.6623 -0.2227 0.9502
-16.2822 5.7442 -0.3014 0.9333
-26.0518 5.7828 -0.4658 0.8987
-61.5473 6.0325 -1.0795 0.7808
-27.7242 -0.6385 -0.4841 0.8950
-66.9237 -37.0782 -1.3355 0.7363
-11.6701 -23.4827 -0.4577 0.9004
-8.8143 -24.8790 -0.4607 0.8998
-6.6442 -29.7455 -0.5320 0.8852
-6.2357 -62.7609 -1.1009 0.7770
23.4260 -86.9569 -1.5719 0.6975
23.1389 -41.8954 -0.8354 0.8257
26.0872 -36.1321 -0.7779 0.8367
26.1355 -28.2768 -0.6721 0.8572
32.1343 -27.2870 -0.7358 0.8448
43.4846 -21.6824 -0.8481 0.8233
68.7471 1.4004 -1.2002 0.7595
44.0139 6.2518 -0.7760 0.8371
20.5349 5.5028 -0.3711 0.9185
30.4103 16.7429 -0.6059 0.8703
26.7327 19.2469 -0.5750 0.8765
6.0976 5.6208 -0.1448 0.9674
3.7469 5.6620 -0.1185 0.9732
1.2839 5.6771 -0.1016 0.9770
-0.7982 5.6734 -0.1000 0.9773
-1.5077 5.6562 -0.1022 0.9769
-2.2689 5.6606 -0.1064 0.9759
-4.0425 5.6306 -0.1210 0.9727
-6.7072 5.7262 -0.1539 0.9653
-11.2793 5.6617 -0.2203 0.9508
-16.0564 5.7608 -0.2978 0.9340
-61.5452 6.3629 -1.0800 0.7807
-29.7401 -0.5267 -0.5192 0.8878
-63.7328 -16.8974 -1.1509 0.7681
-66.5870 -36.4302 -1.3248 0.7381
-69.8938 -50.0401 -1.5004 0.7090
-14.6825 -22.0591 -0.4625 0.8994
-6.8343 -29.8496 -0.5345 0.8847
-6.1873 -59.0782 -1.0368 0.7885
21.2844 -53.5126 -1.0052 0.7942
26.0847 -36.5365 -0.7836 0.8356
26.1336 -28.5782 -0.6760 0.8565
68.6010 1.0325 -1.1976 0.7600
44.0124 6.0130 -0.7754 0.8372
3.7902 5.6617 -0.1189 0.9731
2.0607 5.6723 -0.1053 0.9761
0.6103 5.6812 -0.0997 0.9774
-0.0780 5.6855 -0.0992 0.9775
-2.2340 5.6604 -0.1062 0.9759
-8.5331 5.7289 -0.1794 0.9597
-88.7342 9.6511 -1.5580 0.6997
-29.6689 -0.3677 -0.5179 0.8881
-63.7389 -16.5368 -1.1494 0.7684
-65.1034 -46.0887 -1.3923 0.7268
-6.8494 -29.2010 -0.5235 0.8869
-6.1979 -56.2887 -0.9885 0.7973
23.3011 -90.3049 -1.6279 0.6886
18.2610 -46.6312 -0.8741 0.8184
22.5118 -41.8041 -0.8288 0.8270
26.0822 -36.9468 -0.7894 0.8345
26.1317 -28.8831 -0.6799 0.8557
68.5645 0.6673 -1.1968 0.7601
44.0110 5.7745 -0.7748 0.8373
21.4794 5.5118 -0.3871 0.9151
43.9902 17.1593 -0.8242 0.8279
31.1818 16.7381 -0.6177 0.8680
26.7301 18.8168 -0.5706 0.8774
4.9194 5.6547 -0.1308 0.9705
2.0948 5.6721 -0.1055 0.9761
1.3475 5.6767 -0.1018 0.9769
0.6408 5.6810 -0.0998 0.9774
-0.7371 5.6763 -0.0999 0.9774
-1.4433 5.6558 -0.1019 0.9769
-5.1445 5.7166 -0.1342 0.9697
-6.5635 5.7253 -0.1520 0.9658
-15.5887 5.7808 -0.2902 0.9356
-24.3965 5.8252 -0.4378 0.9045
38.4339 -23.0770 -2.3494 0.8356
45.6121 -14.0736 -2.5016 0.8260
46.9751 -8.4778 -2.5016 0.8260
44.1056 8.1915 -2.3510 0.8355
21.0228 6.6037 -1.1548 0.9155
21.1471 9.5731 -1.2165 0.9112
7.2657 5.7156 -0.4845 0.9636
5.6292 5.6504 -0.4180 0.9686
4.4165 5.6578 -0.3762 0.9717
1.0326 5.6786 -0.3025 0.9771
0.3366 5.6829 -0.2984 0.9775
-0.3499 5.6760 -0.2980 0.9775
-1.0438 5.6619 -0.3017 0.9772
-5.7264 5.7202 -0.4242 0.9681
-18.6199 5.7994 -1.0221 0.9249
-44.8474 -2.7051 -2.3546 0.8353
-44.0977 -8.0688 -2.3494 0.8356
-45.5709 -14.1817 -2.5012 0.8260
-37.5954 -29.4128 -2.5016 0.8260
-25.0787 -25.0394 -1.8573 0.8677
-17.6008 -22.4250 -1.4940 0.8921
-13.4414 -22.1853 -1.3594 0.9013
-7.8851 -25.1983 -1.3837 0.8996
14.1233 -45.5967 -2.5016 0.8260
18.3248 -40.9135 -2.3494 0.8356
23.1189 -38.4086 -2.3494 0.8356
23.8157 -30.5247 -2.0290 0.8563
27.2464 -27.3618 -2.0237 0.8567
38.3107 -23.2810 -2.3494 0.8356
45.5367 -14.3159 -2.5016 0.8260
46.9293 -8.7275 -2.5016 0.8260
44.7555 2.5802 -2.3494 0.8356
21.0212 6.4806 -1.1528 0.9157
21.6494 12.9920 -1.3232 0.9038
26.4409 20.5730 -1.7558 0.8744
4.4648 5.6575 -0.3777 0.9715
2.5771 5.6691 -0.3264 0.9754
1.0638 5.6784 -0.3028 0.9771
0.3669 5.6827 -0.2984 0.9774
-5.6655 5.7198 -0.4219 0.9683
-9.3113 5.6924 -0.5720 0.9572
-27.9775 5.2800 -1.4921 0.8922
-45.1312 2.9740 -2.3704 0.8343
-44.8743 -2.4673 -2.3553 0.8353
-40.9947 -24.4533 -2.5016 0.8260
-25.6354 -25.3245 -1.8885 0.8656
-13.5191 -22.0482 -1.3554 0.9016
-8.7445 -19.1016 -1.1010 0.9193
-7.9834 -25.0444 -1.3776 0.9001
-6.0276 -31.7075 -1.6915 0.8787
-3.0230 -44.9654 -2.3619 0.8348
2.5573 -47.6654 -2.5016 0.8260
8.2793 -47.0105 -2.5016 0.8260
13.8807 -45.6712 -2.5016 0.8260
18.1070 -41.0103 -2.3494 0.8356
22.9144 -38.5311 -2.3494 0.8356
26.9564 -27.3600 -2.0129 0.8574
34.1780 -27.1947 -2.2890 0.8395
29.3457 -18.0474 -1.8055 0.8711
45.4599 -14.5578 -2.5016 0.8260
47.6222 -3.2653 -2.5016 0.8260
21.7395 9.5640 -1.2447 0.9093
21.9099 12.9904 -1.3349 0.9030
24.7389 40.1068 -2.4696 0.8280
1.0951 5.6783 -0.3031 0.9771
0.3972 5.6825 -0.2985 0.9774
-0.2894 5.6754 -0.2978 0.9775
-1.6989 5.6436 -0.3089 0.9767
-2.4728 5.6412 -0.3228 0.9756
-3.3104 5.6003 -0.3409 0.9743
-18.1543 23.6551 -1.5627 0.8874
-5.6051 5.7194 -0.4197 0.9684
-7.1610 5.7290 -0.4806 0.9639
-12.1097 5.6022 -0.6993 0.9480
-17.9324 5.7952 -0.9877 0.9273
-27.8064 5.4010 -1.4845 0.8927
-45.1269 3.2147 -2.3710 0.8343
-44.8999 -2.2294 -2.3560 0.8352
-44.1810 -7.5995 -2.3494 0.8356
-45.5998 -13.6607 -2.4947 0.8264
-37.9061 -29.0114 -2.5016 0.8260
-26.2111 -25.6193 -1.9208 0.8635
-18.0568 -22.5088 -1.5123 0.8908
-8.1128 -24.9904 -1.3770 0.9001
-3.2449 -44.7122 -2.3494 0.8356
8.0292 -47.0538 -2.5016 0.8260
13.6376 -45.7444 -2.5016 0.8260
17.8887 -41.1060 -2.3494 0.8356
25.5959 -33.5357 -2.2110 0.8445
26.6695 -27.3582 -2.0023 0.8581
33.8047 -27.1924 -2.2737 0.8405
29.3320 -18.2547 -1.8106 0.8708
33.0591 -15.4008 -1.9113 0.8641
41.5479 7.0328 -2.2084 0.8447
5.8106 5.6493 -0.4247 0.9681
4.5628 5.6569 -0.3809 0.9713
24.9465 39.9661 -2.4691 0.8280
1.8585 5.6735 -0.3129 0.9764
1.1264 5.6781 -0.3034 0.9771
-0.2596 5.6866 -0.2983 0.9775
-0.9514 5.6662 -0.3011 0.9772
-3.2714 5.6022 -0.3400 0.9743
-7.0829 5.7285 -0.4774 0.9642
-9.1079 5.7019 -0.5631 0.9579
-17.6057 5.7932 -0.9713 0.9284
-27.4976 5.4929 -1.4696 0.8938
-45.1211 3.4556 -2.3716 0.8342
-44.2208 -7.3644 -2.3494 0.8356
-45.3160 -13.3134 -2.4753 0.8276
-41.2525 -24.0160 -2.5016 0.8260
-18.3561 -22.6343 -1.5273 0.8898
-8.3009 -25.1141 -1.3862 0.8995
-6.2006 -30.8269 -1.6479 0.8817
2.0502 -47.6899 -2.5016 0.8260
7.7789 -47.0959 -2.5016 0.8260
13.3943 -45.8162 -2.5016 0.8260
17.6699 -41.2005 -2.3494 0.8356
26.3855 -27.3565 -1.9919 0.8588
33.0081 -15.5911 -1.9131 0.8640
45.3025 -15.0404 -2.5016 0.8260
47.5847 -3.7715 -2.5016 0.8260
41.8352 6.8528 -2.2217 0.8438
26.4368 19.9010 -1.7342 0.8759
5.8724 5.6489 -0.4270 0.9679
4.6124 5.6566 -0.3825 0.9712
3.5704 5.6529 -0.3504 0.9736
2.6867 5.6685 -0.3287 0.9752
1.8919 5.6733 -0.3134 0.9763
-0.9207 5.6677 -0.3009 0.9773
-2.4031 5.6446 -0.3215 0.9757
-3.2327 5.6041 -0.3391 0.9744
-4.2027 5.5984 -0.3669 0.9723
-7.0057 5.7280 -0.4743 0.9644
-9.0085 5.7066 -0.5589 0.9582
-17.2897 5.7912 -0.9556 0.9296
-27.1950 5.5829 -1.4549 0.8948
-45.1140 3.6965 -2.3722 0.8342
-44.9471 -1.7527 -2.3574 0.8351
-44.2593 -7.1291 -2.3494 0.8356
-43.9443 -18.6395 -2.5016 0.8260
-38.2125 -28.6066 -2.5016 0.8260
-8.3689 -24.8755 -1.3755 0.9002
-6.3149 -30.5540 -1.6351 0.8825
-3.7203 -44.6752 -2.3494 0.8356
1.7966 -47.7001 -2.5016 0.8260
13.1504 -45.8868 -2.5016 0.8260
25.9904 -34.8141 -2.2769 0.8403
46.7331 -9.7235 -2.5016 0.8260
41.8338 6.6244 -2.2197 0.8440
18.8846 5.3849 -1.0291 0.9244
22.7017 9.5581 -1.2909 0.9060
5.9348 5.6485 -0.4294 0.9677
4.6625 5.6563 -0.3842 0.9711
2.7236 5.6682 -0.3296 0.9751
1.9254 5.6731 -0.3140 0.9763
1.1892 5.6777 -0.3040 0.9770
-0.1990 5.6862 -0.2982 0.9775
-3.1942 5.6060 -0.3381 0.9745
-4.1563 5.5983 -0.3654 0.9725
-5.4280 5.7183 -0.4132 0.9689
-6.9297 5.7276 -0.4712 0.9646
-8.9105 5.7112 -0.5547 0.9585
-11.6272 5.6058 -0.6765 0.9496
-16.9835 5.7893 -0.9404 0.9307
-44.2966 -6.8937 -2.3494 0.8356
-44.0428 -18.4056 -2.5016 0.8260
-38.3640 -28.4031 -2.5016 0.8260
-32.5551 -30.8201 -2.3494 0.8356
-14.1687 -22.0416 -1.3732 0.9004
-8.4856 -24.7854 -1.3730 0.9004
-3.6790 -41.5087 -2.1839 0.8463
1.5429 -47.7090 -2.5016 0.8260
7.2775 -47.1759 -2.5016 0.8260
12.9062 -45.9561 -2.5016 0.8260
17.0018 -40.8361 -2.3182 0.8376
25.9880 -35.1998 -2.2930 0.8392
26.2433 -27.7945 -2.0033 0.8580
30.6270 -25.4514 -2.0870 0.8526
37.6783 -24.2911 -2.3494 0.8356
32.9377 -15.9884 -1.9188 0.8636
21.0536 8.7326 -1.1945 0.9127
21.1068 11.9150 -1.2702 0.9075
26.4340 19.4620 -1.7203 0.8768
3.6613 5.6625 -0.3534 0.9734
1.9591 5.6729 -0.3145 0.9762
1.2207 5.6775 -0.3043 0.9770
0.5188 5.6818 -0.2990 0.9774
-0.8593 5.6705 -0.3006 0.9773
-1.5686 5.6429 -0.3069 0.9768
-3.1559 5.6079 -0.3372 0.9746
-4.1102 5.5982 -0.3640 0.9726
-5.3702 5.7180 -0.4111 0.9691
-8.8141 5.7157 -0.5506 0.9588
-11.4855 5.6130 -0.6700 0.9501
-16.6873 5.7875 -0.9256 0.9317
-26.1189 5.6521 -1.4005 0.8985
-44.3326 -6.6580 -2.3494 0.8356
-44.1969 -12.2222 -2.4032 0.8322
-41.6303 -23.3549 -2.5016 0.8260
-38.5145 -28.1987 -2.5016 0.8260
-32.7185 -30.6466 -2.3494 0.8356
-18.9527 -22.6226 -1.5467 0.8885
-11.3781 -23.2039 -1.3544 0.9017
-8.6448 -24.8191 -1.3774 0.9001
-6.5715 -30.1735 -1.6184 0.8837
-3.9016 -41.5113 -2.1851 0.8462
25.9856 -35.5911 -2.3095 0.8382
32.3596 -27.1835 -2.2149 0.8443
41.8310 6.1686 -2.2160 0.8442
19.7969 5.4180 -1.0757 0.9211
21.0515 8.6009 -1.1918 0.9129
21.1041 11.7659 -1.2663 0.9078
6.0618 5.6477 -0.4342 0.9674
2.7979 5.6678 -0.3313 0.9750
-0.1385 5.6858 -0.2981 0.9775
-1.5362 5.6428 -0.3065 0.9768
-2.2982 5.6466 -0.3195 0.9759
-3.1178 5.6097 -0.3363 0.9746
-6.7804 5.7267 -0.4651 0.9651
-8.7191 5.7202 -0.5465 0.9591
-27.7187 -0.6384 -1.4531 0.8949
-43.8227 -11.8683 -2.3794 0.8337
-44.2360 -17.9361 -2.5016 0.8260
-41.7539 -23.1332 -2.5016 0.8260
-32.8810 -30.4721 -2.3494 0.8356
-11.6189 -23.3796 -1.3682 0.9007
-8.7300 -24.6412 -1.3700 0.9006
-6.6186 -29.6309 -1.5912 0.8855
6.7754 -47.2507 -2.5016 0.8260
16.7896 -41.5671 -2.3494 0.8356
21.6736 -39.2424 -2.3494 0.8356
37.4178 -24.6905 -2.3494 0.8356
47.4938 -4.7826 -2.5016 0.8260
21.1015 11.6178 -1.2624 0.9080
21.1704 15.2422 -1.3671 0.9008
4.8152 5.6554 -0.3893 0.9707
2.0267 5.6725 -0.3157 0.9762
1.2839 5.6771 -0.3050 0.9770
0.5797 5.6814 -0.2993 0.9774
-0.1083 5.6856 -0.2980 0.9775
-3.0798 5.6116 -0.3355 0.9747
-11.2101 5.6269 -0.6574 0.9510
-16.0564 5.7608 -0.8940 0.9340
-45.0724 4.6599 -2.3747 0.8340
-44.4009 -6.1863 -2.3494 0.8356
-43.4409 -11.5175 -2.3553 0.8353
-41.8763 -22.9108 -2.5016 0.8260
-38.8122 -27.7874 -2.5016 0.8260
-33.0426 -30.2969 -2.3494 0.8356
-19.4684 -22.7424 -1.5689 0.8870
-8.8638 -24.6024 -1.3705 0.9006
-4.6695 -44.5860 -2.3494 0.8356
6.5242 -47.2860 -2.5016 0.8260
12.1717 -46.1561 -2.5016 0.8260
25.9807 -36.3908 -2.3433 0.8360
31.6646 -27.1792 -2.1870 0.8461
33.1696 -16.7600 -1.9477 0.8617
46.5158 -10.7152 -2.5016 0.8260
47.7286 0.7184 -2.5016 0.8260
41.8282 5.7145 -2.2125 0.8444
20.7952 5.4543 -1.1267 0.9175
21.0476 8.3393 -1.1865 0.9133
21.0989 11.4706 -1.2586 0.9083
4.8671 5.6551 -0.3910 0.9706
3.7902 5.6617 -0.3571 0.9731
2.8731 5.6673 -0.3330 0.9749
2.0607 5.6723 -0.3163 0.9761
1.3157 5.6769 -0.3054 0.9769
0.6103 5.6812 -0.2995 0.9774
-1.4719 5.6424 -0.3056 0.9769
-2.2284 5.6462 -0.3181 0.9760
-3.0421 5.6134 -0.3346 0.9748
-5.2001 5.7169 -0.4050 0.9695
-6.6349 5.7258 -0.4593 0.9655
-15.8511 5.7824 -0.8843 0.9346
-43.3932 -11.2582 -2.3494 0.8356
-44.4242 -17.4648 -2.5016 0.8260
-41.9975 -22.6880 -2.5016 0.8260
-38.9595 -27.5807 -2.5016 0.8260
-14.7593 -21.9209 -1.3850 0.8996
-11.7630 -23.0512 -1.3563 0.9015
-6.7658 -28.8443 -1.5527 0.8881
-4.9065 -44.5605 -2.3494 0.8356
11.9260 -46.2201 -2.5016 0.8260
16.3468 -41.7432 -2.3494 0.8356
26.0958 -28.8433 -2.0385 0.8557
31.3235 -27.1771 -2.1733 0.8470
47.4402 -5.2874 -2.5016 0.8260
21.0456 8.2093 -1.1839 0.9135
21.1635 14.8981 -1.3564 0.9015
3.8338 5.6614 -0.3583 0.9730
2.0948 5.6721 -0.3169 0.9761
0.6408 5.6810 -0.2996 0.9774
-0.7371 5.6763 -0.3000 0.9773
-1.4401 5.6433 -0.3052 0.9769
-2.1937 5.6461 -0.3174 0.9760
-3.9295 5.5979 -0.3584 0.9730
-8.4421 5.7332 -0.5348 0.9599
-10.9449 5.6403 -0.6453 0.9519
-15.5887 5.7808 -0.8713 0.9356
-23.4295 5.5943 -1.2624 0.9080
19.0495 -18.9278 -2.3494 0.8978
22.3473 -17.3964 -2.4777 0.8925
24.5143 -14.7191 -2.5016 0.8915
28.1392 -5.0784 -2.5016 0.8915
28.5460 -1.6525 -2.5016 0.8915
26.4026 4.9036 -2.3494 0.8978
21.3823 6.7166 -1.9608 0.9139
12.4272 5.6256 -1.1934 0.9467
21.5300 13.0766 -2.2038 0.9038
5.6292 5.6504 -0.6978 0.9685
4.4165 5.6578 -0.6279 0.9716
2.5409 5.6694 -0.5435 0.9754
-1.7603 5.6301 -0.5161 0.9766
-12.8147 5.7637 -1.2293 0.9451
-26.4144 4.8397 -2.3494 0.8978
-27.3022 -8.4965 -2.5016 0.8915
-24.4785 -14.7785 -2.5016 0.8915
-22.5205 -17.6190 -2.5016 0.8915
-19.0036 -18.9738 -2.3494 0.8978
-7.7938 -24.9066 -2.2832 0.9005
-1.7663 -28.5391 -2.5016 0.8915
1.6837 -28.5441 -2.5016 0.8915
5.1091 -28.1336 -2.5016 0.8915
8.4602 -27.3135 -2.5016 0.8915
11.6881 -26.0958 -2.5016 0.8915
16.8780 -21.6326 -2.4005 0.8957
22.1481 -17.4312 -2.4659 0.8930
24.4356 -14.8493 -2.5016 0.8915
26.0462 -11.7983 -2.5016 0.8915
27.2775 -8.5755 -2.5016 0.8915
28.5368 -1.8043 -2.5016 0.8915
27.6653 1.5949 -2.4244 0.8947
26.4283 4.7631 -2.3494 0.8978
12.6025 5.6245 -1.2074 0.9461
21.6494 12.9920 -2.2090 0.9036
21.4947 16.7244 -2.3827 0.8964
5.6890 5.6500 -0.7015 0.9683
3.4377 5.6401 -0.5779 0.9738
1.7921 5.6740 -0.5206 0.9764
1.0638 5.6784 -0.5054 0.9771
0.3669 5.6827 -0.4982 0.9774
-4.4218 5.6986 -0.6310 0.9715
-5.6655 5.7198 -0.7043 0.9682
-9.3113 5.6924 -0.9548 0.9571
-26.3832 4.9791 -2.3490 0.8978
-26.8136 -1.4743 -2.3494 0.8978
-26.1422 -11.5840 -2.5016 0.8915
-24.5568 -14.6481 -2.5016 0.8915
-16.6922 -21.0360 -2.3494 0.8978
-13.4368 -21.9138 -2.2489 0.9019
-7.9184 -24.8405 -2.2810 0.9006
-5.0151 -26.3816 -2.3494 0.8978
-1.9180 -28.5293 -2.5016 0.8915
1.5319 -28.5527 -2.5016 0.8915
4.9595 -28.1604 -2.5016 0.8915
8.3148 -27.3581 -2.5016 0.8915
11.5492 -26.1576 -2.5016 0.8915
14.6154 -24.5762 -2.5016 0.8915
18.8471 -19.1293 -2.3494 0.8978
24.3564 -14.9790 -2.5016 0.8915
27.2315 -8.7205 -2.5016 0.8915
28.0836 -5.3774 -2.5016 0.8915
28.5268 -1.9560 -2.5016 0.8915
28.4855 1.4903 -2.4956 0.8918
26.4533 4.6226 -2.3494 0.8978
12.7842 5.6242 -1.2219 0.9455
21.9099 12.9904 -2.2285 0.9028
5.7495 5.6496 -0.7052 0.9682
4.5136 5.6572 -0.6332 0.9714
2.6134 5.6689 -0.5461 0.9752
1.8252 5.6737 -0.5214 0.9764
0.3972 5.6825 -0.4984 0.9774
-0.9821 5.6648 -0.5030 0.9772
-1.6952 5.6313 -0.5145 0.9767
-3.3017 5.5856 -0.5677 0.9743
-11.9305 5.5194 -1.1501 0.9486
-17.9324 5.7952 -1.6488 0.9271
-26.8211 -1.3317 -2.3494 0.8978
-27.3910 -8.2057 -2.5016 0.8915
-8.8214 -19.0019 -1.8329 0.9193
-2.0697 -28.5187 -2.5016 0.8915
1.3800 -28.5604 -2.5016 0.8915
8.1693 -27.4019 -2.5016 0.8915
16.7361 -21.9276 -2.4134 0.8952
18.7451 -19.2292 -2.3494 0.8978
21.7716 -17.5130 -2.4445 0.8939
28.0546 -5.5266 -2.5016 0.8915
28.5160 -2.1076 -2.5016 0.8915
28.5220 1.3402 -2.4981 0.8917
12.9703 5.6240 -1.2368 0.9448
22.1752 12.9888 -2.2484 0.9020
21.6634 16.4888 -2.3819 0.8964
5.8106 5.6493 -0.7090 0.9680
2.6500 5.6687 -0.5475 0.9752
1.8585 5.6735 -0.5223 0.9763
1.1264 5.6781 -0.5064 0.9770
0.4276 5.6824 -0.4985 0.9774
-2.4318 5.6289 -0.5365 0.9757
-3.2628 5.5875 -0.5661 0.9744
-4.2246 5.5656 -0.6113 0.9723
-5.5455 5.7191 -0.6970 0.9685
-7.0829 5.7285 -0.7970 0.9641
-9.1079 5.7019 -0.9401 0.9578
-11.8151 5.5424 -1.1418 0.9489
-17.6057 5.7932 -1.6215 0.9283
-26.3391 5.2615 -2.3499 0.8978
-26.8278 -1.1891 -2.3494 0.8978
-28.2053 -4.6972 -2.5016 0.8915
-27.4343 -8.0600 -2.5016 0.8915
-24.7112 -14.3861 -2.5016 0.8915
-22.7987 -17.2575 -2.5016 0.8915
-13.6974 -21.8149 -2.2536 0.9017
-10.9388 -23.2386 -2.2471 0.9020
1.2281 -28.5674 -2.5016 0.8915
8.0235 -27.4450 -2.5016 0.8915
11.2704 -26.2789 -2.5016 0.8915
14.3532 -24.7303 -2.5016 0.8915
16.6749 -22.0900 -2.4214 0.8948
18.6426 -19.3286 -2.3494 0.8978
24.1957 -15.2372 -2.5016 0.8915
25.8547 -12.2122 -2.5016 0.8915
28.5044 -2.2592 -2.5016 0.8915
28.5579 1.1897 -2.5007 0.8916
13.1609 5.6237 -1.2521 0.9442
22.4452 12.9871 -2.2687 0.9011
2.6867 5.6685 -0.5488 0.9751
1.8919 5.6733 -0.5232 0.9763
1.1578 5.6779 -0.5070 0.9770
0.4580 5.6822 -0.4987 0.9774
-0.2293 5.6864 -0.4979 0.9774
-0.9207 5.6677 -0.5024 0.9772
-3.2242 5.5895 -0.5645 0.9744
-4.1781 5.5657 -0.6089 0.9724
-5.4864 5.7187 -0.6933 0.9687
-7.0057 5.7280 -0.7917 0.9643
-9.0085 5.7066 -0.9330 0.9581
-26.3159 5.4025 -2.3504 0.8977
-26.8337 -1.0464 -2.3494 0.8978
-27.4768 -7.9140 -2.5016 0.8915
-26.3237 -11.1655 -2.5016 0.8915
-20.1321 -19.2632 -2.4377 0.8942
-17.0257 -20.7670 -2.3494 0.8978
-8.2907 -24.6430 -2.2747 0.9009
11.1305 -26.3385 -2.5016 0.8915
14.2216 -24.8062 -2.5016 0.8915
16.6133 -22.2534 -2.4296 0.8945
21.4198 -17.6085 -2.4259 0.8946
25.7894 -12.3496 -2.5016 0.8915
27.9942 -5.8246 -2.5016 0.8915
28.4919 -2.4107 -2.5016 0.8915
28.5749 1.0382 -2.5016 0.8915
21.9532 6.2599 -1.9972 0.9124
13.3564 5.6234 -1.2679 0.9435
22.7200 12.9854 -2.2895 0.9003
21.8294 16.2516 -2.3810 0.8965
1.1892 5.6777 -0.5075 0.9770
-0.1990 5.6862 -0.4978 0.9774
-3.1858 5.5914 -0.5630 0.9745
-5.4280 5.7183 -0.6898 0.9688
-8.9105 5.7112 -0.9260 0.9584
-11.5346 5.5612 -1.1203 0.9499
-16.9835 5.7893 -1.5698 0.9305
-26.2919 5.5433 -2.3508 0.8977
-26.7524 2.3353 -2.3494 0.8978
-26.8389 -0.9038 -2.3494 0.8978
-28.2537 -4.3970 -2.5016 0.8915
-22.9809 -17.0141 -2.5016 0.8915
-14.0517 -21.8596 -2.2735 0.9009
-5.5751 -26.2690 -2.3494 0.8978
0.9242 -28.5788 -2.5016 0.8915
4.3594 -28.2595 -2.5016 0.8915
7.7311 -27.5287 -2.5016 0.8915
10.9903 -26.3973 -2.5016 0.8915
14.0895 -24.8815 -2.5016 0.8915
18.4360 -19.5257 -2.3494 0.8978
24.0323 -15.4936 -2.5016 0.8915
27.9628 -5.9735 -2.5016 0.8915
28.5800 0.8862 -2.5016 0.8915
13.5569 5.6232 -1.2841 0.9428
23.0000 12.9837 -2.3107 0.8994
8.4294 6.2061 -0.9158 0.9588
5.9979 5.6481 -0.7208 0.9675
4.7129 5.6560 -0.6441 0.9709
3.6613 5.6625 -0.5899 0.9733
1.2207 5.6775 -0.5081 0.9770
0.5188 5.6818 -0.4992 0.9774
-0.1688 5.6860 -0.4977 0.9774
-4.0864 5.5658 -0.6041 0.9727
-6.8545 5.7271 -0.7815 0.9648
-8.8141 5.7157 -0.9191 0.9587
-16.6873 5.7875 -1.5453 0.9315
-26.2671 5.6842 -2.3513 0.8977
-26.8433 -0.7609 -2.3494 0.8978
-26.4409 -10.8849 -2.5016 0.8915
-24.9375 -13.9901 -2.5016 0.8915
-23.0711 -16.8916 -2.5016 0.8915
-17.2455 -20.5848 -2.3494 0.8978
-14.2313 -21.8822 -2.2837 0.9005
-11.3009 -23.0466 -2.2457 0.9021
-8.5378 -24.5120 -2.2709 0.9010
-5.7146 -26.2390 -2.3494 0.8978
7.5846 -27.5695 -2.5016 0.8915
10.8497 -26.4554 -2.5016 0.8915
13.9569 -24.9561 -2.5016 0.8915
16.4887 -22.5837 -2.4464 0.8938
18.3319 -19.6235 -2.3494 0.8978
21.0884 -17.7152 -2.4096 0.8953
25.6566 -12.6231 -2.5016 0.8915
26.9901 -9.4413 -2.5016 0.8915
28.4647 -2.7135 -2.5016 0.8915
21.5005 11.9869 -2.1536 0.9059
1.9928 5.6727 -0.5260 0.9761
0.5492 5.6816 -0.4994 0.9773
-0.1385 5.6858 -0.4976 0.9774
-2.2924 5.6323 -0.5320 0.9759
-3.1097 5.5952 -0.5600 0.9746
-6.7804 5.7267 -0.7765 0.9650
-8.7191 5.7202 -0.9123 0.9590
-26.2416 5.8249 -2.3517 0.8977
-26.8470 -0.6183 -2.3494 0.8978
-28.2988 -4.0963 -2.5016 0.8915
-26.4984 -10.7442 -2.5016 0.8915
-25.0116 -13.8573 -2.5016 0.8915
-23.1606 -16.7687 -2.5016 0.8915
-20.9289 -19.3957 -2.4964 0.8917
-17.3547 -20.4928 -2.3494 0.8978
-8.6611 -24.4466 -2.2691 0.9011
0.6204 -28.5870 -2.5016 0.8915
7.4379 -27.6094 -2.5016 0.8915
18.2273 -19.7207 -2.3494 0.8978
23.8662 -15.7483 -2.5016 0.8915
25.5891 -12.7593 -2.5016 0.8915
26.9395 -9.5846 -2.5016 0.8915
27.8977 -6.2704 -2.5016 0.8915
23.3286 6.2514 -2.1130 0.9076
6.0976 5.6208 -0.7255 0.9672
4.8152 5.6554 -0.6498 0.9706
-1.5034 5.6403 -0.5107 0.9768
-3.0719 5.5971 -0.5586 0.9747
-5.2562 5.7173 -0.6795 0.9693
-26.2153 5.9655 -2.3522 0.8977
-26.7117 2.7616 -2.3494 0.8978
-26.8499 -0.4755 -2.3494 0.8978
-28.3202 -3.9458 -2.5016 0.8915
-27.6388 -7.3279 -2.5016 0.8915
-26.5552 -10.6031 -2.5016 0.8915
-25.0849 -13.7241 -2.5016 0.8915
-23.2494 -16.6453 -2.5016 0.8915
-21.0507 -19.3015 -2.4987 0.8917
-17.4635 -20.4002 -2.3494 0.8978
-14.5953 -21.9281 -2.3046 0.8996
-8.7842 -24.3813 -2.2673 0.9012
-2.8575 -27.2850 -2.4002 0.8957
0.4683 -28.5899 -2.5016 0.8915
3.9082 -28.3254 -2.5016 0.8915
7.2912 -27.6485 -2.5016 0.8915
16.3825 -22.9467 -2.4667 0.8930
18.1222 -19.8174 -2.3494 0.8978
20.7770 -17.8339 -2.3955 0.8959
23.7821 -15.8750 -2.5016 0.8915
27.8640 -6.4187 -2.5016 0.8915
28.4342 -3.0161 -2.5016 0.8915
14.1790 5.6179 -1.3343 0.9406
8.5273 6.0709 -0.9158 0.9588
4.8671 5.6551 -0.6528 0.9705
3.7902 5.6617 -0.5961 0.9730
2.0607 5.6723 -0.5280 0.9761
-0.0780 5.6855 -0.4975 0.9774
-0.7676 5.6748 -0.5010 0.9773
-1.4717 5.6418 -0.5101 0.9769
-2.2228 5.6321 -0.5297 0.9760
-3.0343 5.5989 -0.5572 0.9748
-3.9514 5.5659 -0.5972 0.9730
-6.6349 5.7258 -0.7667 0.9654
-8.5331 5.7289 -0.8992 0.9596
-15.8511 5.7824 -1.4762 0.9345
-26.8520 -0.3328 -2.3494 0.8978
-27.6774 -7.1808 -2.5016 0.8915
-21.1722 -19.2067 -2.5009 0.8916
-17.5717 -20.3071 -2.3494 0.8978
-11.6627 -22.8547 -2.2448 0.9021
-2.9391 -26.6928 -2.3494 0.8978
0.3163 -28.5920 -2.5016 0.8915
3.7575 -28.3458 -2.5016 0.8915
7.1440 -27.6869 -2.5016 0.8915
13.5572 -25.1755 -2.5016 0.8915
16.3316 -23.1346 -2.4775 0.8925
18.0166 -19.9135 -2.3494 0.8978
20.6284 -17.8977 -2.3894 0.8961
25.4519 -13.0308 -2.5016 0.8915
26.8361 -9.8706 -2.5016 0.8915
28.5924 0.2783 -2.5016 0.8915
20.5195 5.2655 -1.8534 0.9185
8.5595 6.0255 -0.9158 0.9588
0.6408 5.6810 -0.5002 0.9773
-0.0478 5.6853 -0.4974 0.9774
-0.7371 5.6763 -0.5008 0.9773
-1.4401 5.6433 -0.5095 0.9769
-2.1882 5.6319 -0.5286 0.9760
-2.9969 5.6008 -0.5557 0.9748
-3.9071 5.5659 -0.5949 0.9731
-6.5635 5.7253 -0.7620 0.9656
-8.4421 5.7332 -0.8928 0.9599
-22.5120 5.3752 -2.0249 0.9113
17.4674 -10.4880 -2.5016 0.9212
18.6033 -8.3079 -2.5016 0.9212
19.4685 -6.0070 -2.5016 0.9212
20.0502 -3.6186 -2.5016 0.9212
20.3136 1.2795 -2.4991 0.9212
18.2551 5.7343 -2.3494 0.9258
17.4351 7.8927 -2.3499 0.9258
9.2998 5.6484 -1.3360 0.9571
4.4165 5.6578 -0.8813 0.9715
3.3988 5.6436 -0.8089 0.9738
2.5409 5.6694 -0.7628 0.9753
1.7590 5.6742 -0.7294 0.9763
1.0326 5.6786 -0.7087 0.9770
-1.7597 5.6283 -0.7241 0.9765
-2.5304 5.6096 -0.7556 0.9755
-5.7264 5.7202 -0.9938 0.9679
-7.3204 5.7300 -1.1414 0.9632
-11.7700 5.2938 -1.5846 0.9493
-18.2690 5.6901 -2.3494 0.9258
-19.0996 1.1566 -2.3494 0.9258
-19.4539 -6.0541 -2.5016 0.9212
-18.5832 -8.3529 -2.5016 0.9212
-17.4419 -10.5302 -2.5016 0.9212
-16.0468 -12.5542 -2.5016 0.9212
-12.5793 -16.0271 -2.5016 0.9212
-10.5478 -17.4094 -2.4993 0.9212
-6.0796 -19.4287 -2.4996 0.9212
-1.2586 -20.3352 -2.5016 0.9212
1.1997 -20.3388 -2.5016 0.9212
12.5328 -16.0634 -2.5016 0.9212
16.0103 -12.6006 -2.5016 0.9212
19.4363 -6.1104 -2.5016 0.9212
20.0307 -3.7251 -2.5016 0.9212
20.3335 -1.2856 -2.5016 0.9212
20.3349 1.1723 -2.5010 0.9212
18.2854 5.6372 -2.3494 0.9258
17.4742 7.7987 -2.3495 0.9258
9.4310 5.6597 -1.3505 0.9566
4.4648 5.6575 -0.8849 0.9714
-1.0129 5.6633 -0.7064 0.9771
-2.4954 5.6113 -0.7540 0.9756
-3.3318 5.5688 -0.7968 0.9742
-4.4218 5.6986 -0.8856 0.9714
-5.6655 5.7198 -0.9885 0.9681
-7.2402 5.7295 -1.1337 0.9635
-9.2019 5.6255 -1.3243 0.9575
-18.8027 3.5485 -2.3494 0.9258
-19.0932 1.2582 -2.3494 0.9258
-19.4858 -5.9506 -2.5016 0.9212
-14.4943 -14.3185 -2.5016 0.9212
-6.1815 -19.3916 -2.4990 0.9213
-1.3667 -20.3283 -2.5016 0.9212
5.9247 -19.4937 -2.5016 0.9212
12.4472 -16.1298 -2.5016 0.9212
19.4035 -6.2137 -2.5016 0.9212
20.0106 -3.8316 -2.5016 0.9212
20.3264 -1.3937 -2.5016 0.9212
20.3463 1.0645 -2.5016 0.9212
18.8490 3.2938 -2.3494 0.9258
18.3151 5.5398 -2.3494 0.9258
17.5146 7.7053 -2.3494 0.9258
9.5616 5.6691 -1.3649 0.9562
5.7495 5.6496 -0.9897 0.9680
2.6134 5.6689 -0.7665 0.9752
1.0951 5.6783 -0.7100 0.9770
0.3972 5.6825 -0.6994 0.9773
-0.2894 5.6754 -0.6978 0.9774
-0.9821 5.6648 -0.7059 0.9771
-1.6952 5.6313 -0.7221 0.9766
-11.7916 15.3644 -2.3780 0.9249
-5.6051 5.7194 -0.9833 0.9682
-9.1043 5.6326 -1.3145 0.9578
-11.5784 5.3564 -1.5664 0.9499
-18.7835 3.6484 -2.3494 0.9258
-19.0862 1.3596 -2.3494 0.9258
-20.3491 -1.0104 -2.5016 0.9212
-19.5172 -5.8469 -2.5016 0.9212
-18.6710 -8.1549 -2.5016 0.9212
-17.5529 -10.3442 -2.5016 0.9212
-16.1793 -12.3828 -2.5016 0.9212
-12.7491 -15.8924 -2.5016 0.9212
-10.7374 -17.3043 -2.5005 0.9212
-8.5232 -18.3595 -2.4853 0.9217
-6.2831 -19.3541 -2.4985 0.9213
-3.9113 -19.9952 -2.5016 0.9212
3.4271 -20.0838 -2.5016 0.9212
5.8209 -19.5249 -2.5016 0.9212
8.1300 -18.6818 -2.5016 0.9212
10.3208 -17.5666 -2.5016 0.9212
12.3613 -16.1958 -2.5016 0.9212
17.2978 -10.7652 -2.5016 0.9212
18.4684 -8.6036 -2.5016 0.9212
19.9900 -3.9379 -2.5016 0.9212
20.3187 -1.5018 -2.5016 0.9212
20.3517 0.9563 -2.5016 0.9212
18.8662 3.1935 -2.3494 0.9258
18.3443 5.4424 -2.3494 0.9258
5.8106 5.6493 -0.9951 0.9679
10.2713 16.4554 -2.3818 0.9248
2.6500 5.6687 -0.7683 0.9751
-0.2596 5.6866 -0.6990 0.9773
-2.4258 5.6148 -0.7510 0.9757
-3.2542 5.5728 -0.7924 0.9743
-11.4842 5.3871 -1.5575 0.9502
-18.1759 5.9808 -2.3494 0.9258
-20.3542 -0.9022 -2.5016 0.9212
-19.5480 -5.7430 -2.5016 0.9212
-14.6458 -14.1636 -2.5016 0.9212
-10.8319 -17.2512 -2.5011 0.9212
-6.3846 -19.3164 -2.4980 0.9213
-4.0176 -19.9741 -2.5016 0.9212
-1.5828 -20.3126 -2.5016 0.9212
0.8751 -20.3553 -2.5016 0.9212
8.0306 -18.7247 -2.5016 0.9212
12.2750 -16.2613 -2.5016 0.9212
14.1441 -14.6646 -2.5016 0.9212
15.8073 -12.8544 -2.5016 0.9212
17.2404 -10.8571 -2.5016 0.9212
18.4224 -8.7017 -2.5016 0.9212
19.9687 -4.0442 -2.5016 0.9212
20.3104 -1.6098 -2.5016 0.9212
20.3565 0.8480 -2.5016 0.9212
4.6124 5.6566 -0.8962 0.9710
2.6867 5.6685 -0.7702 0.9750
1.8919 5.6733 -0.7343 0.9762
-0.9207 5.6677 -0.7050 0.9771
-1.6309 5.6343 -0.7202 0.9766
-2.3912 5.6166 -0.7495 0.9757
-7.0057 5.7280 -1.1111 0.9642
-8.9135 5.6464 -1.2955 0.9584
-19.0707 1.5626 -2.3494 0.9258
-20.3587 -0.7939 -2.5016 0.9212
-19.5782 -5.6390 -2.5016 0.9212
-14.7209 -14.0856 -2.5016 0.9212
-6.4860 -19.2787 -2.4975 0.9213
-1.6908 -20.3039 -2.5016 0.9212
0.7668 -20.3597 -2.5016 0.9212
3.2133 -20.1192 -2.5016 0.9212
5.6129 -19.5857 -2.5016 0.9212
12.1884 -16.3263 -2.5016 0.9212
14.0659 -14.7396 -2.5016 0.9212
15.7387 -12.9383 -2.5016 0.9212
17.1824 -10.9486 -2.5016 0.9212
18.3759 -8.7995 -2.5016 0.9212
20.3016 -1.7177 -2.5016 0.9212
20.3607 0.7398 -2.5016 0.9212
18.8991 2.9927 -2.3494 0.9258
17.6352 7.4250 -2.3494 0.9258
5.9348 5.6485 -1.0060 0.9675
4.6625 5.6563 -0.9000 0.9709
3.5960 5.6270 -0.8199 0.9734
2.7236 5.6682 -0.7721 0.9750
1.1892 5.6777 -0.7123 0.9769
0.4884 5.6820 -0.7002 0.9773
-0.8900 5.6691 -0.7046 0.9771
-1.5989 5.6358 -0.7193 0.9767
-2.3567 5.6183 -0.7481 0.9757
-11.2988 5.4475 -1.5401 0.9507
-19.0621 1.6639 -2.3494 0.9258
-20.3626 -0.6857 -2.5016 0.9212
-20.1318 -3.1330 -2.5016 0.9212
-19.6080 -5.5348 -2.5016 0.9212
-17.7157 -10.0629 -2.5016 0.9212
-14.7956 -14.0071 -2.5016 0.9212
-13.0009 -15.6870 -2.5016 0.9212
-11.0170 -17.1386 -2.5016 0.9212
-8.8203 -18.2324 -2.4869 0.9216
-6.5872 -19.2405 -2.4970 0.9213
0.6586 -20.3635 -2.5016 0.9212
7.8310 -18.8091 -2.5016 0.9212
10.0393 -17.7290 -2.5016 0.9212
13.9874 -14.8142 -2.5016 0.9212
18.3289 -8.8971 -2.5016 0.9212
20.2922 -1.8257 -2.5016 0.9212
18.4287 5.1491 -2.3494 0.9258
16.7068 9.4311 -2.3556 0.9256
5.9979 5.6481 -1.0116 0.9673
3.6613 5.6625 -0.8279 0.9732
2.7606 5.6680 -0.7741 0.9749
0.5188 5.6818 -0.7005 0.9773
-0.1688 5.6860 -0.6985 0.9773
-0.8593 5.6705 -0.7042 0.9772
-1.5670 5.6373 -0.7184 0.9767
-3.1394 5.5787 -0.7860 0.9745
-4.0627 5.5334 -0.8429 0.9727
-6.8546 5.7271 -1.0967 0.9646
-8.7408 5.6681 -1.2791 0.9589
-16.6873 5.7875 -2.1687 0.9313
-20.3660 -0.5773 -2.5016 0.9212
-20.1482 -3.0259 -2.5016 0.9212
-16.4391 -12.0359 -2.5016 0.9212
-14.8698 -13.9282 -2.5016 0.9212
-13.0841 -15.6176 -2.5016 0.9212
-4.3357 -19.9075 -2.5016 0.9212
0.5503 -20.3667 -2.5016 0.9212
5.4043 -19.6443 -2.5016 0.9212
7.7309 -18.8504 -2.5016 0.9212
12.0141 -16.4550 -2.5016 0.9212
13.9084 -14.8883 -2.5016 0.9212
19.9017 -4.3621 -2.5016 0.9212
20.2822 -1.9335 -2.5016 0.9212
20.3674 0.5232 -2.5016 0.9212
16.7543 9.3408 -2.3553 0.9256
8.0602 5.8685 -1.2242 0.9606
1.9928 5.6727 -0.7383 0.9761
1.2523 5.6773 -0.7138 0.9768
-0.1385 5.6858 -0.6983 0.9773
-0.8287 5.6720 -0.7038 0.9772
-5.3129 5.7176 -0.9583 0.9690
-16.2822 5.7442 -2.1200 0.9328
-18.6799 4.1464 -2.3494 0.9258
-20.1640 -2.9187 -2.5016 0.9212
-19.6657 -5.3259 -2.5016 0.9212
-17.8217 -9.8739 -2.5016 0.9212
-16.5028 -11.9483 -2.5016 0.9212
-11.1987 -17.0204 -2.5016 0.9212
-6.7891 -19.1626 -2.4962 0.9213
0.4420 -20.3693 -2.5016 0.9212
7.6305 -18.8913 -2.5016 0.9212
11.9264 -16.5187 -2.5016 0.9212
13.8290 -14.9621 -2.5016 0.9212
15.5303 -13.1876 -2.5016 0.9212
18.2332 -9.0915 -2.5016 0.9212
19.8782 -4.4679 -2.5016 0.9212
20.2716 -2.0413 -2.5016 0.9212
18.4825 4.9528 -2.3494 0.9258
8.0705 5.8105 -1.2210 0.9607
6.0976 5.6208 -1.0183 0.9671
3.7469 5.6620 -0.8336 0.9730
2.8354 5.6675 -0.7781 0.9748
2.0267 5.6725 -0.7396 0.9760
1.2839 5.6771 -0.7147 0.9768
0.5797 5.6814 -0.7012 0.9772
-0.7982 5.6734 -0.7035 0.9772
-1.5034 5.6403 -0.7167 0.9768
-3.0639 5.5825 -0.7819 0.9747
-5.2562 5.7173 -0.9536 0.9692
-6.7072 5.7262 -1.0828 0.9651
-16.0564 5.7608 -2.0945 0.9336
-19.0331 1.9678 -2.3494 0.9258
-20.1792 -2.8116 -2.5016 0.9212
-19.6937 -5.2214 -2.5016 0.9212
-18.9216 -7.5551 -2.5016 0.9212
-17.8739 -9.7790 -2.5016 0.9212
-16.5661 -11.8604 -2.5016 0.9212
-15.0171 -13.7693 -2.5016 0.9212
-13.2495 -15.4776 -2.5016 0.9212
-9.1262 -18.1215 -2.4913 0.9215
-6.8897 -19.1230 -2.4957 0.9213
-4.5471 -19.8602 -2.5016 0.9212
-2.1222 -20.2633 -2.5016 0.9212
5.1952 -19.7007 -2.5016 0.9212
7.5299 -18.9316 -2.5016 0.9212
9.7552 -17.8869 -2.5016 0.9212
15.4600 -13.2701 -2.5016 0.9212
18.1846 -9.1883 -2.5016 0.9212
20.3718 0.3066 -2.5016 0.9212
17.7892 7.0483 -2.3494 0.9258
16.8479 9.1595 -2.3546 0.9256
6.8844 6.2787 -1.1440 0.9631
4.8671 5.6551 -0.9161 0.9704
3.7902 5.6617 -0.8366 0.9729
2.8731 5.6673 -0.7802 0.9747
2.0607 5.6723 -0.7410 0.9760
1.3157 5.6769 -0.7155 0.9768
-0.0780 5.6855 -0.6982 0.9773
-1.4717 5.6418 -0.7159 0.9768
-2.2172 5.6179 -0.7416 0.9760
-3.0264 5.5844 -0.7799 0.9747
-8.5072 5.7115 -1.2581 0.9595
-15.8511 5.7824 -2.0717 0.9343
-19.0224 2.0689 -2.3494 0.9258
-20.3726 -0.2525 -2.5016 0.9212
-20.1939 -2.7042 -2.5016 0.9212
-17.9257 -9.6838 -2.5016 0.9212
-16.6290 -11.7722 -2.5016 0.9212
-13.3316 -15.4070 -2.5016 0.9212
-11.3790 -16.9004 -2.5016 0.9212
-9.2294 -18.0862 -2.4931 0.9214
-6.9902 -19.0831 -2.4954 0.9214
2.6773 -20.1975 -2.5016 0.9212
7.4292 -18.9714 -2.5016 0.9212
13.6691 -15.1083 -2.5016 0.9212
15.3892 -13.3521 -2.5016 0.9212
19.1217 -7.0332 -2.5016 0.9212
19.8296 -4.6791 -2.5016 0.9212
20.3732 0.1983 -2.5016 0.9212
18.9720 2.4892 -2.3494 0.9258
18.5341 4.7560 -2.3494 0.9258
17.8264 6.9536 -2.3494 0.9258
16.8939 9.0685 -2.3543 0.9256
8.1066 5.7067 -1.2173 0.9608
6.9133 6.2381 -1.1433 0.9632
4.9194 5.6547 -0.9203 0.9702
2.9109 5.6671 -0.7823 0.9747
2.0948 5.6721 -0.7424 0.9759
1.3475 5.6767 -0.7164 0.9768
0.6408 5.6810 -0.7020 0.9772
-0.0478 5.6853 -0.6981 0.9773
-0.7371 5.6763 -0.7028 0.9772
-3.8890 5.5401 -0.8311 0.9731
-6.5635 5.7253 -1.0694 0.9655
-18.6114 4.4439 -2.3494 0.9258
12.4634 -9.7022 -2.5016 0.9380
13.5412 -8.1306 -2.5016 0.9380
14.4219 -6.4406 -2.5016 0.9380
15.5435 -2.8052 -2.5016 0.9380
15.6453 0.9855 -2.4829 0.9385
14.5843 2.7087 -2.3494 0.9417
14.1519 4.4454 -2.3494 0.9417
13.5135 6.1174 -2.3494 0.9417
12.6784 7.7004 -2.3494 0.9417
7.2657 5.7156 -1.4642 0.9633
3.3988 5.6436 -1.0434 0.9737
2.5409 5.6694 -0.9840 0.9752
1.0326 5.6786 -0.9142 0.9769
0.3366 5.6829 -0.9017 0.9772
-2.5240 5.5954 -0.9722 0.9754
-3.3603 5.5492 -1.0275 0.9741
-4.4492 5.6715 -1.1417 0.9712
-11.4259 5.1391 -1.9843 0.9505
-14.1626 4.4111 -2.3494 0.9417
-15.7383 0.9531 -2.4973 0.9381
-15.5367 -2.8429 -2.5016 0.9380
-7.5880 -2.3614 -1.2587 0.9683
-6.0808 -2.7333 -1.0559 0.9734
-8.1845 -13.5087 -2.5016 0.9380
-6.4980 -14.3961 -2.5016 0.9380
-4.7169 -15.0739 -2.5016 0.9380
-0.9757 -15.7645 -2.5016 0.9380
0.9300 -15.7672 -2.5016 0.9380
4.6733 -15.0875 -2.5016 0.9380
6.4563 -14.4148 -2.5016 0.9380
8.1454 -13.5323 -2.5016 0.9380
9.7158 -12.4529 -2.5016 0.9380
12.4117 -9.7684 -2.5016 0.9380
13.4978 -8.2025 -2.5016 0.9380
15.0676 -4.7370 -2.5016 0.9380
15.5284 -2.8878 -2.5016 0.9380
15.6747 0.9037 -2.4867 0.9384
14.5985 2.6311 -2.3494 0.9417
5.6890 5.6500 -1.2699 0.9680
4.4648 5.6575 -1.1415 0.9712
3.4377 5.6401 -1.0462 0.9736
2.5771 5.6691 -0.9863 0.9751
1.0638 5.6784 -0.9150 0.9769
0.3669 5.6827 -0.9019 0.9772
-0.3180 5.6471 -0.8958 0.9774
-1.0129 5.6633 -0.9112 0.9770
-2.4891 5.5972 -0.9702 0.9755
-5.6655 5.7198 -1.2751 0.9679
-9.1481 5.5926 -1.6982 0.9575
-14.1390 4.4864 -2.3494 0.9417
-14.5764 2.7509 -2.3494 0.9417
-15.7244 1.0362 -2.4959 0.9382
-15.7709 -0.8671 -2.5016 0.9380
-15.5516 -2.7602 -2.5016 0.9380
-6.0904 -2.6987 -1.0551 0.9734
-5.9467 -3.5472 -1.0967 0.9723
-12.4915 -9.6661 -2.5016 0.9380
-6.5745 -14.3613 -2.5016 0.9380
2.7395 -15.5553 -2.5016 0.9380
6.3796 -14.4490 -2.5016 0.9380
8.0733 -13.5754 -2.5016 0.9380
11.0852 -11.2512 -2.5016 0.9380
12.3596 -9.8342 -2.5016 0.9380
13.4540 -8.2741 -2.5016 0.9380
14.3526 -6.5936 -2.5016 0.9380
15.7577 -1.0804 -2.5016 0.9380
15.7037 0.8216 -2.4906 0.9383
14.1984 4.2947 -2.3494 0.9417
13.5778 5.9734 -2.3494 0.9417
7.3124 5.6274 -1.4614 0.9633
7.8487 12.7243 -2.3679 0.9412
1.8252 5.6737 -0.9440 0.9762
0.3972 5.6825 -0.9022 0.9772
-0.2894 5.6754 -0.9001 0.9772
-0.9821 5.6648 -0.9106 0.9770
-9.0647 5.6080 -1.6883 0.9578
-14.1149 4.5615 -2.3494 0.9417
-14.5616 2.8284 -2.3494 0.9417
-15.7752 -0.7833 -2.5016 0.9380
-15.5661 -2.6775 -2.5016 0.9380
