ply
format ascii 1.0
element vertex 1592
property float32 x
property float32 y
property float32 z
property float32 I
end_header
2.5841 5.6691 1.4384 0.9747
1.7991 5.6739 1.3742 0.9759
1.0711 5.6784 1.3341 0.9766
0.3745 5.6827 1.3148 0.9769
-1.0089 5.6912 1.3344 0.9766
-1.7375 5.6956 1.3748 0.9759
-2.5232 5.7005 1.4392 0.9747
-3.3997 5.7059 1.5334 0.9731
-5.6424 5.7196 1.8549 0.9676
-25.3387 20.1394 7.4726 0.8756
-32.1967 19.7816 8.7241 0.8563
-64.9205 -19.6184 15.6575 0.7570
-34.1127 -42.6896 12.6158 0.7991
-22.6277 -36.6139 9.9370 0.8380
-8.8647 -19.1807 4.8783 0.9169
-14.4604 -44.7880 10.8657 0.8243
18.9096 -43.3322 10.9151 0.8236
51.3487 -52.5997 16.9706 0.7395
51.4071 -31.9564 13.9745 0.7800
86.3003 14.6010 20.2071 0.6982
51.6132 15.3027 12.4285 0.8017
5.8173 5.6492 1.8721 0.9673
4.5691 5.6569 1.6788 0.9706
2.6560 5.6686 1.4452 0.9746
1.8646 5.6735 1.3788 0.9758
0.4343 5.6823 1.3157 0.9769
-0.9475 5.6908 1.3319 0.9766
-1.6723 5.6952 1.3704 0.9759
-2.4520 5.7000 1.4325 0.9748
-3.3189 5.7054 1.5238 0.9733
-4.3194 5.7115 1.6532 0.9710
-5.5247 5.7189 1.8358 0.9679
-24.9208 20.2368 7.4115 0.8765
-31.5271 19.8279 8.5984 0.8582
-66.6082 -19.3694 16.0147 0.7522
-58.7602 -25.0945 14.7512 0.7693
-34.7108 -42.5172 12.6716 0.7983
18.4851 -43.5997 10.9331 0.8233
51.3740 -32.6867 14.0578 0.7788
86.5803 13.7172 20.2379 0.6978
51.6096 14.7152 12.3899 0.8023
5.9374 5.6463 1.8916 0.9669
1.9306 5.6731 1.3835 0.9757
1.1946 5.6776 1.3395 0.9765
0.4942 5.6819 1.3167 0.9769
-0.1927 5.6862 1.3135 0.9769
-0.8863 5.6904 1.3296 0.9766
-1.6076 5.6948 1.3661 0.9760
-2.3814 5.6996 1.4261 0.9750
-3.2391 5.7049 1.5146 0.9734
-4.2257 5.7109 1.6402 0.9713
-5.4094 5.7182 1.8173 0.9682
-35.4555 -42.5126 12.7802 0.7967
-23.6975 -36.6073 10.0677 0.8361
-14.7645 -30.2647 7.7743 0.8709
-15.5015 -44.7817 10.9405 0.8232
51.4289 -54.9385 17.3738 0.7342
30.0392 16.7451 7.9398 0.8683
6.0458 5.6300 1.9073 0.9667
4.7673 5.6557 1.7077 0.9701
3.7076 5.6622 1.5625 0.9726
1.9970 5.6727 1.3884 0.9756
-0.1331 5.6858 1.3130 0.9769
-1.5433 5.6945 1.3621 0.9761
-23.8731 20.2304 7.2243 0.8794
-36.2134 -42.5079 12.8921 0.7951
-15.2813 -30.5090 7.8777 0.8693
17.7324 -44.3892 11.0355 0.8218
24.7306 -45.1956 11.8942 0.8094
55.5303 -47.5589 16.8794 0.7407
40.8100 16.1788 10.1351 0.8351
30.7849 16.7406 8.0901 0.8660
27.0448 24.6608 8.4498 0.8605
4.8690 5.6550 1.7228 0.9698
2.8758 5.6673 1.4672 0.9742
2.0639 5.6723 1.3935 0.9755
1.3192 5.6769 1.3455 0.9764
0.6142 5.6812 1.3193 0.9768
-0.0735 5.6854 1.3127 0.9769
-0.7645 5.6897 1.3254 0.9767
-3.0824 5.7039 1.4968 0.9737
-4.0426 5.7098 1.6152 0.9717
-5.1855 5.7168 1.7819 0.9688
-5.4101 2.7632 1.4025 0.9754
-18.4898 -27.2920 7.6107 0.8734
-16.2218 -31.5571 8.1917 0.8644
-16.5573 -44.7752 11.0213 0.8220
-10.3348 -43.4404 10.3089 0.8325
24.1169 -45.1919 11.8261 0.8104
54.1383 -47.3586 16.6061 0.7443
51.2720 -34.9320 14.3232 0.7752
51.5989 12.9740 12.2833 0.8038
27.0416 24.1441 8.3694 0.8617
4.9725 5.6544 1.7384 0.9696
3.8787 5.6611 1.5843 0.9722
2.9506 5.6668 1.4750 0.9741
1.3819 5.6765 1.3488 0.9763
0.6745 5.6808 1.3207 0.9768
-0.0140 5.6851 1.3125 0.9769
-2.1732 5.6983 1.4080 0.9753
-3.9531 5.7093 1.6032 0.9719
-30.6689 21.1310 8.5984 0.8582
-5.3391 2.7978 1.3916 0.9756
-29.7523 0.0048 6.8689 0.8850
-47.1819 -11.6011 11.2172 0.8192
-57.0261 -29.8594 14.8611 0.7678
-25.3572 -36.5971 10.2790 0.8330
-17.3225 -32.8474 8.5733 0.8586
-10.8160 -43.4375 10.3345 0.8321
23.5102 -45.1881 11.7600 0.8113
52.7924 -47.1664 16.3439 0.7478
51.5954 12.4000 12.2509 0.8043
46.0435 17.1466 11.3432 0.8173
33.0672 17.0942 8.5939 0.8583
27.0385 23.6371 8.2913 0.8629
5.0780 5.6538 1.7545 0.9693
1.4450 5.6761 1.3522 0.9762
0.0456 5.6847 1.3125 0.9769
-1.3525 5.6933 1.3510 0.9763
-2.1049 5.6979 1.4024 0.9754
-3.8649 5.7087 1.5916 0.9721
-4.9701 5.7155 1.7487 0.9694
-5.3160 2.8571 1.3933 0.9755
-25.8239 -36.4493 10.3129 0.8325
22.7525 -44.8735 11.6155 0.8134
51.4900 -46.9817 16.0922 0.7512
51.2018 -36.4775 14.5139 0.7725
51.5919 11.8290 12.2200 0.8047
27.0354 23.1393 8.2156 0.8641
5.1854 5.6531 1.7710 0.9690
4.0548 5.6601 1.6074 0.9718
2.2676 5.6710 1.4100 0.9752
1.5083 5.6757 1.3558 0.9762
0.7953 5.6801 1.3241 0.9767
0.1051 5.6843 1.3126 0.9769
-2.0372 5.6975 1.3969 0.9755
-2.8539 5.7025 1.4722 0.9742
-3.7779 5.7082 1.5803 0.9723
-4.8654 5.7149 1.7328 0.9697
-6.2067 5.7231 1.9491 0.9659
-27.6488 19.9168 7.8669 0.8695
-58.0174 -28.8462 14.9586 0.7664
-26.1252 -36.0677 10.2818 0.8329
-11.7860 -43.4315 10.3896 0.8313
22.6670 -45.8901 11.8165 0.8105
30.9276 -47.2655 13.0406 0.7930
51.5884 11.2608 12.1905 0.8051
47.7058 16.6364 11.6642 0.8127
35.0818 17.2141 9.0218 0.8518
26.4991 17.2404 7.2986 0.8783
4.1448 5.6595 1.6195 0.9716
1.5721 5.6753 1.3596 0.9761
0.8560 5.6797 1.3261 0.9767
0.1647 5.6840 1.3128 0.9769
-0.5209 5.6666 1.3137 0.9769
-2.7794 5.7021 1.4645 0.9743
-4.7625 5.7142 1.7174 0.9699
-67.0306 -14.2642 15.8217 0.7548
-65.2274 -22.3642 15.9195 0.7535
-26.1204 -35.2774 10.1339 0.8351
-13.5376 -32.3717 8.1008 0.8658
-12.6623 -44.7991 10.7479 0.8260
22.0553 -45.8552 11.7474 0.8115
51.4656 -48.9738 16.4016 0.7470
51.5208 -29.4535 13.7010 0.7838
49.3329 16.6263 12.0188 0.8076
36.0191 17.2083 9.2159 0.8488
26.5269 21.7582 7.9208 0.8686
5.4064 5.6517 1.8057 0.9684
17.1864 -53.3227 10.8900 0.7959
28.0073 -45.3696 10.3640 0.8047
41.4819 -51.9650 12.9246 0.7627
51.3321 -30.4379 11.6002 0.7841
55.5844 10.6063 10.9995 0.7941
51.6205 16.4887 10.5335 0.8019
7.0903 5.6296 1.7598 0.9638
4.3774 5.6581 1.3905 0.9713
3.3639 5.6394 1.2764 0.9736
2.5129 5.6695 1.2054 0.9750
0.3148 5.6830 1.1064 0.9771
-0.3719 5.6873 1.1079 0.9770
-1.0706 5.6915 1.1257 0.9767
-1.8030 5.6960 1.1613 0.9759
-3.4815 5.7064 1.2993 0.9731
-18.9217 23.9599 5.9345 0.8830
-67.5538 -67.6970 18.5899 0.6773
-21.2596 -35.2198 7.9966 0.8457
-16.4048 -36.4943 7.7775 0.8496
16.9582 -54.5656 11.1069 0.7923
19.2264 -42.8288 9.1254 0.8259
41.4750 -53.0874 13.0950 0.7599
51.3636 -51.5241 14.1417 0.7434
51.3277 -31.1664 11.6723 0.7829
51.6169 15.8937 10.4982 0.8025
36.4933 16.2677 7.7665 0.8498
27.9589 16.7579 6.3361 0.8756
5.6974 5.6500 1.5597 0.9678
3.4594 5.6637 1.2900 0.9733
1.7991 5.6739 1.1570 0.9760
1.0711 5.6784 1.1232 0.9767
0.3745 5.6827 1.1070 0.9771
-0.3121 5.6869 1.1071 0.9771
-1.0089 5.6912 1.1235 0.9767
-1.7375 5.6956 1.1575 0.9760
-5.6424 5.7196 1.5617 0.9678
-73.9640 -32.5078 15.7045 0.7195
-34.6600 -43.3745 10.7923 0.7975
-21.6274 -34.9952 7.9966 0.8457
-13.7747 -70.9849 14.0555 0.7448
18.8172 -43.1205 9.1451 0.8255
26.5821 -45.1500 10.1844 0.8078
41.4679 -54.2399 13.2714 0.7571
46.0834 -47.2062 12.8234 0.7643
66.3393 -53.2961 16.5410 0.7070
51.3231 -31.9042 11.7466 0.7817
62.3229 10.5443 12.2865 0.7729
37.3895 16.1999 7.9206 0.8470
5.8173 5.6492 1.5762 0.9675
4.5691 5.6569 1.4135 0.9708
3.5410 5.6632 1.2983 0.9732
2.6560 5.6686 1.2168 0.9748
1.8646 5.6735 1.1609 0.9760
0.4343 5.6823 1.1078 0.9770
-0.2524 5.6865 1.1064 0.9771
-4.3194 5.7115 1.3919 0.9712
-5.5247 5.7189 1.5456 0.9681
-7.0542 5.7283 1.7664 0.9636
-65.7496 -19.1198 13.3098 0.7565
-74.2521 -31.7106 15.6942 0.7196
-70.2708 -40.6320 15.7783 0.7184
-35.4069 -43.3699 10.8829 0.7960
-12.2630 -36.6641 7.5148 0.8542
-10.3715 -50.6069 10.0414 0.8102
15.8211 -54.9423 11.1137 0.7922
17.9237 -42.2754 8.9256 0.8294
25.8758 -45.0224 10.0939 0.8093
41.4606 -55.4240 13.4541 0.7542
45.0130 -47.0864 12.6620 0.7669
57.6541 -27.5676 12.4221 0.7707
51.6096 14.7152 10.4317 0.8036
38.4739 16.1932 8.1140 0.8436
5.9397 5.6485 1.5933 0.9672
4.6673 5.6563 1.4255 0.9706
3.6238 5.6627 1.3068 0.9730
2.7285 5.6682 1.2228 0.9747
1.9306 5.6731 1.1648 0.9759
-0.1927 5.6862 1.1059 0.9771
-0.8863 5.6904 1.1194 0.9768
-1.6076 5.6948 1.1502 0.9762
-3.2392 5.7049 1.2752 0.9736
-5.4094 5.7182 1.5301 0.9684
-68.7408 -38.7924 15.3427 0.7250
-14.8540 -30.4483 6.5853 0.8711
-12.6906 -36.6615 7.5411 0.8538
-10.9242 -50.6035 10.0629 0.8098
15.2475 -55.1146 11.1156 0.7921
17.7925 -43.2201 9.0852 0.8266
41.4532 -56.6412 13.6435 0.7513
54.0626 -45.3288 13.7137 0.7501
51.3164 -33.4102 11.9027 0.7792
56.1165 -27.5582 12.1523 0.7751
88.3424 13.0494 17.3584 0.6950
30.2166 16.8440 6.7244 0.8685
6.0649 5.6477 1.6109 0.9668
4.7673 5.6557 1.4378 0.9703
2.8018 5.6677 1.2290 0.9746
1.9970 5.6727 1.1690 0.9758
-0.8253 5.6900 1.1176 0.9768
-1.5433 5.6945 1.1468 0.9762
-2.3114 5.6992 1.1954 0.9753
-4.1334 5.7104 1.3703 0.9717
-5.2964 5.7175 1.5149 0.9687
-26.5175 -3.7752 5.2065 0.8966
-13.1212 -36.6589 7.5685 0.8533
-10.1853 -44.8954 8.9485 0.8290
52.6618 -45.1021 13.4775 0.7539
51.3117 -34.1776 11.9840 0.7778
54.5436 -27.4985 11.8734 0.7797
52.0532 13.6695 10.4612 0.8031
40.8101 16.1788 8.5333 0.8362
30.7848 16.7405 6.8115 0.8669
6.1928 5.6469 1.6291 0.9664
1.3192 5.6769 1.1329 0.9765
0.6142 5.6812 1.1107 0.9770
-1.4794 5.6941 1.1436 0.9763
-2.2420 5.6988 1.1904 0.9754
-5.1855 5.7168 1.5003 0.9690
-5.4090 2.7626 1.1806 0.9756
-29.9614 -0.3090 5.8242 0.8851
-26.6708 -3.5124 5.2290 0.8962
23.0305 -90.5905 18.1691 0.6833
16.6956 -43.0991 8.9842 0.8283
23.9989 -44.9708 9.9083 0.8124
51.3069 -34.9557 12.0677 0.7765
44.6319 17.1553 9.2944 0.8230
4.9725 5.6544 1.4636 0.9698
3.8787 5.6611 1.3339 0.9724
2.9506 5.6668 1.2419 0.9743
2.1312 5.6719 1.1778 0.9756
1.3819 5.6765 1.1356 0.9765
0.6745 5.6808 1.1120 0.9770
-0.0140 5.6851 1.1051 0.9771
-0.6999 5.6572 1.1080 0.9770
-1.4158 5.6937 1.1404 0.9764
-2.1732 5.6983 1.1855 0.9755
-6.4756 5.7248 1.6801 0.9654
-8.3253 5.7361 1.9652 0.9596
-5.3384 2.7975 1.1715 0.9757
-7.7940 2.9520 1.6200 0.9666
-13.9923 -36.6535 7.6262 0.8523
-10.8160 -43.4375 8.7012 0.8333
16.3904 -43.6634 9.0656 0.8269
23.4146 -45.0043 9.8611 0.8132
31.2662 -45.6658 10.7578 0.7981
51.3020 -35.7448 12.1540 0.7751
51.8774 -27.5321 11.4161 0.7872
52.0460 12.5083 10.4048 0.8040
33.3200 17.2250 7.2910 0.8583
26.5040 18.0448 6.2326 0.8775
6.4577 5.6453 1.6673 0.9657
3.9661 5.6606 1.3435 0.9722
1.4450 5.6761 1.1385 0.9764
0.0456 5.6847 1.1050 0.9771
-1.3525 5.6933 1.1375 0.9764
-2.1049 5.6979 1.1807 0.9756
-2.9293 5.7030 1.2462 0.9742
-3.8649 5.7087 1.3401 0.9723
-4.9701 5.7155 1.4723 0.9696
-66.9854 -15.7281 13.3747 0.7555
-59.9495 -30.5944 13.0828 0.7601
-24.4653 -34.5317 8.2262 0.8416
-11.2997 -43.4345 8.7238 0.8329
15.7930 -43.4497 8.9864 0.8283
22.8248 -45.0155 9.8106 0.8141
51.4778 -46.9706 13.5457 0.7528
51.2971 -36.5454 12.2428 0.7736
51.3475 -27.9440 11.3632 0.7880
22.1435 2.3282 4.3280 0.9133
33.9870 17.1209 7.3973 0.8564
6.5948 5.6444 1.6873 0.9652
2.2676 5.6710 1.1872 0.9754
0.1051 5.6843 1.1051 0.9771
-1.2896 5.6929 1.1346 0.9765
-2.8540 5.7025 1.2395 0.9744
-3.7779 5.7082 1.3306 0.9725
-4.8654 5.7149 1.4589 0.9699
-69.8523 -15.6312 13.9137 0.7470
-64.2185 -22.7727 13.2444 0.7576
-11.7860 -43.4315 8.7476 0.8325
22.1831 -44.9106 9.7366 0.8154
29.7917 -45.5295 10.5763 0.8011
41.4985 -49.2643 12.5207 0.7691
51.4718 -47.9626 13.6755 0.7507
51.2921 -37.3578 12.3343 0.7722
51.3432 -28.6427 11.4281 0.7870
51.6885 11.2827 10.2838 0.8061
35.0818 17.2141 7.5959 0.8528
6.7354 5.6436 1.7081 0.9648
3.1718 5.6508 1.2596 0.9739
2.3366 5.6706 1.1922 0.9753
1.5721 5.6753 1.1447 0.9763
0.8560 5.6797 1.1165 0.9769
-0.5209 5.6666 1.1061 0.9771
-1.2270 5.6925 1.1319 0.9766
-3.6922 5.7077 1.3214 0.9727
-7.7851 5.7328 1.8793 0.9614
-27.1608 -2.4249 5.3005 0.8948
-8.8552 -11.9598 2.8926 0.9412
-19.6352 -34.5562 7.7257 0.8505
-12.2754 -43.4303 8.7727 0.8320
30.6438 -90.1450 18.5072 0.6784
21.7329 -45.1849 9.7462 0.8152
41.4920 -50.3168 12.6771 0.7666
51.3388 -29.3495 11.4949 0.7859
51.5849 10.6953 10.2403 0.8068
26.4967 16.8465 6.1033 0.8799
5.4064 5.6517 1.5203 0.9686
4.2361 5.6589 1.3740 0.9716
26.8166 46.6247 10.4551 0.8032
37.1190 -46.4995 9.4236 0.7859
51.7271 -39.8032 10.3375 0.7677
63.5617 -27.9740 10.9990 0.7548
57.8581 -17.5159 9.5746 0.7828
55.4669 10.5839 8.9436 0.7956
51.6205 16.4887 8.5829 0.8030
36.4447 16.7058 6.3499 0.8501
27.3126 16.7619 5.0756 0.8783
5.5800 5.6507 1.2578 0.9683
4.3774 5.6581 1.1330 0.9714
2.5129 5.6695 0.9822 0.9752
1.0097 5.6788 0.9135 0.9769
0.3148 5.6830 0.9015 0.9772
-0.3719 5.6873 0.9027 0.9772
-2.5952 5.7009 0.9921 0.9750
-3.4815 5.7064 1.0587 0.9733
-5.7626 5.7204 1.2860 0.9677
-7.3667 5.7303 1.4782 0.9629
-86.1499 4.9977 13.6678 0.7051
-88.3769 -16.3845 14.2360 0.6949
-66.4062 -20.8289 11.0229 0.7544
-26.9940 -34.5162 6.9401 0.8374
-22.1031 -36.6171 6.7743 0.8410
-10.7863 -34.6452 5.7471 0.8633
-12.9179 -70.5111 11.3537 0.7480
13.7475 -44.2348 7.3367 0.8289
27.1951 -45.1041 8.3418 0.8079
36.2937 -46.4554 9.3371 0.7876
45.1725 -45.3136 10.1340 0.7717
51.6810 -31.3810 9.5763 0.7828
55.8367 3.2110 8.8583 0.7973
59.3607 10.6838 9.5529 0.7833
26.5198 20.6072 5.3194 0.8728
5.6974 5.6500 1.2709 0.9680
4.4725 5.6575 1.1422 0.9712
3.4594 5.6637 1.0511 0.9735
1.7991 5.6739 0.9428 0.9762
0.3745 5.6827 0.9020 0.9772
-0.3121 5.6869 0.9021 0.9772
-1.0089 5.6912 0.9154 0.9769
-1.7375 5.6956 0.9431 0.9762
-2.5232 5.7005 0.9874 0.9751
-7.2084 5.7293 1.4584 0.9634
-65.7967 -19.8832 10.8866 0.7570
-69.0186 -67.7309 15.3159 0.6760
-29.2334 -36.5834 7.4170 0.8272
-22.6277 -36.6139 6.8171 0.8400
-8.8607 -19.1721 3.3452 0.9180
-13.2616 -68.3407 11.0260 0.7543
13.3638 -44.6448 7.3810 0.8280
18.8859 -43.2777 7.4788 0.8259
25.7826 -43.7922 8.0488 0.8140
44.1441 -45.2196 10.0090 0.7742
51.4227 -31.9661 9.5900 0.7825
55.8331 2.6245 8.8529 0.7974
37.3895 16.1999 6.4539 0.8479
28.6278 16.7538 5.2536 0.8743
4.5691 5.6569 1.1517 0.9710
3.5410 5.6632 1.0579 0.9733
2.6560 5.6686 0.9915 0.9750
1.8646 5.6735 0.9459 0.9761
1.1327 5.6780 0.9170 0.9768
0.4343 5.6823 0.9026 0.9772
-0.2524 5.6865 0.9015 0.9772
-2.4520 5.7000 0.9828 0.9752
-3.3189 5.7054 1.0454 0.9736
-5.5247 5.7189 1.2594 0.9683
-9.1285 5.7411 1.7080 0.9573
-27.7437 -1.1585 4.3980 0.8936
-87.0304 -37.1678 14.9887 0.6816
-62.6677 -47.1359 12.4198 0.7279
-69.4666 -66.7567 15.2593 0.6769
-29.8634 -36.5796 7.4792 0.8259
-16.4215 -34.5758 6.0626 0.8564
-10.1365 -49.4605 7.9966 0.8151
13.0232 -45.2258 7.4541 0.8265
18.3179 -43.2053 7.4327 0.8269
51.3626 -42.1567 10.5243 0.7641
51.3210 -32.6530 9.6342 0.7817
56.2863 -11.6891 9.1051 0.7923
55.7880 -4.7047 8.8673 0.7971
55.8295 2.0385 8.8484 0.7975
55.8925 8.8552 8.9629 0.7952
51.6096 14.7152 8.4999 0.8047
29.3207 16.7496 5.3483 0.8722
5.9397 5.6485 1.2982 0.9673
1.1946 5.6776 0.9189 0.9768
-0.1927 5.6862 0.9011 0.9772
-0.8863 5.6904 0.9121 0.9769
-4.2257 5.7109 1.1252 0.9716
-5.4094 5.7182 1.2467 0.9686
-86.9132 42.1187 15.2969 0.6763
-64.5978 -47.5365 12.7030 0.7227
-69.8229 -65.7064 15.1856 0.6782
-18.3631 -28.3670 5.3521 0.8721
-16.5926 -34.0122 5.9939 0.8579
-11.9901 -34.6379 5.8055 0.8620
53.9350 -45.2218 11.1478 0.7520
51.3164 -33.4102 9.6985 0.7804
56.2782 -12.3036 9.1241 0.7919
55.7844 -5.2934 8.8751 0.7970
55.8259 1.4530 8.8449 0.7976
55.8677 8.2524 8.9446 0.7956
30.0392 16.7452 5.4470 0.8700
26.5118 19.2964 5.1935 0.8756
4.7673 5.6557 1.1716 0.9705
3.7076 5.6622 1.0720 0.9730
2.8018 5.6677 1.0014 0.9747
1.2567 5.6772 0.9210 0.9767
0.5541 5.6816 0.9041 0.9771
-4.1334 5.7104 1.1165 0.9719
-5.2964 5.7175 1.2344 0.9689
-6.7577 5.7265 1.4029 0.9648
-64.7477 -17.3661 10.6175 0.7622
-70.5454 -65.0068 15.1938 0.6781
-31.1561 -36.5717 7.6094 0.8232
-12.3845 -34.6006 5.8207 0.8617
-11.1703 -49.2373 7.9966 0.8151
14.5615 -54.8648 8.9906 0.7946
17.4205 -43.6083 7.4376 0.8268
24.2893 -44.3892 8.0143 0.8147
33.1402 -46.2920 9.0171 0.7941
53.0561 -45.4398 11.0640 0.7536
55.6617 -12.7809 9.0454 0.7935
55.8640 7.6548 8.9307 0.7958
51.5524 13.5380 8.4419 0.8058
30.7849 16.7406 5.5501 0.8677
26.5092 18.8729 5.1540 0.8765
6.1928 5.6469 1.3274 0.9666
4.8690 5.6550 1.1819 0.9702
3.7926 5.6617 1.0793 0.9728
2.8758 5.6673 1.0066 0.9746
2.0639 5.6723 0.9560 0.9759
1.3192 5.6769 0.9231 0.9767
0.6142 5.6812 0.9051 0.9771
-0.7645 5.6897 0.9093 0.9770
-1.4794 5.6941 0.9318 0.9765
-4.0426 5.7098 1.1081 0.9721
-5.1855 5.7168 1.2225 0.9692
-5.4084 2.7624 0.9619 0.9757
-17.5411 -34.1236 6.0769 0.8561
-10.3348 -43.4404 7.0723 0.8346
23.9419 -44.8638 8.0542 0.8139
41.4269 -46.1550 9.8230 0.7779
51.7550 -35.2610 9.9189 0.7760
74.2272 -27.6695 12.5467 0.7256
55.7771 -6.4742 8.8935 0.7966
22.1218 2.7956 3.5316 0.9137
51.5488 12.9614 8.4187 0.8063
31.5591 16.7358 5.6578 0.8653
6.3237 5.6461 1.3427 0.9663
2.1312 5.6719 0.9597 0.9758
1.3819 5.6765 0.9253 0.9766
-0.0140 5.6851 0.9004 0.9772
-0.6999 5.6572 0.9028 0.9772
-2.1732 5.6983 0.9659 0.9756
-3.0054 5.7034 1.0211 0.9742
-7.7934 2.9517 1.3199 0.9668
-88.0683 21.6843 14.3653 0.6926
-29.8782 0.0048 4.7322 0.8860
-67.0781 -16.4930 10.9406 0.7560
-88.6438 -33.5405 15.0112 0.6812
-65.4011 -45.0302 12.5764 0.7250
-32.4950 -36.5635 7.7476 0.8203
-25.3572 -36.5972 7.0518 0.8350
-10.8160 -43.4375 7.0899 0.8342
23.4618 -45.0949 8.0512 0.8139
51.7501 -36.0570 9.9898 0.7746
71.8791 -27.6551 12.1981 0.7321
55.7735 -7.0666 8.9043 0.7964
51.5453 12.3880 8.3964 0.8068
26.5041 18.0448 5.0784 0.8782
5.0780 5.6538 1.2036 0.9697
2.1991 5.6715 0.9634 0.9757
1.4450 5.6761 0.9277 0.9766
-7.0199 62.0737 9.8942 0.7765
-1.3525 5.6933 0.9268 0.9766
-2.1049 5.6979 0.9621 0.9757
-2.9293 5.7030 1.0154 0.9744
-3.8649 5.7087 1.0919 0.9725
-4.9701 5.7155 1.1996 0.9698
-8.1398 5.7350 1.5771 0.9605
-5.3150 2.8566 0.9557 0.9759
-88.0285 22.6550 14.3967 0.6920
-88.8087 -32.5437 14.9806 0.6818
-33.1834 -36.5593 7.8200 0.8188
-25.8239 -36.4493 7.0751 0.8345
-19.0311 -35.1891 6.3363 0.8504
-13.6361 -34.6278 5.8944 0.8601
-11.2997 -43.4345 7.1083 0.8338
16.0484 -44.1522 7.4406 0.8267
22.4943 -44.3642 7.8782 0.8175
30.3442 -45.3305 8.6398 0.8018
51.7763 -47.2430 11.1013 0.7529
69.5298 -27.5906 11.8478 0.7386
56.2283 -14.7852 9.2084 0.7902
55.7698 -7.6604 8.9160 0.7961
55.8531 5.8726 8.8950 0.7966
51.5418 11.8175 8.3752 0.8072
33.9870 17.1209 6.0274 0.8572
26.5016 17.6398 5.0422 0.8790
6.5948 5.6444 1.3749 0.9655
5.1854 5.6531 1.2150 0.9694
3.1027 5.6659 1.0231 0.9742
2.2676 5.6710 0.9673 0.9756
1.5083 5.6757 0.9301 0.9765
-1.2896 5.6929 0.9245 0.9766
-2.0372 5.6975 0.9583 0.9758
-2.8539 5.7025 1.0100 0.9745
-6.2067 5.7231 1.3372 0.9664
-7.9599 5.7339 1.5538 0.9610
-64.9704 -42.7558 12.3186 0.7298
-33.8845 -36.5550 7.8945 0.8172
-26.1252 -36.0677 7.0537 0.8350
-19.1608 -34.5591 6.2586 0.8521
-14.0558 -34.6252 5.9187 0.8596
-11.7859 -43.4315 7.1277 0.8334
15.9069 -45.2331 7.5943 0.8235
29.5318 -45.1322 8.5426 0.8038
38.7215 -45.9675 9.5194 0.7840
51.7917 -28.8929 9.3931 0.7865
56.7667 -15.5645 9.3228 0.7879
55.8494 5.2812 8.8851 0.7968
51.5884 11.2608 8.3632 0.8075
47.7058 16.6363 8.0021 0.8150
26.4991 17.2404 5.0071 0.8798
6.7354 5.6436 1.3918 0.9650
3.1718 5.6508 1.0264 0.9741
2.3366 5.6706 0.9714 0.9755
1.5721 5.6753 0.9327 0.9764
0.8560 5.6797 0.9097 0.9770
0.1647 5.6840 0.9006 0.9772
-3.6922 5.7077 1.0767 0.9728
-6.0769 5.7223 1.3220 0.9668
-10.1770 5.7475 1.8512 0.9538
-65.9436 -22.6098 11.0413 0.7540
-58.7687 -28.4560 10.3418 0.7676
-66.5301 -42.7905 12.5287 0.7259
-10.1657 -35.9662 5.9197 0.8595
-13.6861 -87.6870 14.0564 0.6981
15.1283 -44.5029 7.4447 0.8267
28.8583 -45.1281 8.4841 0.8050
51.3457 -38.2266 10.1386 0.7716
65.5547 -27.6162 11.2666 0.7497
55.8043 -2.0556 8.8445 0.7976
55.8458 4.6912 8.8763 0.7969
5.4064 5.6517 1.2388 0.9688
2.4062 5.6702 0.9756 0.9754
16.0540 -49.8093 6.4256 0.8099
19.7357 -42.7589 5.7824 0.8271
36.2809 -45.4496 7.1405 0.7911
51.2792 -39.4586 7.9446 0.7705
53.3645 -23.4861 7.1588 0.7906
55.9269 -9.7926 6.9714 0.7955
55.9342 -2.9510 6.8774 0.7979
55.8403 3.7984 6.8722 0.7981
36.4447 16.7058 4.9226 0.8508
27.4741 16.8610 3.9580 0.8782
7.0903 5.6296 1.1116 0.9642
5.5800 5.6507 0.9751 0.9685
3.3639 5.6394 0.8063 0.9739
2.5129 5.6695 0.7614 0.9753
-0.3719 5.6873 0.6998 0.9773
-1.8030 5.6960 0.7336 0.9762
-2.5952 5.7009 0.7691 0.9751
-18.9217 23.9599 3.7487 0.8842
-7.3667 5.7303 1.1459 0.9631
-12.9137 5.7643 1.7364 0.9446
-87.6895 -16.2570 10.9504 0.6981
-41.2391 -12.9350 5.3068 0.8401
-34.4328 -34.5058 5.9854 0.8216
-26.9940 -34.5162 5.3802 0.8381
-20.9058 -34.6337 4.9672 0.8496
-16.4048 -36.4943 4.9129 0.8511
-12.0278 -38.6328 4.9681 0.8495
-12.9179 -70.5111 8.8018 0.7491
16.5638 -53.2965 6.8527 0.7986
19.3277 -43.0542 5.7946 0.8268
45.2808 -45.4222 7.8750 0.7722
51.2739 -40.3165 8.0087 0.7688
51.6810 -31.3810 7.4238 0.7837
55.7628 -17.5212 7.1768 0.7901
51.6169 15.8937 6.6314 0.8044
36.4933 16.2677 4.9059 0.8513
5.6974 5.6500 0.9852 0.9682
4.4725 5.6575 0.8855 0.9714
3.4594 5.6637 0.8149 0.9736
2.5841 5.6691 0.7650 0.9752
1.7991 5.6739 0.7309 0.9763
0.3745 5.6827 0.6993 0.9773
-1.0089 5.6912 0.7097 0.9770
-2.5232 5.7005 0.7654 0.9752
-5.6424 5.7196 0.9865 0.9681
-7.2084 5.7293 1.1306 0.9636
-9.3464 5.7424 1.3469 0.9568
-88.5482 6.0680 10.8979 0.6993
-88.5868 -15.4654 11.0416 0.6960
-89.0447 -39.1358 11.9427 0.6757
-35.1573 -34.5013 6.0481 0.8199
-21.2674 -34.4128 4.9672 0.8496
13.7818 -46.0413 5.9010 0.8239
25.7712 -43.7727 6.2369 0.8149
44.1463 -45.2219 7.7597 0.7752
51.2686 -41.1885 8.0748 0.7672
29.2168 -18.1622 4.2235 0.8705
55.7495 -10.9698 6.9764 0.7953
55.8751 9.4534 6.9581 0.7958
37.3895 16.1999 5.0032 0.8486
28.7461 16.8231 4.0896 0.8744
26.5677 20.2017 4.0980 0.8741
5.8173 5.6492 0.9956 0.9678
1.8646 5.6735 0.7333 0.9762
0.4343 5.6823 0.6997 0.9773
-0.9475 5.6908 0.7084 0.9770
-1.6723 5.6952 0.7288 0.9764
-4.3194 5.7115 0.8793 0.9716
-7.0542 5.7283 1.1158 0.9640
-12.2102 5.7600 1.6577 0.9470
-65.8621 -19.1525 8.4218 0.7585
-89.6707 -38.2954 11.9722 0.6751
-35.8609 -34.4619 6.1068 0.8184
-17.3300 -36.4887 4.9599 0.8498
17.9929 -42.4388 5.6598 0.8305
25.1554 -43.7689 6.1985 0.8159
33.8959 -45.3115 6.9480 0.7961
43.2081 -45.1984 7.6776 0.7773
51.2631 -42.0751 8.1430 0.7655
55.8365 -18.8382 7.2355 0.7886
55.9233 -4.7161 6.8909 0.7976
51.6096 14.7152 6.5894 0.8055
29.3207 16.7496 4.1461 0.8728
26.5848 19.7787 4.0685 0.8750
5.9397 5.6485 1.0064 0.9675
2.7285 5.6682 0.7724 0.9750
1.9306 5.6731 0.7358 0.9761
1.1946 5.6776 0.7124 0.9769
-0.1927 5.6862 0.6986 0.9773
-0.8863 5.6904 0.7071 0.9771
-3.2391 5.7049 0.8055 0.9739
-5.4094 5.7182 0.9665 0.9688
-6.9041 5.7274 1.1014 0.9645
-11.8818 5.7580 1.6212 0.9482
-66.5998 -18.6128 8.4908 0.7568
-87.8607 -36.4391 11.6790 0.6816
-28.7879 -34.5179 5.5188 0.8343
-17.7405 -36.3653 4.9681 0.8495
14.3257 -51.7825 6.5969 0.8053
17.7609 -43.1433 5.7286 0.8286
24.5587 -43.7859 6.1641 0.8168
33.1582 -45.3070 6.8937 0.7975
53.9350 -45.2218 8.6421 0.7530
55.7839 -27.3948 7.6308 0.7784
55.9214 -12.2256 7.0285 0.7940
55.9197 -5.3062 6.8969 0.7974
39.6125 16.1862 5.2542 0.8416
30.0392 16.7451 4.2227 0.8706
1.9970 5.6727 0.7384 0.9761
1.2568 5.6772 0.7140 0.9768
-0.8253 5.6900 0.7060 0.9771
-1.5433 5.6945 0.7244 0.9765
-2.3114 5.6992 0.7551 0.9755
-6.7577 5.7265 1.0876 0.9649
-88.6282 -35.6742 11.7306 0.6804
-22.7577 -34.3613 5.0605 0.8470
-10.1853 -44.8955 5.6525 0.8307
14.0396 -52.8983 6.7200 0.8021
24.1418 -44.1197 6.1752 0.8165
32.4173 -45.2823 6.8379 0.7990
51.5109 -34.3103 7.5993 0.7792
52.0532 13.6695 6.6080 0.8050
40.8101 16.1788 5.3902 0.8378
30.7848 16.7405 4.3026 0.8683
26.6096 18.9445 4.0107 0.8767
6.1928 5.6469 1.0290 0.9668
3.7926 5.6617 0.8367 0.9729
2.8758 5.6673 0.7803 0.9747
-0.0735 5.6854 0.6981 0.9773
-1.4794 5.6941 0.7224 0.9766
-2.2420 5.6988 0.7519 0.9756
-5.1855 5.7168 0.9477 0.9694
-65.4362 -46.0720 9.8262 0.7243
-30.0265 -34.5071 5.6164 0.8317
-23.3990 -34.5382 5.1223 0.8452
-13.5550 -36.6562 4.7987 0.8543
-10.2082 -42.9083 5.4155 0.8372
13.6484 -53.6859 6.8015 0.7999
23.8271 -44.6487 6.2140 0.8155
31.6090 -45.1448 6.7667 0.8008
51.5061 -35.0914 7.6524 0.7779
53.9560 -27.9149 7.4591 0.7828
74.2907 -17.8799 9.3822 0.7350
55.9124 -6.4899 6.9113 0.7970
55.9541 0.2840 6.8704 0.7981
52.0496 13.0873 6.5898 0.8055
44.6319 17.1553 5.8710 0.8247
4.9725 5.6544 0.9245 0.9701
3.8787 5.6611 0.8426 0.9727
2.1312 5.6719 0.7440 0.9759
1.3819 5.6765 0.7173 0.9767
-0.0140 5.6851 0.6980 0.9773
-0.6999 5.6572 0.6999 0.9773
-2.1732 5.6983 0.7488 0.9757
-3.0054 5.7034 0.7916 0.9744
-5.0768 5.7162 0.9387 0.9697
-8.3253 5.7361 1.2414 0.9601
-7.7925 2.9514 1.0231 0.9670
-29.9065 0.0048 3.6721 0.8865
-72.9676 -38.2064 10.1132 0.7175
-23.9525 -34.5698 5.1640 0.8441
-13.9923 -36.6536 4.8173 0.8538
-10.1602 -40.8036 5.1630 0.8441
-10.8123 -87.1686 10.7850 0.7019
13.5524 -55.7469 7.0442 0.7936
15.9802 -42.5705 5.5831 0.8326
39.8532 -45.3483 7.4127 0.7840
50.4161 -45.0432 8.3009 0.7615
51.5012 -35.8836 7.7071 0.7765
52.0495 -27.6234 7.2351 0.7886
55.5336 -21.3662 7.3059 0.7868
55.9088 -7.0837 6.9196 0.7968
55.9505 -0.3021 6.8699 0.7981
52.0461 12.5083 6.5724 0.8060
46.0435 17.1466 6.0327 0.8204
33.3201 17.2250 4.6055 0.8597
26.6045 18.1132 3.9518 0.8784
5.0780 5.6538 0.9331 0.9698
0.0456 5.6847 0.6980 0.9774
-1.3525 5.6933 0.7185 0.9767
-2.1049 5.6979 0.7458 0.9758
-2.9293 5.7030 0.7872 0.9745
-4.9701 5.7155 0.9300 0.9699
-6.3396 5.7239 1.0487 0.9662
-8.1398 5.7350 1.2226 0.9607
-67.0639 -45.1471 9.9264 0.7219
-31.3050 -34.4898 5.7191 0.8289
-14.4328 -36.6509 4.8365 0.8532
21.8088 -43.0122 5.9213 0.8234
30.2144 -45.1365 6.6691 0.8034
39.0146 -45.3431 7.3447 0.7858
49.7004 -45.3488 8.2610 0.7625
51.2971 -36.5454 7.7334 0.7758
51.4472 -27.9983 7.1918 0.7897
73.8908 -19.4296 9.3811 0.7350
55.8234 -7.6677 6.9186 0.7969
55.8115 -0.8859 6.8536 0.7986
52.0854 5.4764 6.4305 0.8097
52.0425 11.9323 6.5558 0.8064
46.3741 16.7188 6.0528 0.8198
5.1854 5.6531 0.9419 0.9696
4.0548 5.6601 0.8549 0.9723
3.1027 5.6659 0.7932 0.9743
1.5083 5.6757 0.7211 0.9766
0.1051 5.6843 0.6981 0.9773
-6.3618 62.0697 7.6611 0.7777
-2.8539 5.7025 0.7830 0.9746
-3.7779 5.7082 0.8405 0.9728
-6.2067 5.7231 1.0366 0.9665
-7.9599 5.7339 1.2045 0.9612
-29.9889 -25.3963 4.8251 0.8535
-31.9989 -34.5207 5.7795 0.8272
-25.0354 -34.5632 5.2402 0.8420
-19.1608 -34.5591 4.8519 0.8528
-14.8770 -36.6481 4.8565 0.8527
-10.5968 -39.0496 4.9681 0.8495
18.4918 -83.6622 10.5204 0.7080
15.5795 -44.3019 5.7661 0.8276
15.9460 -32.2833 4.4211 0.8649
28.1163 -33.3778 5.3585 0.8387
48.6599 -45.3424 8.1665 0.7649
51.2921 -37.3578 7.7912 0.7744
51.8415 -28.9207 7.2888 0.7872
55.8670 -15.3178 7.1128 0.7918
55.9433 -1.4742 6.8713 0.7981
35.0818 17.2141 4.7981 0.8543
26.4991 17.2404 3.8817 0.8804
3.1718 5.6508 0.7957 0.9742
-0.5209 5.6666 0.6987 0.9773
-1.2270 5.6925 0.7150 0.9768
-1.9700 5.6971 0.7402 0.9760
-3.6922 5.7077 0.8347 0.9730
-4.7625 5.7142 0.9134 0.9705
-10.1770 5.7475 1.4351 0.9540
-13.9007 5.7704 1.8480 0.9411
-88.2392 24.6913 11.2505 0.6912
-72.5573 -35.1325 9.8983 0.7226
-11.0052 -38.9365 4.9681 0.8495
15.1457 -44.5541 5.7780 0.8273
20.4738 -42.5672 5.7997 0.8267
28.8583 -45.1281 6.5771 0.8058
27.5235 -33.3773 5.3119 0.8400
51.8371 -29.6344 7.3315 0.7861
55.7191 -15.9066 7.1148 0.7917
55.8977 -8.8746 6.9494 0.7961
55.9397 -2.0606 6.8732 0.7980
51.5849 10.6953 6.4685 0.8087
49.3329 16.6263 6.3921 0.8107
36.0192 17.2083 4.9014 0.8514
26.4967 16.8465 3.8553 0.8811
6.8794 5.6427 1.0925 0.9648
5.4064 5.6517 0.9603 0.9690
4.2361 5.6589 0.8679 0.9719
2.4062 5.6702 0.7563 0.9755
14.5690 -45.2020 4.1550 0.8264
27.9742 -45.3159 4.6592 0.8075
35.1725 -44.0611 4.9324 0.7974
46.0475 -45.2338 5.6472 0.7717
51.7271 -39.8032 5.7103 0.7695
49.8667 -21.9467 4.7666 0.8035
55.7205 -16.8688 5.0934 0.7916
55.8568 -9.7803 4.9612 0.7964
55.2128 10.5354 4.9176 0.7980
51.6205 16.4887 4.7410 0.8045
36.4447 16.7058 3.5075 0.8513
4.3774 5.6581 0.6259 0.9717
2.5129 5.6695 0.5426 0.9754
1.0097 5.6788 0.5046 0.9771
0.3148 5.6830 0.4980 0.9774
-0.3719 5.6873 0.4986 0.9774
-1.0706 5.6915 0.5067 0.9770
-1.8030 5.6960 0.5227 0.9763
-2.5952 5.7009 0.5480 0.9752
-5.7626 5.7204 0.7104 0.9679
-7.3667 5.7303 0.8165 0.9632
-9.5720 5.7438 0.9766 0.9562
-22.1031 -36.6171 3.7420 0.8422
-16.4048 -36.4943 3.5006 0.8516
19.1772 -42.7190 4.0967 0.8286
27.2036 -45.1180 4.6093 0.8093
45.0460 -45.1867 5.5821 0.7740
49.5322 -22.4217 4.7568 0.8039
55.8531 -10.3838 4.9702 0.7960
55.8952 -3.5364 4.9000 0.7986
55.8439 3.2115 4.8938 0.7988
51.6169 15.8937 4.7251 0.8050
27.9589 16.7579 2.8518 0.8773
26.5199 20.6073 2.9383 0.8738
2.5841 5.6691 0.5451 0.9753
1.7991 5.6739 0.5208 0.9764
0.3745 5.6827 0.4982 0.9774
-0.3121 5.6869 0.4983 0.9774
-1.0089 5.6912 0.5057 0.9771
-5.6424 5.7196 0.7029 0.9683
-7.2084 5.7293 0.8056 0.9637
-9.3464 5.7424 0.9597 0.9569
-67.1693 -20.2980 6.1390 0.7545
-29.2334 -36.5835 4.0970 0.8286
-22.6277 -36.6139 3.7657 0.8413
-8.8429 -19.1335 1.8441 0.9188
25.5182 -33.3778 3.6760 0.8448
44.1463 -45.2219 5.5291 0.7759
49.8754 -23.2095 4.8129 0.8018
55.7127 -18.1488 5.1263 0.7904
55.8916 -4.1243 4.9032 0.7985
55.8403 2.6248 4.8908 0.7989
55.9752 9.4703 4.9668 0.7962
37.3895 16.1999 3.5650 0.8491
28.6278 16.7538 2.9020 0.8753
26.5172 20.1633 2.9145 0.8748
4.5691 5.6569 0.6362 0.9712
2.6560 5.6686 0.5477 0.9752
1.1327 5.6780 0.5065 0.9770
-0.2524 5.6865 0.4980 0.9774
-2.4520 5.7000 0.5429 0.9754
-5.5247 5.7189 0.6957 0.9686
-7.0542 5.7283 0.7950 0.9642
-65.8868 -19.1597 6.0031 0.7592
-17.3984 -36.6327 3.5480 0.8497
-12.2630 -36.6642 3.3824 0.8562
13.6296 -47.3317 4.3093 0.8206
18.0971 -42.6845 4.0562 0.8301
25.3057 -44.0305 4.4431 0.8155
51.3626 -42.1568 5.8135 0.7658
55.7087 -18.7951 5.1438 0.7897
55.8456 -11.5975 4.9901 0.7953
55.8880 -4.7131 4.9069 0.7984
55.9715 8.8677 4.9579 0.7965
19.5178 5.5650 1.7756 0.9217
38.4739 16.1932 3.6520 0.8457
29.3207 16.7496 2.9543 0.8732
26.5145 19.7264 2.8913 0.8757
3.6238 5.6627 0.5882 0.9734
2.7285 5.6682 0.5504 0.9751
1.9306 5.6731 0.5243 0.9762
1.1946 5.6776 0.5076 0.9770
-0.8863 5.6904 0.5038 0.9771
-3.2392 5.7049 0.5740 0.9740
-4.2257 5.7109 0.6215 0.9719
-30.5041 -36.5757 4.1668 0.8259
-18.3058 -28.2784 2.9472 0.8735
-12.6906 -36.6615 3.3942 0.8558
-10.9243 -50.6036 4.5292 0.8123
17.5738 -42.6889 4.0389 0.8308
24.5580 -43.7847 4.3921 0.8174
33.0499 -45.1591 4.8960 0.7988
53.9297 -45.2174 6.1573 0.7538
55.6489 -27.3286 5.4241 0.7796
51.9895 -18.1491 4.8177 0.8016
55.8419 -12.2082 5.0009 0.7949
55.8844 -5.3028 4.9112 0.7982
6.0649 5.6477 0.7250 0.9673
2.8018 5.6677 0.5531 0.9749
1.9970 5.6727 0.5262 0.9761
0.5541 5.6816 0.4994 0.9773
-2.3114 5.6992 0.5381 0.9756
-3.1603 5.7044 0.5705 0.9742
-4.1334 5.7104 0.6167 0.9721
-5.2964 5.7175 0.6819 0.9692
-6.7577 5.7265 0.7749 0.9651
-11.5675 5.7561 1.1304 0.9494
-31.1561 -36.5717 4.2033 0.8246
-24.2431 -36.6040 3.8411 0.8384
-13.1213 -36.6589 3.4065 0.8553
14.4887 -54.5904 4.9414 0.7971
24.2893 -44.3892 4.4269 0.8161
32.4826 -45.3736 4.8821 0.7993
52.7934 -45.2148 6.0813 0.7565
55.8381 -12.8216 5.0123 0.7945
55.8295 0.8681 4.8850 0.7992
49.7683 6.8195 4.3949 0.8173
21.0865 5.5375 1.9074 0.9162
40.8101 16.1788 3.8408 0.8384
4.8690 5.6550 0.6529 0.9705
1.3192 5.6769 0.5099 0.9769
-0.0735 5.6854 0.4975 0.9774
-2.2420 5.6988 0.5358 0.9757
-5.1855 5.7168 0.6753 0.9695
-71.7865 48.3601 7.5727 0.7064
-5.4083 2.7623 0.5313 0.9759
-66.4147 -17.0695 5.9994 0.7593
-24.7963 -36.6006 3.8678 0.8374
-18.8264 -36.6240 3.6027 0.8476
-13.5550 -36.6562 3.4192 0.8548
-10.3348 -43.4404 3.9066 0.8359
-9.8871 -87.1743 7.6757 0.7031
16.7924 -43.3488 4.0671 0.8297
23.9461 -44.8718 4.4498 0.8153
39.3899 -43.8854 5.1592 0.7892
50.2538 -43.9606 5.8415 0.7648
55.6966 -20.7619 5.2004 0.7877
55.8343 -13.4379 5.0244 0.7941
55.8771 -6.4858 4.9214 0.7978
55.8260 0.2833 4.8842 0.7992
22.1182 2.7951 1.9504 0.9144
51.5989 12.9740 4.6548 0.8076
42.0714 16.1711 3.9433 0.8345
31.5591 16.7358 3.1252 0.8664
26.5066 18.4558 2.8258 0.8784
6.3237 5.6461 0.7417 0.9665
4.9725 5.6544 0.6588 0.9702
3.8787 5.6611 0.6004 0.9728
2.9506 5.6668 0.5590 0.9747
-0.0140 5.6851 0.4974 0.9774
-0.6999 5.6572 0.4987 0.9774
-1.4158 5.6937 0.5133 0.9767
-7.7912 2.9509 0.7289 0.9671
-29.9347 0.0048 2.6189 0.8867
-46.5383 -11.4428 4.1928 0.8250
-32.4950 -36.5635 4.2796 0.8217
-25.3572 -36.5972 3.8953 0.8363
-19.0366 -36.0979 3.5704 0.8489
-13.9923 -36.6536 3.4325 0.8542
-10.8123 -87.1686 7.6847 0.7028
16.0798 -42.8360 4.0030 0.8322
30.8944 -45.1228 4.7844 0.8029
55.6657 -21.4170 5.2181 0.7870
55.8305 -14.0572 5.0370 0.7936
55.8734 -7.0792 4.9274 0.7976
51.5954 12.4000 4.6425 0.8081
43.4020 16.1629 4.0519 0.8303
33.3201 17.2250 3.2816 0.8602
26.5041 18.0448 2.8052 0.8792
5.0780 5.6538 0.6649 0.9699
3.0263 5.6664 0.5620 0.9745
1.4450 5.6761 0.5124 0.9768
0.7348 5.6805 0.5011 0.9773
-2.1049 5.6979 0.5314 0.9759
-3.8649 5.7087 0.6031 0.9727
-4.9701 5.7155 0.6627 0.9700
-8.1398 5.7350 0.8711 0.9608
-5.3149 2.8565 0.5279 0.9761
-14.7806 5.7758 1.3884 0.9383
-33.1834 -36.5593 4.3196 0.8202
-25.8240 -36.4493 3.9081 0.8358
-14.4328 -36.6509 3.4462 0.8537
-11.2174 -83.2842 7.3522 0.7136
-0.8175 -61.6646 5.3954 0.7807
13.2416 -57.0660 5.1253 0.7904
30.3443 -45.3306 4.7725 0.8033
38.6795 -44.9536 5.1884 0.7881
51.3475 -27.9440 5.1145 0.7908
55.7808 -22.1348 5.2504 0.7859
55.8698 -7.6741 4.9339 0.7974
55.8188 -0.8860 4.8841 0.7992
51.5919 11.8290 4.6308 0.8085
33.9870 17.1209 3.3294 0.8583
5.1854 5.6531 0.6711 0.9697
4.0548 5.6601 0.6091 0.9724
3.1027 5.6659 0.5652 0.9744
2.2676 5.6710 0.5343 0.9758
0.7953 5.6801 0.5018 0.9772
0.1051 5.6843 0.4974 0.9774
-1.2896 5.6929 0.5107 0.9768
-2.0372 5.6975 0.5294 0.9760
-4.8654 5.7149 0.6566 0.9703
-10.4335 5.7491 1.0422 0.9533
-14.3290 5.7730 1.3515 0.9399
-21.6643 5.8181 1.9625 0.9139
-19.1608 -34.5591 3.4572 0.8533
-14.8770 -36.6481 3.4604 0.8532
15.5496 -44.2171 4.1007 0.8284
38.0291 -45.1457 5.1643 0.7890
55.7386 -15.2826 5.0565 0.7929
49.6168 4.6918 4.3603 0.8186
51.5884 11.2608 4.6197 0.8089
46.2969 16.1450 4.2897 0.8213
35.0818 17.2141 3.4188 0.8548
3.1718 5.6508 0.5669 0.9743
1.5721 5.6753 0.5152 0.9766
0.8560 5.6797 0.5025 0.9772
-0.5209 5.6666 0.4979 0.9774
-1.2270 5.6925 0.5095 0.9769
-4.7625 5.7142 0.6508 0.9706
-6.0769 5.7223 0.7303 0.9670
-7.7851 5.7328 0.8459 0.9619
-10.1770 5.7475 1.0226 0.9542
-74.2157 -35.9355 7.2141 0.7181
-26.1204 -35.2774 3.8403 0.8384
-19.6352 -34.5562 3.4772 0.8525
-12.2420 -43.3123 3.9378 0.8347
28.8583 -45.1281 4.6864 0.8065
47.5448 -45.2429 5.7420 0.7683
51.3457 -38.2266 5.6003 0.7733
51.3389 -29.3496 5.1737 0.7886
55.7264 -15.9087 5.0702 0.7924
55.8624 -8.8690 4.9485 0.7968
51.5849 10.6953 4.6091 0.8093
49.3331 16.6264 4.5546 0.8114
36.0192 17.2083 3.4924 0.8519
26.4967 16.8465 2.7470 0.8815
6.8794 5.6427 0.7784 0.9649
26.1732 45.5060 4.5928 0.8099
2.4062 5.6702 0.5389 0.9756
17.2972 -89.3774 4.7710 0.6944
14.4438 -44.8135 2.4675 0.8281
20.2257 -43.8204 2.5293 0.8242
27.8544 -45.1218 2.7790 0.8086
25.8887 -32.4312 2.1748 0.8469
27.7504 -27.2600 2.0386 0.8557
51.7806 -30.7038 3.1549 0.7857
51.3554 -22.6019 2.9405 0.7987
60.8001 -18.4066 3.3292 0.7753
60.6988 -3.2024 3.1855 0.7839
55.5845 10.6063 2.9656 0.7972
51.6206 16.4887 2.8400 0.8049
36.4447 16.7058 2.1010 0.8516
4.3774 5.6581 0.3749 0.9718
2.5129 5.6695 0.3250 0.9755
1.7341 5.6743 0.3110 0.9765
1.0097 5.6788 0.3023 0.9772
0.3148 5.6830 0.2983 0.9775
-0.3719 5.6873 0.2987 0.9774
-1.7997 5.6857 0.3125 0.9764
-18.9217 23.9599 1.6000 0.8849
-7.3667 5.7303 0.4891 0.9633
-9.5720 5.7438 0.5850 0.9563
-12.9137 5.7643 0.7411 0.9449
-32.6060 5.8854 1.7364 0.8757
-15.5402 -34.5707 1.9864 0.8591
-10.9962 -35.3195 1.9387 0.8623
16.4721 -90.1666 4.8036 0.6927
19.6092 -43.6814 2.5093 0.8255
51.6810 -31.3810 3.1687 0.7849
60.8048 -19.1055 3.3402 0.7747
60.7525 -11.2946 3.2385 0.7807
60.4362 10.8774 3.2182 0.7819
36.4933 16.2677 2.0940 0.8521
8.5531 6.6462 0.5677 0.9575
5.6974 5.6500 0.4205 0.9684
2.5841 5.6691 0.3265 0.9754
1.7991 5.6739 0.3119 0.9764
-2.5190 5.6910 0.3262 0.9754
-3.3900 5.6895 0.3471 0.9738
-4.4052 5.6999 0.3775 0.9716
-5.6424 5.7196 0.4211 0.9683
-9.3464 5.7424 0.5749 0.9570
-67.0342 -20.2572 3.6700 0.7554
-21.3742 -34.5856 2.1308 0.8497
15.6177 -90.8632 4.8318 0.6912
19.0591 -43.6747 2.4973 0.8262
25.7712 -43.7727 2.6621 0.8159
25.5155 -33.3741 2.2017 0.8451
51.5040 -41.3776 3.4624 0.7675
51.1747 -23.8141 2.9581 0.7976
60.8096 -19.8092 3.3517 0.7740
60.7569 -11.9551 3.2452 0.7803
60.6109 10.2546 3.2216 0.7817
37.3895 16.1999 2.1355 0.8494
28.6278 16.7538 1.7384 0.8756
26.5171 20.1633 1.7458 0.8751
4.5691 5.6569 0.3811 0.9713
1.8646 5.6735 0.3130 0.9764
-0.2524 5.6865 0.2983 0.9775
-0.9456 5.6797 0.3018 0.9772
-2.4478 5.6905 0.3246 0.9755
-3.3093 5.6887 0.3449 0.9740
-5.5247 5.7189 0.4167 0.9687
-7.0399 5.7167 0.4753 0.9643
-12.2102 5.7600 0.7075 0.9474
-17.4699 5.7923 0.9646 0.9289
-28.9947 5.8632 1.5503 0.8883
-65.8750 -19.1562 3.5954 0.7597
-35.8972 -34.4968 2.6092 0.8192
-28.2015 -34.5440 2.3371 0.8364
-16.4166 -34.5654 2.0054 0.8579
-11.7336 -35.0815 1.9387 0.8623
18.8643 -44.4940 2.5328 0.8240
25.1554 -43.7689 2.6457 0.8169
33.6295 -44.9554 2.9423 0.7986
33.2493 -27.2899 2.2543 0.8417
44.6781 -21.3630 2.5954 0.8201
60.7613 -12.6184 3.2523 0.7799
60.6632 2.2150 3.1813 0.7842
44.5432 7.0571 2.3635 0.8347
29.3207 16.7496 1.7697 0.8735
4.6673 5.6563 0.3843 0.9711
2.7285 5.6682 0.3297 0.9751
1.9306 5.6731 0.3141 0.9763
1.1946 5.6776 0.3041 0.9770
0.4942 5.6819 0.2989 0.9774
-0.8848 5.6811 0.3013 0.9772
-1.6047 5.6843 0.3095 0.9766
-2.3773 5.6899 0.3232 0.9756
-3.2296 5.6880 0.3428 0.9741
-5.4094 5.7182 0.4125 0.9690
-8.9178 5.7398 0.5558 0.9584
-16.8653 5.7886 0.9345 0.9311
-27.4643 5.8538 1.4717 0.8936
-28.7879 -34.5179 2.3556 0.8352
-18.2982 -28.2667 1.7647 0.8738
15.8261 -57.2059 3.1106 0.7884
24.5471 -43.7652 2.6298 0.8179
25.9178 -27.6865 1.9875 0.8591
32.5418 -27.2847 2.2256 0.8436
51.3164 -33.4102 3.2091 0.7825
60.7658 -13.2847 3.2598 0.7795
60.6674 1.5791 3.1805 0.7842
44.2766 6.5402 2.3456 0.8359
26.5118 19.2964 1.7185 0.8769
3.7076 5.6622 0.3547 0.9733
2.8018 5.6677 0.3313 0.9750
1.2567 5.6772 0.3047 0.9770
0.5541 5.6816 0.2992 0.9774
-0.8244 5.6839 0.3010 0.9773
-1.5404 5.6838 0.3086 0.9767
-3.1508 5.6872 0.3407 0.9743
-6.7413 5.7127 0.4631 0.9652
-11.5675 5.7561 0.6771 0.9496
-16.2657 5.7740 0.9046 0.9332
-26.0816 5.8453 1.4008 0.8985
-89.0779 -35.8552 5.0324 0.6807
-15.6919 -31.3289 1.8363 0.8691
-12.4659 -34.8280 1.9387 0.8623
-10.1853 -44.8955 2.4127 0.8316
-9.3968 -91.3892 4.8148 0.6921
15.1764 -57.1816 3.1005 0.7890
24.1418 -44.1196 2.6357 0.8175
32.3221 -45.1493 2.9100 0.8006
25.9142 -28.2704 2.0099 0.8576
31.8586 -27.2853 2.1983 0.8453
51.7598 -34.4762 3.2593 0.7795
60.8240 -21.9505 3.3889 0.7718
60.7703 -13.9541 3.2677 0.7790
60.7200 -6.4040 3.1998 0.7830
43.8940 6.0146 2.3219 0.8374
21.1532 5.5550 1.1462 0.9161
40.8101 16.1788 2.3007 0.8388
30.7849 16.7406 1.8365 0.8690
4.8690 5.6550 0.3911 0.9706
2.8758 5.6673 0.3331 0.9749
0.6142 5.6812 0.2995 0.9774
-0.0735 5.6854 0.2980 0.9775
-3.0730 5.6865 0.3387 0.9744
-4.0328 5.6960 0.3658 0.9724
-5.1855 5.7168 0.4045 0.9696
-6.6050 5.7171 0.4578 0.9656
-70.5257 47.5108 4.4565 0.7113
-15.7623 5.7818 0.8799 0.9350
-24.8258 5.8375 1.3365 0.9029
-29.8669 -0.3080 1.5653 0.8872
-66.2429 -17.0253 3.5845 0.7604
-16.8257 -32.7318 1.9288 0.8629
-10.2082 -42.9083 2.3115 0.8381
20.5108 -80.6791 4.3627 0.7165
25.9106 -28.8678 2.0329 0.8561
51.7550 -35.2610 3.2820 0.7781
60.8289 -22.6751 3.4022 0.7710
60.7748 -14.6269 3.2760 0.7785
22.1164 2.7949 1.1683 0.9146
22.0075 5.5335 1.1893 0.9131
42.0714 16.1711 2.3621 0.8348
31.5591 16.7358 1.8721 0.8667
26.5066 18.4558 1.6927 0.8786
7.4598 6.6604 0.5241 0.9607
2.9506 5.6668 0.3348 0.9747
1.3819 5.6765 0.3062 0.9769
0.6745 5.6808 0.2998 0.9773
-0.0140 5.6851 0.2979 0.9775
-0.6999 5.6572 0.2987 0.9774
-1.4131 5.6829 0.3069 0.9768
-2.1694 5.6884 0.3191 0.9759
-2.9961 5.6857 0.3368 0.9746
-3.9433 5.6951 0.3630 0.9726
-8.3253 5.7361 0.5298 0.9603
-5.3380 2.7973 0.3158 0.9761
-7.7898 2.9504 0.4366 0.9672
-23.6799 5.8305 1.2781 0.9069
-29.9627 0.0048 1.5703 0.8869
-46.5175 -11.4377 2.5105 0.8254
-30.6867 -34.5287 2.4209 0.8311
-13.2026 -34.5851 1.9401 0.8622
13.9959 -57.5714 3.1051 0.7887
17.7321 -47.2375 2.6443 0.8170
30.9066 -45.1405 2.8671 0.8032
30.5308 -27.2771 2.1456 0.8488
44.1159 5.1062 2.3274 0.8370
43.4020 16.1629 2.4272 0.8307
33.3201 17.2250 1.9658 0.8605
26.5041 18.0448 1.6804 0.8795
6.4575 5.6451 0.4495 0.9662
5.0780 5.6538 0.3983 0.9700
3.9661 5.6606 0.3622 0.9727
3.0263 5.6664 0.3367 0.9746
0.7348 5.6805 0.3002 0.9773
-7.0199 62.0738 3.2739 0.7786
-2.1012 5.6879 0.3178 0.9760
-4.9701 5.7155 0.3969 0.9701
-8.1398 5.7350 0.5218 0.9609
-5.3149 2.8565 0.3162 0.9761
-22.6301 5.8241 1.2246 0.9106
-72.0287 -36.7588 4.2380 0.7233
-17.2751 -31.9423 1.9032 0.8646
-13.6183 -34.5825 1.9479 0.8617
-10.1492 -39.0121 2.1126 0.8509
-8.8470 -65.6851 3.4735 0.7668
13.5567 -58.4239 3.1432 0.7864
22.8376 -45.0411 2.6466 0.8169
25.9030 -30.1047 2.0814 0.8529
29.8903 -27.2732 2.1206 0.8504
51.4472 -27.9983 3.0696 0.7909
60.7839 -15.9831 3.2938 0.7774
60.6841 -0.9633 3.1807 0.7842
24.1476 5.5366 1.2984 0.9055
5.1854 5.6531 0.4020 0.9697
4.0548 5.6601 0.3649 0.9725
-4.8654 5.7149 0.3933 0.9704
-7.9599 5.7339 0.5141 0.9615
-14.3290 5.7730 0.8096 0.9400
-31.9989 -34.5207 2.4668 0.8282
-25.0355 -34.5632 2.2366 0.8429
-19.1608 -34.5591 2.0709 0.8536
-10.1410 -37.3699 2.0293 0.8563
16.0445 -45.6243 2.5346 0.8239
22.2458 -45.0375 2.6325 0.8177
25.8990 -30.7456 2.1068 0.8513
29.2645 -27.2693 2.0963 0.8520
51.2921 -37.3578 3.3255 0.7756
60.7372 -8.9918 3.2178 0.7820
60.6883 -1.5993 3.1816 0.7841
44.6236 4.2196 2.3491 0.8357
25.3310 5.5293 1.3588 0.9014
26.4991 17.2404 1.6568 0.8811
4.1448 5.6595 0.3676 0.9723
-1.2246 5.6816 0.3046 0.9770
-1.9665 5.6869 0.3154 0.9762
-3.6824 5.6924 0.3553 0.9732
-7.7851 5.7328 0.5067 0.9620
-13.9007 5.7704 0.7888 0.9415
-32.6407 -34.4817 2.4883 0.8268
-25.5891 -34.5598 2.2536 0.8418
-19.6352 -34.5562 2.0830 0.8528
18.2114 -86.6926 4.6425 0.7013
18.6423 -54.8400 3.0356 0.7929
28.8582 -45.1280 2.8073 0.8069
25.8950 -31.4025 2.1331 0.8496
28.6528 -27.2656 2.0729 0.8535
51.3457 -38.2266 3.3550 0.7738
51.7873 -29.6059 3.1263 0.7875
60.7931 -17.3551 3.3133 0.7763
60.6925 -2.2357 3.1829 0.7841
60.6444 5.0943 3.1894 0.7837
51.5849 10.6953 2.7609 0.8098
49.3331 16.6264 2.7283 0.8118
6.8605 5.6271 0.4650 0.9651
5.4064 5.6517 0.4099 0.9692
4.2361 5.6589 0.3705 0.9721
26.1732 45.5059 2.7512 0.8104
26.0118 -42.1369 0.8644 0.8203
35.4870 -27.3067 0.7816 0.8360
46.1637 -27.3732 0.9368 0.8068
62.5938 -27.5480 1.1937 0.7606
55.4666 10.5839 0.9856 0.7978
26.1669 8.3583 0.4795 0.8959
36.4447 16.7058 0.6998 0.8518
27.4257 16.8313 0.5617 0.8792
7.0903 5.6296 0.1580 0.9644
5.5800 5.6507 0.1386 0.9687
4.3774 5.6581 0.1249 0.9718
3.3639 5.6394 0.1146 0.9741
2.5129 5.6695 0.1082 0.9755
1.7341 5.6743 0.1036 0.9765
1.0097 5.6788 0.1007 0.9772
0.3148 5.6830 0.0993 0.9775
-0.3719 5.6873 0.0995 0.9775
-1.0670 5.6725 0.1008 0.9772
-1.7953 5.6717 0.1038 0.9765
-3.4524 5.6588 0.1157 0.9738
-5.7626 5.7204 0.1417 0.9680
-7.3667 5.7303 0.1629 0.9634
-9.5413 5.7254 0.1942 0.9565
-12.9137 5.7643 0.2468 0.9450
-18.8045 5.8005 0.3435 0.9243
-10.6209 -57.9729 1.0288 0.7899
25.7117 -82.7313 1.5122 0.7071
60.9450 -27.5879 1.1677 0.7652
26.1635 8.0562 0.4778 0.8963
38.5684 17.1927 0.7371 0.8446
28.0746 16.8273 0.5713 0.8773
4.4725 5.6575 0.1259 0.9716
0.3745 5.6827 0.0994 0.9775
-1.0061 5.6754 0.1006 0.9772
-3.3713 5.6582 0.1150 0.9740
-4.3788 5.6657 0.1250 0.9718
-7.2084 5.7293 0.1607 0.9638
-9.3160 5.7237 0.1909 0.9572
-18.1149 5.7963 0.3320 0.9267
-30.6981 5.8736 0.5456 0.8825
-89.0034 -15.5382 1.5770 0.6967
-65.5073 -19.7958 1.1945 0.7605
-73.5703 -32.3347 1.4027 0.7251
-23.6763 -38.3106 0.7861 0.8351
-8.8477 -19.1440 0.3681 0.9191
-12.0747 -37.3990 0.6860 0.8545
-10.3786 -53.4836 0.9510 0.8042
27.0655 -90.4180 1.6474 0.6855
24.8015 -42.1256 0.8533 0.8224
25.5119 -33.3695 0.7332 0.8453
26.6048 -27.2530 0.6648 0.8587
29.2081 -18.1567 0.6003 0.8715
85.1374 -27.7341 1.5629 0.6989
5.8173 5.6492 0.1415 0.9681
2.6560 5.6686 0.1093 0.9753
1.8646 5.6735 0.1042 0.9764
1.1327 5.6780 0.1011 0.9771
-0.2524 5.6865 0.0994 0.9775
-2.4416 5.6760 0.1079 0.9756
-4.2842 5.6650 0.1240 0.9720
-7.0542 5.7283 0.1586 0.9643
-9.0985 5.7222 0.1876 0.9579
-12.1427 5.7282 0.2343 0.9477
-17.4699 5.7923 0.3213 0.9290
-28.9947 5.8632 0.5163 0.8884
-65.5410 -19.0591 1.1914 0.7610
-10.3121 -50.3175 0.8965 0.8143
26.0349 -90.4117 1.6423 0.6863
24.2077 -42.1201 0.8480 0.8234
45.8073 -21.9030 0.8863 0.8162
19.4648 5.5499 0.3533 0.9222
40.8156 17.1788 0.7730 0.8376
26.5848 19.7787 0.5784 0.8758
6.6392 6.3136 0.1599 0.9640
3.6238 5.6627 0.1173 0.9735
0.4942 5.6819 0.0996 0.9774
-1.6008 5.6705 0.1028 0.9767
-2.3713 5.6755 0.1074 0.9757
-3.2120 5.6570 0.1135 0.9743
-4.1912 5.6643 0.1230 0.9722
-6.9041 5.7274 0.1566 0.9647
-8.8929 5.7237 0.1846 0.9586
-11.8146 5.7254 0.2292 0.9488
-27.4643 5.8538 0.4902 0.8937
-64.0477 -17.8995 1.1608 0.7664
23.6213 -42.1146 0.8428 0.8243
25.9178 -27.6865 0.6620 0.8592
32.5476 -27.2895 0.7414 0.8437
45.8037 -22.4937 0.8907 0.8153
51.9877 -18.1485 0.9611 0.8023
40.2994 5.9528 0.7111 0.8496
20.2809 5.5536 0.3670 0.9193
30.0392 16.7452 0.6003 0.8715
26.5821 19.3476 0.5739 0.8768
4.7673 5.6557 0.1291 0.9708
3.7076 5.6622 0.1181 0.9733
2.8018 5.6677 0.1104 0.9750
1.2567 5.6772 0.1015 0.9770
-0.1331 5.6858 0.0993 0.9775
-0.8244 5.6839 0.1003 0.9773
-1.5367 5.6700 0.1025 0.9768
-2.3016 5.6750 0.1069 0.9758
-5.2964 5.7175 0.1360 0.9693
-29.0876 -34.1435 0.7829 0.8357
-13.0697 -36.5148 0.6770 0.8563
-10.1853 -44.8958 0.8036 0.8318
21.7265 -54.3877 1.0223 0.7911
23.0417 -42.1092 0.8379 0.8253
25.9142 -28.2704 0.6694 0.8578
31.8586 -27.2853 0.7322 0.8455
76.7139 -27.6849 1.4236 0.7216
45.9805 6.3005 0.8101 0.8305
21.1317 5.5493 0.3814 0.9163
43.2940 17.1636 0.8129 0.8300
30.7849 16.7406 0.6117 0.8692
26.5795 18.9230 0.5695 0.8776
2.0639 5.6723 0.1054 0.9761
0.6142 5.6812 0.0997 0.9774
-0.0735 5.6854 0.0992 0.9775
-0.7641 5.6867 0.1002 0.9773
-1.4730 5.6696 0.1022 0.9768
-2.2325 5.6746 0.1064 0.9759
-3.0565 5.6559 0.1122 0.9746
-4.0094 5.6629 0.1211 0.9726
-5.1855 5.7168 0.1347 0.9696
-6.6149 5.7256 0.1527 0.9656
-73.6048 49.5851 1.5491 0.7011
-15.7623 5.7818 0.2931 0.9350
-29.8737 -0.3081 0.5215 0.8873
-25.8340 -38.1324 0.8040 0.8317
-12.6411 -34.1849 0.6362 0.8643
-9.8871 -87.1743 1.5314 0.7040
18.0420 -46.5747 0.8718 0.8189
22.4690 -42.1039 0.8330 0.8262
25.8549 -36.9266 0.7868 0.8350
40.1230 -27.3361 0.8474 0.8235
41.9508 -21.7039 0.8244 0.8278
22.1129 2.7945 0.3891 0.9147
44.6321 17.1554 0.8346 0.8259
31.5591 16.7358 0.6235 0.8668
26.5769 18.5048 0.5653 0.8785
3.8787 5.6611 0.1198 0.9729
2.1312 5.6719 0.1058 0.9761
1.3819 5.6765 0.1020 0.9769
0.6745 5.6808 0.0999 0.9774
-0.6999 5.6572 0.0995 0.9775
-2.9815 5.6580 0.1116 0.9747
-3.9205 5.6623 0.1202 0.9728
-6.4756 5.7248 0.1509 0.9660
-8.3253 5.7361 0.1765 0.9604
-7.7885 2.9499 0.1454 0.9672
-23.6560 5.8246 0.4252 0.9071
-29.9906 0.0048 0.5235 0.8869
-46.4968 -11.4326 0.8358 0.8257
-30.3375 -34.1359 0.7971 0.8330
-26.1354 -37.7203 0.8010 0.8323
-18.0104 -34.1521 0.6739 0.8569
23.0544 -94.8331 1.7035 0.6768
21.7055 -57.8224 1.0781 0.7811
23.4618 -45.0950 0.8873 0.8160
25.9068 -29.4789 0.6850 0.8547
41.6858 -22.1232 0.8238 0.8280
71.8792 -27.6551 1.3443 0.7348
85.1460 -21.4383 1.5326 0.7038
23.0649 5.5432 0.4141 0.9095
46.0437 17.1467 0.8576 0.8216
33.3201 17.2250 0.6547 0.8607
6.8631 5.9997 0.1591 0.9642
5.0780 5.6538 0.1326 0.9701
2.1991 5.6715 0.1062 0.9760
1.4450 5.6761 0.1022 0.9768
0.7348 5.6805 0.1000 0.9773
-1.3467 5.6688 0.1017 0.9770
-3.8330 5.6616 0.1193 0.9730
-4.9701 5.7155 0.1322 0.9702
-6.3396 5.7239 0.1491 0.9664
-8.1398 5.7350 0.1738 0.9609
-22.5976 5.8157 0.4073 0.9109
-82.1735 -9.0753 1.4431 0.7184
-26.1302 -36.8816 0.7890 0.8346
-19.0311 -35.1892 0.6983 0.8521
23.1668 -45.6906 0.8942 0.8147
41.3629 -22.5103 0.8220 0.8283
69.5299 -27.5907 1.3057 0.7414
42.2161 4.4387 0.7409 0.8438
24.1476 5.5366 0.4324 0.9056
26.5719 17.6866 0.5572 0.8801
0.7953 5.6801 0.1001 0.9773
0.1051 5.6843 0.0992 0.9775
-6.2592 61.0690 1.0715 0.7822
-1.2841 5.6684 0.1014 0.9770
-2.0285 5.6732 0.1052 0.9762
-6.2067 5.7231 0.1474 0.9668
-7.9599 5.7339 0.1712 0.9615
-14.3290 5.7730 0.2696 0.9401
-70.8312 -35.2173 1.3807 0.7287
-19.1608 -34.5591 0.6897 0.8538
-9.6600 -66.4527 1.1721 0.7644
22.5666 -45.6869 0.8894 0.8156
27.5814 -42.1515 0.8793 0.8175
29.2645 -27.2693 0.6982 0.8521
37.4987 -27.3116 0.8097 0.8306
40.2569 -22.4581 0.8046 0.8316
82.0921 -22.5083 1.4858 0.7114
25.3177 5.5264 0.4523 0.9015
35.0818 17.2141 0.6821 0.8553
4.1448 5.6595 0.1224 0.9723
3.1718 5.6508 0.1131 0.9744
2.3366 5.6706 0.1071 0.9758
-0.5209 5.6666 0.0993 0.9775
-1.2217 5.6680 0.1012 0.9771
-1.9616 5.6728 0.1048 0.9763
-3.6616 5.6603 0.1177 0.9734
-6.0769 5.7223 0.1457 0.9672
-7.7851 5.7328 0.1688 0.9621
-20.7502 5.8064 0.3761 0.9174
-71.4097 -34.5769 1.3849 0.7280
