ply
format ascii 1.0
element vertex 520
property float32 x
property float32 y
property float32 z
property float32 I
end_header
-7.8147 -40.9664 11.1748 0.8414
43.7668 19.1607 12.8019 0.8205
33.4095 19.7245 10.3958 0.8516
7.4775 5.7316 2.5245 0.9617
33.6514 54.2973 17.1165 0.7676
-10.7735 36.1261 10.1012 0.8555
-14.4362 24.5738 7.6367 0.8887
-17.6974 23.1925 7.8170 0.8862
-19.7502 -31.5606 9.9760 0.8571
-9.0762 -27.5879 7.7819 0.8867
-8.1833 -40.9641 11.1932 0.8411
-3.3229 -43.3472 11.6489 0.8352
7.6124 5.7307 2.5531 0.9613
-8.9664 -28.0728 6.8037 0.8861
34.0041 -44.1636 12.8681 0.7955
57.9530 -26.7182 14.7330 0.7695
43.7668 19.1607 11.0302 0.8219
33.6515 54.2974 14.7478 0.7693
-11.7139 26.9156 6.7769 0.8865
-14.4362 24.5738 6.5798 0.8896
-17.6974 23.1925 6.7352 0.8871
-25.9915 26.6722 8.5980 0.8582
-21.2108 1.5797 4.9105 0.9164
-9.3083 -28.2935 6.8765 0.8849
-3.6525 -47.6469 11.0324 0.8219
31.7927 -42.0414 12.1689 0.8054
44.8068 19.1543 11.2500 0.8187
34.0748 19.7204 9.0892 0.8508
32.8473 24.7280 9.4921 0.8447
-6.4285 -33.6999 6.6687 0.8695
47.9258 -48.7557 13.2891 0.7569
72.8151 -44.9097 16.6294 0.7057
57.7798 -26.6383 12.3674 0.7716
58.0507 17.4490 11.7826 0.7811
43.7669 19.1607 9.2870 0.8231
33.5752 41.9049 10.4375 0.8035
33.6515 54.2973 12.4170 0.7708
2.8100 8.6678 1.7712 0.9636
1.6938 8.6746 1.7180 0.9646
-0.4216 8.6876 1.6907 0.9652
-1.4849 8.6942 1.7144 0.9647
-2.5948 8.7010 1.7649 0.9637
-3.7899 8.7083 1.8461 0.9620
-80.2290 -13.5233 15.8149 0.7178
-56.6057 -43.0000 13.8177 0.7485
-19.7502 -31.5606 7.2370 0.8592
22.3976 -52.0807 11.0199 0.7937
23.2580 -39.9870 8.9918 0.8282
31.9430 -42.2402 10.2941 0.8059
47.9206 -49.6043 13.4066 0.7550
57.9019 -47.0145 14.4979 0.7379
22.6815 -14.2623 5.2080 0.8966
44.8069 19.1543 9.4720 0.8199
32.9700 24.8204 8.0217 0.8452
-9.0170 -28.2313 4.6939 0.8869
-6.0355 -31.6395 5.1016 0.8777
22.6497 -51.4322 8.9010 0.7964
31.5983 -41.0391 8.2034 0.8108
42.9147 -43.6577 9.6960 0.7804
58.0767 -46.3259 11.7664 0.7402
58.0957 -35.8313 10.8108 0.7585
58.2285 -26.8452 10.1554 0.7713
28.5997 4.9484 4.5970 0.8891
58.2510 17.5092 9.6338 0.7817
33.4096 19.7245 6.1449 0.8546
6.9246 8.6425 1.7540 0.9561
5.3622 8.6521 1.6122 0.9596
4.0155 8.6603 1.5119 0.9621
1.6938 8.6746 1.3999 0.9648
-0.4216 8.6876 1.3776 0.9654
-1.4849 8.6942 1.3970 0.9649
-3.7899 8.7083 1.5042 0.9623
-5.1206 8.7165 1.6012 0.9599
-6.6585 8.7259 1.7385 0.9565
-54.7068 17.8665 9.1151 0.7921
-80.1403 5.9686 12.7282 0.7222
-27.1583 -33.5962 6.8423 0.8395
-19.7502 -31.5606 5.8968 0.8600
-9.2723 -28.1842 4.6993 0.8868
23.6795 -40.7117 7.4595 0.8263
30.8853 -40.8416 8.1101 0.8127
74.4448 -24.6708 12.4215 0.7279
95.9533 15.7457 15.4008 0.6745
44.8070 19.1543 7.7180 0.8209
34.0749 19.7204 6.2356 0.8526
26.8115 -88.5015 11.3543 0.6889
21.2814 -48.3252 6.4835 0.8083
31.3965 -40.7770 6.3189 0.8127
57.6773 -35.5732 8.3205 0.7610
64.6385 -20.8001 8.3374 0.7606
62.3497 -4.3716 7.6744 0.7773
43.7669 19.1608 5.8663 0.8249
8.8185 8.6308 1.5151 0.9515
6.9246 8.6425 1.3598 0.9564
5.3622 8.6521 1.2498 0.9598
1.6938 8.6746 1.0852 0.9650
-0.4216 8.6876 1.0680 0.9656
-1.4849 8.6942 1.0830 0.9651
-2.5948 8.7010 1.1148 0.9641
-5.1206 8.7165 1.2413 0.9601
-8.5144 8.7374 1.4980 0.9520
-25.4859 -31.5274 4.9777 0.8493
25.8132 -87.9499 11.2544 0.6912
21.0247 -48.8883 6.5343 0.8070
22.8149 -39.2252 5.5717 0.8329
40.9170 -42.3546 7.2309 0.7887
52.1262 -42.3249 8.2444 0.7629
62.3927 2.6210 7.6676 0.7775
62.4164 10.2424 7.7663 0.7750
-10.1088 -31.6495 2.9068 0.8751
23.7724 -40.0672 4.0760 0.8294
40.4754 -41.1763 5.0515 0.7931
58.2285 -26.8452 5.6097 0.7730
57.3280 -18.4476 5.2688 0.7852
62.1674 -11.9988 5.5393 0.7755
62.2144 -4.3621 5.4564 0.7785
58.0507 17.4490 5.3032 0.7840
4.0155 8.6603 0.8352 0.9624
-0.4216 8.6876 0.7610 0.9657
-2.5948 8.7010 0.7944 0.9642
-5.1206 8.7165 0.8844 0.9602
-6.6585 8.7259 0.9603 0.9569
-8.5144 8.7374 1.0673 0.9522
-10.8747 8.7519 1.2213 0.9455
-14.0848 8.7716 1.4517 0.9355
-18.8740 8.8010 1.8220 0.9198
-19.7502 -31.5607 3.2573 0.8611
-11.8696 -25.3111 2.4458 0.8938
-6.3272 -31.6727 2.8258 0.8784
24.8090 -84.5285 7.7072 0.7021
21.6209 -50.2746 4.7880 0.8027
23.2547 -39.9813 4.0466 0.8305
30.8716 -40.8234 4.4779 0.8142
52.0595 -42.2707 5.8670 0.7639
58.2248 -27.4587 5.6321 0.7722
58.3474 -11.7877 5.2079 0.7874
62.2110 -4.9048 5.4596 0.7784
58.0473 16.9001 5.2893 0.7845
34.2459 19.8194 3.4617 0.8531
11.4433 8.6147 1.2531 0.9441
-6.3710 -33.3986 1.7819 0.8727
25.7789 -85.0928 4.6597 0.7004
24.5447 -41.3688 2.5209 0.8248
40.5248 -41.2265 3.0296 0.7933
58.2285 -26.8452 3.3603 0.7735
57.3013 -18.4391 3.1546 0.7858
67.1743 -4.7099 3.5291 0.7636
67.1209 3.4035 3.5222 0.7640
28.3150 8.5110 1.5495 0.8883
8.8185 8.6308 0.6467 0.9518
5.3622 8.6521 0.5335 0.9600
2.8070 8.6584 0.4770 0.9642
-0.4213 8.6811 0.4555 0.9658
-3.7899 8.7083 0.4977 0.9627
-5.1206 8.7165 0.5298 0.9603
-18.8740 8.8010 1.0914 0.9200
-27.1034 8.8516 1.4943 0.8921
-25.4845 -31.5256 2.1245 0.8501
-19.1260 -30.5633 1.8895 0.8655
-4.8611 -24.3337 1.3005 0.9054
-3.8210 -49.8450 2.6199 0.8185
21.9064 -50.9385 2.9060 0.8008
30.8569 -40.8039 2.6811 0.8147
32.3508 -26.2678 2.1839 0.8463
58.1712 -36.5785 3.6012 0.7594
58.2248 -27.4587 3.3737 0.7727
58.1127 -19.2584 3.2084 0.7825
44.8069 19.1543 2.5538 0.8227
34.0748 19.7204 2.0633 0.8541
11.4433 8.6147 0.7507 0.9442
-9.9657 -31.2014 0.5717 0.8772
-6.4010 -33.5557 0.5963 0.8723
23.8254 -54.1021 1.0319 0.7894
28.1931 -47.5181 0.9644 0.8017
30.1476 -39.1550 0.8626 0.8206
32.3536 -25.8075 0.7224 0.8474
52.9571 -24.4149 1.0179 0.7919
76.5521 -24.6338 1.4037 0.7249
46.0195 20.1469 0.8769 0.8179
33.4097 19.7245 0.6772 0.8562
11.2406 8.6159 0.2472 0.9449
6.9246 8.6425 0.1933 0.9567
5.3503 8.6328 0.1773 0.9602
2.7965 8.6262 0.1583 0.9644
1.6938 8.6746 0.1543 0.9653
-1.4849 8.6942 0.1540 0.9653
-2.5886 8.6803 0.1581 0.9644
-3.7811 8.6881 0.1654 0.9628
-6.6585 8.7259 0.1916 0.9570
-14.0735 8.7646 0.2894 0.9358
-19.7502 -31.5607 0.6499 0.8616
-9.3481 -28.4145 0.5221 0.8872
-5.0920 -66.4242 1.1628 0.7660
37.6212 -87.4797 1.6622 0.6832
32.3508 -26.2679 0.7274 0.8464
38.6607 -24.3102 0.7971 0.8330
48.4824 7.9558 0.8576 0.8216
47.1131 20.1402 0.8943 0.8147
34.0749 19.7204 0.6872 0.8543
11.4433 8.6147 0.2500 0.9443
28.1932 -47.5182 -0.9644 0.8017
32.3536 -25.8075 -0.7224 0.8474
52.9571 -24.4149 -1.0179 0.7919
69.1670 3.5073 -1.2089 0.7580
49.9191 8.6372 -0.8843 0.8165
28.2815 8.5009 -0.5155 0.8886
41.7741 18.2883 -0.7960 0.8332
33.4097 19.7245 -0.6772 0.8562
2.7827 8.5838 -0.1575 0.9645
1.6938 8.6746 -0.1543 0.9653
0.6276 8.6812 -0.1519 0.9658
-1.4849 8.6942 -0.1540 0.9653
-2.5879 8.6778 -0.1581 0.9644
-3.7715 8.6660 -0.1650 0.9629
-5.0696 8.6297 -0.1747 0.9608
-10.8747 8.7519 -0.2437 0.9457
-14.0735 8.7646 -0.2894 0.9358
-18.7829 8.7585 -0.3617 0.9204
-27.1034 8.8516 -0.4977 0.8922
-89.2254 -4.1363 -1.5591 0.6995
-75.0850 -12.6562 -1.3291 0.7374
-59.5593 -17.6210 -1.0841 0.7800
-75.1518 -32.5129 -1.4293 0.7207
-61.5142 -35.9580 -1.2437 0.7520
-17.3661 -21.4828 -0.4822 0.8954
-12.5424 -20.0427 -0.4127 0.9097
-9.0978 -19.4006 -0.3740 0.9178
28.0797 -95.6723 -1.7404 0.6711
27.4216 -47.1455 -0.9520 0.8040
29.4431 -38.9344 -0.8520 0.8226
38.6878 -24.3272 -0.7977 0.8329
75.6130 -25.0579 -1.3904 0.7271
95.3387 -19.2609 -1.6978 0.6777
74.7930 3.1420 -1.3067 0.7412
34.0749 19.7204 -0.6872 0.8543
11.4433 8.6147 -0.2500 0.9443
-6.3003 -19.7255 -1.0852 0.9204
-3.9923 -20.9284 -1.1166 0.9182
-1.5231 -22.4195 -1.1777 0.9139
22.8768 -38.5576 -2.3496 0.8356
27.3516 -35.5236 -2.3496 0.8356
29.9988 -30.5182 -2.2427 0.8425
36.7971 -22.6951 -2.2657 0.8410
46.8725 -9.0468 -2.5018 0.8260
47.6207 -3.3389 -2.5018 0.8260
28.0480 8.4308 -1.5349 0.8893
27.5164 16.2452 -1.6746 0.8799
11.2406 8.6159 -0.7422 0.9449
6.9246 8.6425 -0.5804 0.9566
5.3496 8.6318 -0.5322 0.9601
1.6938 8.6746 -0.4632 0.9652
-0.4216 8.6876 -0.4558 0.9658
-1.4849 8.6942 -0.4622 0.9653
-2.5879 8.6778 -0.4746 0.9644
-6.6585 8.7259 -0.5752 0.9570
-8.5144 8.7374 -0.6394 0.9523
-10.8747 8.7519 -0.7316 0.9456
-14.0735 8.7646 -0.8689 0.9357
-18.7555 8.7458 -1.0845 0.9205
-24.3944 7.9669 -1.3449 0.9023
-45.0218 -2.0871 -2.3620 0.8348
-42.9913 -12.7193 -2.3496 0.8356
-43.8131 -18.9549 -2.5018 0.8260
-34.2612 -33.2423 -2.5018 0.8260
-17.1356 -21.1976 -1.4285 0.8966
-8.9748 -19.1382 -1.1078 0.9188
-1.6911 -22.0592 -1.1595 0.9152
1.9790 -44.7897 -2.3496 0.8356
7.8325 -47.0906 -2.5018 0.8260
13.4439 -45.8054 -2.5018 0.8260
18.8597 -43.8541 -2.5018 0.8260
22.5412 -38.7547 -2.3496 0.8356
32.2465 -26.1831 -2.1769 0.8467
35.3279 -22.2145 -2.1871 0.8461
40.5503 -19.1235 -2.3496 0.8356
47.5899 -3.7521 -2.5018 0.8260
44.2417 7.2600 -2.3496 0.8356
11.4433 8.6147 -0.7507 0.9442
-6.3613 -19.9164 -1.8292 0.9195
-3.9460 -20.6860 -1.8424 0.9189
-1.5008 -22.0922 -1.9373 0.9149
1.4182 -26.8188 -2.3496 0.8978
11.5250 -26.1706 -2.5018 0.8915
14.5914 -24.5930 -2.5018 0.8915
20.0461 -20.3932 -2.5018 0.8915
24.3389 -15.0114 -2.5018 0.8915
27.2212 -8.7596 -2.5018 0.8915
28.0777 -5.4192 -2.5018 0.8915
11.2406 8.6159 -1.2391 0.9447
6.9246 8.6425 -0.9689 0.9565
5.3496 8.6318 -0.8885 0.9600
3.9756 8.5742 -0.8269 0.9628
2.7639 8.5255 -0.7841 0.9647
1.6938 8.6746 -0.7733 0.9651
0.6276 8.6812 -0.7615 0.9657
-0.4216 8.6876 -0.7610 0.9657
-1.4849 8.6942 -0.7717 0.9652
-2.5879 8.6778 -0.7922 0.9643
-3.7528 8.6231 -0.8228 0.9629
-5.0359 8.5723 -0.8698 0.9609
-6.6585 8.7259 -0.9603 0.9569
-8.5144 8.7374 -1.0673 0.9522
-14.0510 8.7506 -1.4482 0.9357
-17.5761 8.1958 -1.6967 0.9251
-24.3944 7.9669 -2.2452 0.9021
-26.3472 5.2039 -2.3496 0.8978
-23.3069 1.7358 -2.0447 0.9104
-26.8274 -1.2437 -2.3496 0.8978
-28.1981 -4.7530 -2.5018 0.8915
-24.6875 -14.4310 -2.5018 0.8915
-22.7709 -17.2977 -2.5018 0.8915
-8.9269 -19.0360 -1.8395 0.9190
-6.5096 -19.7866 -1.8224 0.9198
1.1854 -26.8301 -2.3496 0.8978
4.6918 -28.2084 -2.5018 0.8915
14.3774 -24.7188 -2.5018 0.8915
17.2483 -22.8084 -2.5018 0.8915
22.1994 -18.0253 -2.5018 0.8915
25.8640 -12.1974 -2.5018 0.8915
27.1442 -8.9955 -2.5018 0.8915
28.0296 -5.6627 -2.5018 0.8915
28.5707 1.2002 -2.5018 0.8915
27.7301 4.5504 -2.4585 0.8933
24.6945 10.5566 -2.3496 0.8978
11.4433 8.6147 -1.2531 0.9441
-3.5857 -18.7972 -2.3496 0.9258
-1.2970 -19.0921 -2.3496 0.9258
1.0106 -19.1094 -2.3496 0.9258
3.5174 -20.0698 -2.5018 0.9212
5.9077 -19.5005 -2.5018 0.9212
12.4306 -16.1446 -2.5018 0.9212
14.2836 -14.5309 -2.5018 0.9212
19.3962 -6.2415 -2.5018 0.9212
20.0064 -3.8614 -2.5018 0.9212
20.0774 3.4739 -2.5018 0.9212
8.2114 2.4682 -1.0528 0.9660
14.7953 8.7349 -2.1096 0.9331
11.2406 8.6159 -1.7390 0.9445
5.3172 8.5795 -1.2393 0.9601
-0.4216 8.6876 -1.0680 0.9656
-1.4849 8.6942 -1.0830 0.9651
-3.7394 8.5923 -1.1506 0.9629
-5.0028 8.5159 -1.2127 0.9610
-6.6585 8.7259 -1.3477 0.9567
-8.5144 8.7374 -1.4980 0.9520
-18.1906 5.9408 -2.3496 0.9258
-18.7006 -8.0904 -2.5018 0.9212
-17.5908 -10.2826 -2.5018 0.9212
-14.6236 -14.1887 -2.5018 0.9212
-12.7781 -15.8071 -2.4957 0.9214
-10.1513 -16.2217 -2.3496 0.9258
-8.1248 -17.3257 -2.3496 0.9258
0.8447 -19.1175 -2.3496 0.9258
5.7382 -19.5510 -2.5018 0.9212
8.0498 -18.7181 -2.5018 0.9212
12.2900 -16.2519 -2.5018 0.9212
14.1569 -14.6543 -2.5018 0.9212
15.8180 -12.8437 -2.5018 0.9212
17.2489 -10.8463 -2.5018 0.9212
19.3413 -6.4096 -2.5018 0.9212
20.3126 -1.6015 -2.5018 0.9212
20.3577 0.8552 -2.5018 0.9212
8.2762 2.4096 -1.0584 0.9659
7.8505 3.3560 -1.0483 0.9662
16.5624 9.5853 -2.3496 0.9258
11.4433 8.6147 -1.7587 0.9439
0.8342 -15.7738 -2.5018 0.9380
2.7268 -15.5587 -2.5018 0.9380
6.3662 -14.4562 -2.5018 0.9380
8.0600 -13.5847 -2.5018 0.9380
9.6366 -12.5158 -2.5018 0.9380
11.0731 -11.2648 -2.5018 0.9380
12.3485 -9.8500 -2.5018 0.9380
13.4444 -8.2920 -2.5018 0.9380
15.0365 -4.8386 -2.5018 0.9380
15.5096 -2.9935 -2.5018 0.9380
15.7572 -1.1048 -2.5018 0.9380
15.5646 2.6931 -2.5018 0.9380
7.5002 2.2544 -1.2404 0.9688
12.7747 7.5420 -2.3496 0.9417
6.9246 8.6425 -1.7540 0.9561
3.9200 8.4544 -1.4760 0.9630
0.6276 8.6812 -1.3786 0.9654
-1.4849 8.6942 -1.3970 0.9649
-8.5144 8.7374 -1.9323 0.9518
-13.4450 6.2694 -2.3496 0.9417
-14.1019 4.6055 -2.3496 0.9417
-15.3061 3.0232 -2.4711 0.9388
-15.7789 -0.7315 -2.5018 0.9380
-15.1468 -4.4813 -2.5018 0.9380
-14.4973 -6.2720 -2.5018 0.9380
-11.3366 -10.9995 -2.5018 0.9380
-4.8306 -14.6830 -2.4482 0.9393
-1.2052 -15.7224 -2.4975 0.9381
0.6972 -15.7804 -2.5018 0.9380
2.5917 -15.5818 -2.5018 0.9380
9.5276 -12.5989 -2.5018 0.9380
10.9749 -11.3605 -2.5018 0.9380
12.2626 -9.9568 -2.5018 0.9380
14.2868 -6.7376 -2.5018 0.9380
15.7470 -1.2415 -2.5018 0.9380
15.7819 0.6630 -2.5018 0.9380
15.5874 2.5578 -2.5018 0.9380
6.9876 2.9871 -1.2036 0.9697
12.8397 7.4308 -2.3496 0.9417
-3.9160 -12.2605 -2.5018 0.9489
-2.4117 -12.6428 -2.5018 0.9489
2.2219 -12.6775 -2.5018 0.9489
5.1873 -11.7791 -2.5018 0.9489
9.0225 -9.1788 -2.5018 0.9489
10.0618 -8.0260 -2.5018 0.9489
11.6884 -5.3887 -2.5018 0.9489
12.2520 -3.9426 -2.5018 0.9489
12.8392 -0.9002 -2.5018 0.9489
6.4720 2.8334 -1.3733 0.9716
6.9246 8.6425 -2.1526 0.9559
5.3124 8.5717 -1.9602 0.9597
2.6700 8.2361 -1.6830 0.9653
0.6276 8.6812 -1.6919 0.9652
-0.4216 8.6876 -1.6907 0.9652
-1.4849 8.6942 -1.7144 0.9647
-2.5708 8.6205 -1.7486 0.9640
-3.6737 8.4413 -1.7895 0.9632
-4.8573 8.2683 -1.8640 0.9617
-6.6585 8.7259 -2.1336 0.9563
-12.8569 -0.5960 -2.5018 0.9489
-11.8126 -5.1105 -2.5018 0.9489
-11.1116 -6.4953 -2.5018 0.9489
-10.2490 -7.7855 -2.5018 0.9489
-8.0913 -10.0093 -2.5018 0.9489
-5.4647 -11.6530 -2.5018 0.9489
-4.0223 -12.2261 -2.5018 0.9489
-2.5213 -12.6214 -2.5018 0.9489
3.6247 -12.3498 -2.5018 0.9489
5.0849 -11.8237 -2.5018 0.9489
7.7633 -10.2658 -2.5018 0.9489
8.9425 -9.2567 -2.5018 0.9489
9.9918 -8.1130 -2.5018 0.9489
10.8957 -6.8513 -2.5018 0.9489
12.2173 -4.0488 -2.5018 0.9489
12.6158 -2.5487 -2.5018 0.9489
12.8309 -1.0116 -2.5018 0.9489
12.8594 0.5402 -2.5018 0.9489
12.7009 2.0842 -2.5018 0.9489
9.6571 7.2700 -2.3496 0.9519
0.5723 -10.8214 -2.5018 0.9565
1.8707 -10.6739 -2.5018 0.9565
3.1419 -10.3711 -2.5018 0.9565
6.6111 -8.5863 -2.5018 0.9565
8.4716 -6.7575 -2.5018 0.9565
9.8410 -4.5370 -2.5018 0.9565
10.6402 -2.0536 -2.5018 0.9565
10.8227 0.5488 -2.5018 0.9565
8.0774 6.1914 -2.3496 0.9591
6.3636 7.9424 -2.3496 0.9591
5.3613 8.6506 -2.3496 0.9591
4.2811 9.2331 -2.3496 0.9591
2.6105 8.0525 -1.9543 0.9658
1.6938 8.6746 -2.0405 0.9644
-1.4849 8.6942 -2.0363 0.9644
-2.5708 8.6205 -2.0768 0.9637
-4.0613 9.3318 -2.3496 0.9591
-5.1551 8.7751 -2.3496 0.9591
-6.1738 8.0908 -2.3496 0.9591
-9.2238 4.3011 -2.3496 0.9591
-10.3011 3.3642 -2.5018 0.9565
-10.3913 -3.0744 -2.5018 0.9565
-9.3555 -5.4687 -2.5018 0.9565
-7.7774 -7.5461 -2.5018 0.9565
-6.8125 -8.4274 -2.5018 0.9565
-3.3866 -10.2938 -2.5018 0.9565
-2.1229 -10.6266 -2.5018 0.9565
0.4783 -10.8260 -2.5018 0.9565
3.0518 -10.3980 -2.5018 0.9565
4.2812 -9.9550 -2.5018 0.9565
5.4484 -9.3673 -2.5018 0.9565
6.5363 -8.6434 -2.5018 0.9565
9.8013 -4.6223 -2.5018 0.9565
10.6220 -2.1459 -2.5018 0.9565
10.8270 0.4548 -2.5018 0.9565
10.6935 1.7548 -2.5018 0.9565
8.8085 5.0978 -2.3496 0.9591
-2.8408 -8.8943 -2.5018 0.9621
1.6118 -9.1967 -2.5018 0.9621
6.5453 -6.6586 -2.5018 0.9621
7.9470 -4.9014 -2.5018 0.9621
8.4792 -3.9092 -2.5018 0.9621
8.8881 -2.8601 -2.5018 0.9621
9.1677 -1.7694 -2.5018 0.9621
9.3140 -0.6530 -2.5018 0.9621
9.2002 1.5919 -2.5018 0.9621
6.7992 2.0437 -1.9024 0.9710
7.7248 4.5606 -2.4037 0.9635
5.4830 6.8433 -2.3496 0.9643
4.6194 7.4535 -2.3496 0.9643
3.6886 7.9553 -2.3496 0.9643
1.1428 5.8527 -1.5978 0.9756
-0.4251 8.7586 -2.3496 0.9643
-1.4763 8.6437 -2.3496 0.9643
-2.5060 8.4032 -2.3496 0.9643
-3.4993 8.0404 -2.3496 0.9643
-8.4533 3.9418 -2.4992 0.9621
-9.3269 -0.4324 -2.5018 0.9621
-9.2070 -1.5519 -2.5018 0.9621
-8.9533 -2.6489 -2.5018 0.9621
-7.4350 -5.6479 -2.5018 0.9621
-6.7011 -6.5018 -2.5018 0.9621
-4.9530 -7.9149 -2.5018 0.9621
-3.9643 -8.4536 -2.5018 0.9621
-1.8291 -9.1560 -2.5018 0.9621
-0.7137 -9.3096 -2.5018 0.9621
0.4121 -9.3278 -2.5018 0.9621
1.5319 -9.2104 -2.5018 0.9621
3.6887 -8.5774 -2.5018 0.9621
4.6944 -8.0710 -2.5018 0.9621
8.4449 -3.9826 -2.5018 0.9621
8.8629 -2.9371 -2.5018 0.9621
9.1520 -1.8489 -2.5018 0.9621
9.2137 1.5119 -2.5018 0.9621
7.8698 4.5545 -2.4364 0.9630
