ply
format ascii 1.0
element vertex 700
property float32 x
property float32 y
property float32 z
property float32 I
end_header
-12.8916 -31.5975 9.1441 0.8682
-7.4637 -27.3153 7.5874 0.8894
-6.0460 -41.0930 11.1294 0.8420
40.5601 19.8329 12.0977 0.8295
8.8231 5.7233 2.8180 0.9574
33.3321 27.8530 11.6390 0.8354
33.3794 35.5399 13.0645 0.8172
-0.5345 5.8916 1.5851 0.9758
-9.9742 28.9521 8.2051 0.8809
-14.7715 22.8906 7.2997 0.8933
-19.2952 23.2023 8.0859 0.8825
-24.0884 22.7318 8.8747 0.8718
-39.9224 -8.4573 10.9346 0.8445
-63.2268 -21.6147 17.9042 0.7583
-10.6501 -25.4123 7.3830 0.8922
-7.9425 -28.0206 7.8039 0.8864
58.1507 19.5721 16.4403 0.7756
40.7462 19.4477 12.0977 0.8295
9.0419 5.7442 2.8703 0.9566
33.4354 44.6374 14.9438 0.7938
34.2716 59.5468 18.4094 0.7524
-12.2399 25.8018 7.6521 0.8885
-4.9596 -33.7089 7.8661 0.8695
28.0697 -43.0488 11.8651 0.8098
58.5221 -32.7652 15.4843 0.7593
56.6919 19.6812 13.8546 0.7816
8.8231 5.7233 2.4280 0.9577
33.3321 27.8530 10.0283 0.8367
33.3794 35.5399 11.2565 0.8186
-0.5345 5.8911 1.3656 0.9760
-9.8690 46.0481 10.8724 0.8242
-14.7715 22.8906 6.2895 0.8942
-19.2952 23.2023 6.9669 0.8835
-56.6667 53.4752 17.9880 0.7263
-39.7058 -8.4114 9.3702 0.8465
-51.1645 -24.7185 13.1185 0.7919
-13.3874 -31.9438 7.9963 0.8675
36.6402 -44.4867 13.3056 0.7893
58.4897 -33.4790 15.5590 0.7583
33.7928 21.4681 9.2429 0.8484
33.4354 44.6375 12.8758 0.7954
-18.9243 23.2000 6.9121 0.8843
-56.4317 54.2737 18.0759 0.7251
-9.1642 -33.5388 6.7583 0.8679
35.9050 -42.7618 10.8536 0.7965
59.1304 -33.1058 13.1726 0.7587
56.4089 19.5829 11.6067 0.7840
41.2299 20.1605 8.9211 0.8294
33.7956 21.9222 7.8302 0.8486
33.9414 28.3621 8.5977 0.8351
33.3794 35.5399 9.4774 0.8198
34.4495 46.9112 11.3132 0.7889
2.4133 8.6702 1.7494 0.9640
1.3187 8.6769 1.7060 0.9649
-0.5344 5.8906 1.1497 0.9762
-1.8638 8.6965 1.7288 0.9644
-2.9984 8.7035 1.7894 0.9632
-14.7715 22.8906 5.2955 0.8949
-56.6666 53.4752 15.1451 0.7280
-59.9517 -12.7003 11.9120 0.7790
-24.8200 -33.4649 8.0988 0.8439
-18.8392 -33.0948 7.4022 0.8563
-14.1092 -33.6662 7.0955 0.8618
-5.2861 -33.7069 6.6320 0.8702
25.0184 -39.1758 9.0354 0.8274
58.0853 -33.2475 13.0094 0.7613
58.1508 19.5722 11.9264 0.7788
33.7928 21.4681 7.7821 0.8495
33.3753 34.8673 9.3820 0.8215
4.9810 8.6544 1.9410 0.9601
1.4028 8.6764 1.7084 0.9648
-0.7054 8.6894 1.6946 0.9651
-1.7777 8.6960 1.7253 0.9645
-2.9062 8.7029 1.7835 0.9633
-56.4318 54.2737 15.2191 0.7268
-12.8916 -31.5976 5.4051 0.8709
-8.6504 -31.6584 5.1980 0.8755
20.8330 -42.3506 7.4753 0.8260
25.9632 -39.8183 7.5288 0.8249
35.5445 -42.3324 8.7549 0.7994
58.9566 -33.0085 10.7017 0.7606
60.9551 -25.0379 10.4371 0.7658
6.3492 8.6460 1.6990 0.9575
4.8728 8.6551 1.5732 0.9606
1.3187 8.6769 1.3901 0.9651
-0.5343 5.8896 0.9367 0.9763
-2.9984 8.7035 1.4580 0.9634
-4.2340 8.7111 1.5340 0.9615
-5.6268 8.7196 1.6436 0.9588
-7.2596 8.7297 1.7983 0.9551
-56.6666 53.4752 12.3405 0.7294
-80.6759 45.6721 14.6833 0.6870
-58.9302 -12.4839 9.5408 0.7835
-66.0205 -31.8958 11.6130 0.7431
-81.2783 -52.1773 15.2976 0.6763
-24.9276 -33.6099 6.6276 0.8441
-13.2435 -31.6005 5.4268 0.8704
-8.9731 -31.6564 5.2114 0.8752
-2.9113 -83.3601 13.2110 0.7133
20.3248 -42.3255 7.4366 0.8268
25.5805 -40.0560 7.5276 0.8249
58.9898 -43.9681 11.6528 0.7423
58.6554 -33.5739 10.7044 0.7606
58.1508 19.5722 9.7179 0.7800
42.2596 20.1701 7.4166 0.8273
8.2617 8.6310 1.8924 0.9528
6.4757 8.6452 1.7108 0.9572
4.9810 8.6544 1.5815 0.9604
3.6787 8.6624 1.4906 0.9626
2.5019 8.6696 1.4292 0.9641
1.4028 8.6764 1.3921 0.9650
0.3444 8.6829 1.3763 0.9654
-1.7777 8.6960 1.4058 0.9647
-2.9062 8.7029 1.4532 0.9635
-4.1321 8.7104 1.5270 0.9617
-5.5100 8.7189 1.6336 0.9591
-79.8839 46.2288 14.6182 0.6881
-12.8916 -31.5976 4.1902 0.8715
-4.9596 -33.7090 4.1835 0.8717
-2.1425 -84.2218 10.3445 0.7121
21.1837 -43.0636 5.8927 0.8241
25.9767 -39.8391 5.8396 0.8256
63.1130 -17.4059 8.0386 0.7681
63.1620 -9.4459 7.8416 0.7731
33.7957 21.9222 4.9461 0.8501
10.3176 8.6216 1.6509 0.9473
8.1103 8.6352 1.4546 0.9534
6.3492 8.6460 1.3171 0.9577
0.2621 8.6834 1.0667 0.9656
-0.5342 5.8886 0.7260 0.9765
-1.8638 8.6965 1.0920 0.9648
-4.2340 8.7111 1.1892 0.9617
-5.6268 8.7196 1.2742 0.9590
-7.2596 8.7297 1.3941 0.9553
-81.2744 46.0109 11.4674 0.6863
-51.5613 -24.9103 7.0310 0.7939
-24.1020 -32.4968 4.9678 0.8495
-14.1092 -33.6662 4.4820 0.8632
-5.2861 -33.7070 4.1893 0.8715
26.7015 -78.7156 10.2060 0.7154
20.7642 -43.2406 5.8897 0.8242
44.7380 -42.6209 7.5869 0.7796
58.5335 -33.5041 8.2811 0.7620
62.9739 -18.0113 8.0423 0.7680
63.2227 -2.3580 7.7682 0.7749
63.1708 5.2788 7.7834 0.7746
10.4765 8.5871 1.6632 0.9469
8.2648 8.6342 1.4676 0.9530
6.4757 8.6452 1.3263 0.9574
3.6787 8.6624 1.1555 0.9628
2.5019 8.6696 1.1079 0.9643
1.4028 8.6764 1.0792 0.9652
-0.7054 8.6894 1.0704 0.9655
-1.7777 8.6960 1.0898 0.9649
-4.1321 8.7104 1.1837 0.9619
-5.5100 8.7189 1.2664 0.9593
-55.4106 53.2916 9.4395 0.7336
-79.9424 46.2626 11.3408 0.6892
-12.8916 -31.5977 2.9857 0.8719
-8.6504 -31.6585 2.8713 0.8765
-4.6615 -31.6829 2.8017 0.8793
26.9622 -77.0751 7.1439 0.7205
21.6620 -44.0359 4.2935 0.8211
25.8614 -39.6622 4.1425 0.8269
45.1753 -42.2282 5.4102 0.7801
56.3125 -41.1484 6.1018 0.7558
59.0363 -33.0531 5.9194 0.7621
62.9779 -17.3686 5.7155 0.7693
63.0267 -9.4257 5.5754 0.7742
63.1208 5.8774 5.5462 0.7753
56.4090 19.5830 5.2241 0.7868
13.2633 8.6035 1.3831 0.9385
8.1103 8.6352 1.0364 0.9535
6.3492 8.6460 0.9385 0.9578
4.8728 8.6551 0.8690 0.9609
3.5824 8.6630 0.8202 0.9631
2.4133 8.6702 0.7874 0.9645
0.2621 8.6834 0.7600 0.9657
-2.9984 8.7035 0.8054 0.9637
-4.2340 8.7111 0.8474 0.9619
-5.6268 8.7196 0.9079 0.9592
-15.5098 8.7804 1.5593 0.9309
-18.8392 -33.0948 3.3317 0.8582
5.0482 -58.7352 5.1576 0.7892
27.2940 -80.4622 7.4335 0.7109
34.7125 -42.1462 4.7770 0.8031
55.9766 -41.7223 6.1080 0.7555
58.6554 -33.5739 5.9128 0.7623
58.6350 -24.7368 5.5677 0.7745
62.9739 -18.0113 5.7304 0.7687
63.0230 -10.0366 5.5833 0.7740
63.0702 -2.3523 5.5218 0.7761
63.1171 5.2743 5.5413 0.7754
63.1650 13.0686 5.6433 0.7718
8.2648 8.6342 1.0457 0.9531
4.9810 8.6544 0.8736 0.9607
3.6787 8.6624 0.8234 0.9629
0.3444 8.6829 0.7603 0.9657
-0.7054 8.6894 0.7627 0.9656
-1.7777 8.6960 0.7765 0.9650
-2.9062 8.7029 0.8027 0.9638
-15.1689 8.7783 1.5333 0.9320
-20.6136 8.8117 1.9613 0.9139
-12.8916 -31.5976 1.7885 0.8722
-9.1212 -33.3817 1.8136 0.8706
-4.9383 -33.5647 1.7780 0.8729
35.4066 -42.1682 2.8857 0.8021
45.1754 -42.2283 3.2408 0.7806
33.2000 -24.2597 2.1550 0.8481
59.0363 -33.0531 3.5459 0.7626
67.1193 -18.5108 3.6489 0.7566
68.0544 -10.1776 3.6062 0.7591
67.9995 -1.8910 3.5651 0.7615
41.2300 20.1605 2.4053 0.8321
13.2633 8.6035 0.8285 0.9386
6.3492 8.6460 0.5622 0.9579
4.8728 8.6551 0.5205 0.9610
3.5824 8.6630 0.4913 0.9631
2.4089 8.6546 0.4708 0.9647
1.3171 8.6666 0.4594 0.9655
-0.5341 5.8867 0.3098 0.9766
-1.8603 8.6803 0.4652 0.9651
-5.6268 8.7196 0.5439 0.9593
-7.2596 8.7297 0.5950 0.9555
-11.8670 8.7580 0.7730 0.9426
-15.5098 8.7804 0.9340 0.9311
-21.1005 8.7843 1.1978 0.9125
-39.3615 -8.3385 2.1086 0.8512
-13.7740 -24.1967 1.4592 0.8945
-2.2060 -63.1651 3.3124 0.7763
28.8369 -85.0107 4.7046 0.6980
26.5595 -41.5890 2.5861 0.8207
34.7272 -42.1640 2.8627 0.8035
66.5842 -19.0439 3.6295 0.7578
68.0588 -10.8386 3.6118 0.7588
68.0038 -2.5363 3.5664 0.7614
67.9500 5.6782 3.5735 0.7610
67.4859 13.9626 3.6117 0.7588
58.1511 19.5723 3.2156 0.7821
3.6787 8.6624 0.4932 0.9630
-2.9043 8.6970 0.4805 0.9639
-5.5100 8.7189 0.5405 0.9595
-20.6136 8.8117 1.1749 0.9141
-12.8916 -31.5976 0.5957 0.8724
-8.5279 -31.2102 0.5647 0.8786
-4.9383 -33.5646 0.5922 0.8731
29.2114 -44.7999 0.9335 0.8074
32.8395 -39.1108 0.8914 0.8152
33.2000 -24.2597 0.7177 0.8483
49.2309 -20.2220 0.9290 0.8082
89.7885 -24.7627 1.6258 0.6889
10.3176 8.6216 0.2347 0.9476
2.4133 8.6702 0.1571 0.9646
1.3187 8.6769 0.1532 0.9655
-1.8593 8.6756 0.1549 0.9651
-5.6268 8.7196 0.1811 0.9593
-7.2596 8.7297 0.1982 0.9556
-11.8670 8.7580 0.2574 0.9427
-39.3436 -8.3347 0.7020 0.8514
-23.1255 -31.1801 0.6776 0.8562
-13.7745 -24.1977 0.4860 0.8946
-8.8460 -31.2083 0.5662 0.8783
-5.2635 -33.5627 0.5930 0.8729
-2.3254 -66.5846 1.1629 0.7660
30.3550 -89.4860 1.6494 0.6852
29.0492 -45.4877 0.9421 0.8058
32.2629 -39.1720 0.8858 0.8163
33.1430 -31.5746 0.7990 0.8327
33.2036 -24.7484 0.7228 0.8473
42.5423 -24.3509 0.8556 0.8219
86.5175 -24.7451 1.5707 0.6977
95.6213 7.9905 1.6749 0.6812
65.3736 13.5256 1.1653 0.7656
58.1511 19.5723 1.0710 0.7823
42.2596 20.1701 0.8174 0.8292
14.1324 8.9782 0.2923 0.9352
8.2648 8.6342 0.2086 0.9533
6.4715 8.6397 0.1884 0.9577
0.3444 8.6829 0.1517 0.9658
-1.7734 8.6750 0.1546 0.9652
-2.8994 8.6823 0.1598 0.9640
-7.1201 8.7288 0.1966 0.9559
-11.6327 8.7565 0.2541 0.9434
-7.9369 -19.4535 -0.3667 0.9194
-3.1199 -21.2052 -0.3741 0.9178
23.8906 -36.6398 -0.7635 0.8395
32.7147 -38.9622 -0.8880 0.8158
33.1652 -31.0016 -0.7924 0.8339
33.2000 -24.2597 -0.7177 0.8483
43.5038 -24.3568 -0.8703 0.8192
48.5796 -13.3977 -0.8796 0.8174
59.4060 5.5315 -1.0414 0.7877
62.8708 13.6303 -1.1229 0.7731
41.2300 20.1605 -0.8011 0.8323
8.1103 8.6352 -0.2068 0.9537
6.3400 8.6335 -0.1870 0.9581
4.8488 8.6125 -0.1725 0.9612
3.5474 8.5784 -0.1620 0.9635
0.2621 8.6834 -0.1516 0.9658
-0.5339 5.8847 -0.1031 0.9766
-2.9840 8.6615 -0.1599 0.9640
-9.2637 8.7420 -0.2223 0.9503
-11.8670 8.7580 -0.2574 0.9427
-15.3781 8.7058 -0.3085 0.9317
-21.1005 8.7843 -0.3989 0.9126
-54.4974 8.4143 -0.9625 0.8020
-74.2084 -6.5553 -1.3003 0.7423
-39.3258 -8.3309 -0.7017 0.8514
-74.3084 -25.4030 -1.3707 0.7304
-61.5956 -39.5417 -1.2776 0.7462
-8.1553 -19.4597 -0.3683 0.9191
-5.6815 -20.0440 -0.3637 0.9200
-3.3181 -21.1583 -0.3738 0.9179
-0.7978 -22.8423 -0.3990 0.9126
30.2667 -89.2255 -1.6446 0.6860
32.0853 -38.9563 -0.8809 0.8172
33.1616 -31.5923 -0.7995 0.8326
33.2036 -24.7484 -0.7228 0.8473
49.3451 -20.8176 -0.9348 0.8071
96.3501 8.0513 -1.6876 0.6792
65.6947 13.5920 -1.1710 0.7646
39.3620 18.7871 -0.7613 0.8399
14.1324 8.9782 -0.2923 0.9352
10.4765 8.5871 -0.2364 0.9472
8.2648 8.6342 -0.2086 0.9533
6.4715 8.6397 -0.1884 0.9577
3.6427 8.5778 -0.1627 0.9634
2.5019 8.6696 -0.1575 0.9645
0.3444 8.6829 -0.1517 0.9658
-1.7726 8.6713 -0.1545 0.9652
-5.5100 8.7189 -0.1800 0.9596
-20.3407 8.6951 -0.3861 0.9153
-28.0113 8.1554 -0.5092 0.8898
-88.3193 3.7131 -1.5430 0.7021
-74.4249 -5.8642 -1.3031 0.7418
-0.5808 -22.8286 -1.1968 0.9126
4.5383 -47.5193 -2.5017 0.8260
10.2245 -46.6277 -2.5017 0.8260
28.8282 -34.3335 -2.3495 0.8356
33.1022 -24.1883 -2.1486 0.8486
47.2105 -7.0604 -2.5017 0.8260
47.7171 -1.3270 -2.5017 0.8260
47.4247 4.4159 -2.4962 0.8263
43.8136 9.4987 -2.3495 0.8356
28.2731 9.8153 -1.5685 0.8870
14.0402 9.1075 -0.8771 0.9352
3.5302 8.5368 -0.4841 0.9637
2.4133 8.6702 -0.4717 0.9646
-2.9766 8.6402 -0.4789 0.9641
-4.1764 8.5925 -0.5007 0.9625
-7.2596 8.7297 -0.5950 0.9555
-9.2637 8.7420 -0.6675 0.9503
-11.8670 8.7580 -0.7730 0.9426
-15.3112 8.6680 -0.9221 0.9320
-25.6465 7.2040 -1.3961 0.8988
-35.6790 1.1614 -1.8708 0.8668
-36.6266 -7.7591 -1.9621 0.8607
-42.4210 -14.5020 -2.3495 0.8356
-42.9822 -20.7656 -2.5017 0.8260
-40.1706 -25.7878 -2.5017 0.8260
-36.7748 -30.4351 -2.5017 0.8260
-3.2893 -20.9745 -1.1127 0.9185
3.3162 -38.5838 -2.0295 0.8563
9.7822 -46.7225 -2.5017 0.8260
15.3344 -45.2055 -2.5017 0.8260
20.6637 -43.0313 -2.5017 0.8260
23.3668 -36.5896 -2.2752 0.8404
28.5015 -34.6051 -2.3495 0.8356
32.4593 -30.9232 -2.3495 0.8356
38.9084 -22.2708 -2.3495 0.8356
36.3670 -15.3424 -2.0686 0.8538
45.8952 -13.1266 -2.5017 0.8260
47.1415 -7.5075 -2.5017 0.8260
47.5697 3.9751 -2.5017 0.8260
28.2689 9.5146 -1.5632 0.8874
14.1324 8.9782 -0.8775 0.9351
6.4715 8.6397 -0.5657 0.9577
3.6272 8.5412 -0.4863 0.9635
2.5019 8.6696 -0.4729 0.9645
0.3444 8.6829 -0.4554 0.9658
-1.7726 8.6713 -0.4638 0.9652
-2.8851 8.6397 -0.4774 0.9642
-4.0784 8.5973 -0.4987 0.9626
-7.1201 8.7288 -0.5903 0.9559
-17.8753 17.1917 -1.2998 0.9054
-15.0050 8.6834 -0.9086 0.9329
-20.1556 8.6160 -1.1488 0.9159
-44.9416 -3.5411 -2.3626 0.8348
-7.8374 -19.2096 -1.8151 0.9201
-5.4461 -19.9314 -1.8077 0.9204
-3.0485 -20.7199 -1.8323 0.9193
6.1247 -27.9310 -2.5017 0.8915
12.6217 -25.6583 -2.5017 0.8915
20.8894 -19.5266 -2.5017 0.8915
27.5656 -7.6023 -2.5017 0.8915
28.2802 -4.2293 -2.5017 0.8915
28.5836 -0.7949 -2.5017 0.8915
28.4715 2.6511 -2.5017 0.8915
26.2453 5.6899 -2.3495 0.8978
24.1671 11.8171 -2.3536 0.8976
14.0402 9.1075 -1.4642 0.9350
10.3176 8.6216 -1.1763 0.9474
4.8230 8.5668 -0.8601 0.9613
3.5211 8.5148 -0.8061 0.9637
2.4133 8.6702 -0.7874 0.9645
0.2621 8.6834 -0.7600 0.9657
-2.9693 8.6188 -0.7975 0.9641
-4.1658 8.5708 -0.8337 0.9625
-7.2596 8.7297 -0.9933 0.9554
-11.8670 8.7580 -1.2904 0.9425
-19.9681 8.3129 -1.8923 0.9168
-25.9147 7.2793 -2.3550 0.8976
-22.1795 3.4245 -1.9634 0.9138
-27.9751 -2.4712 -2.4570 0.8934
-27.9739 -5.9260 -2.5017 0.8915
-27.0573 -9.2498 -2.5017 0.8915
-25.7473 -12.4390 -2.5017 0.8915
-24.0631 -15.4475 -2.5017 0.8915
-5.6614 -19.9730 -1.8162 0.9200
-3.2340 -20.6215 -1.8262 0.9196
-0.7659 -21.9304 -1.9198 0.9157
5.8598 -27.9878 -2.5017 0.8915
9.1857 -27.0791 -2.5017 0.8915
12.3780 -25.7768 -2.5017 0.8915
15.3904 -24.0996 -2.5017 0.8915
26.3461 -11.1149 -2.5017 0.8915
28.2388 -4.4971 -2.5017 0.8915
28.5748 -1.0657 -2.5017 0.8915
24.2690 11.5833 -2.3527 0.8976
8.2648 8.6342 -1.0457 0.9531
3.6178 8.5192 -0.8098 0.9635
2.5019 8.6696 -0.7894 0.9644
-0.7054 8.6894 -0.7627 0.9656
-1.7726 8.6713 -0.7743 0.9651
-18.6425 17.9296 -2.2629 0.9014
-14.8092 8.5701 -1.4969 0.9336
-19.6662 8.4067 -1.8712 0.9177
-22.2464 3.6510 -1.9723 0.9135
-26.8313 1.1280 -2.3495 0.8978
-27.4541 -2.1632 -2.4094 0.8953
-5.0436 -18.4586 -2.3495 0.9258
-2.7854 -18.9314 -2.3495 0.9258
6.7277 -19.2320 -2.5017 0.9212
13.1017 -15.6038 -2.5017 0.9212
14.8845 -13.9135 -2.5017 0.9212
16.4509 -12.0209 -2.5017 0.9212
17.7781 -9.9536 -2.5017 0.9212
18.8468 -7.7415 -2.5017 0.9212
20.1507 -3.0136 -2.5017 0.9212
20.3669 -0.5664 -2.5017 0.9212
19.5264 4.2333 -2.4532 0.9226
17.1902 8.4056 -2.3495 0.9258
14.0402 9.1075 -2.0548 0.9348
10.3176 8.6216 -1.6509 0.9473
8.1103 8.6352 -1.4546 0.9534
6.3122 8.5955 -1.3094 0.9579
4.7952 8.5173 -1.2001 0.9614
0.2621 8.6834 -1.0667 0.9656
-0.5336 5.8817 -0.7251 0.9765
-2.9601 8.5924 -1.1159 0.9640
-4.1427 8.5233 -1.1636 0.9625
-18.9112 2.9199 -2.3495 0.9258
-20.3640 0.6629 -2.5017 0.9212
-19.9325 -4.2225 -2.5017 0.9212
-19.2794 -6.5908 -2.5017 0.9212
-18.3460 -8.8633 -2.5017 0.9212
-15.6965 -12.9905 -2.5017 0.9212
-11.7703 -15.8700 -2.4260 0.9235
-5.2183 -18.4100 -2.3495 0.9258
-0.6679 -19.1236 -2.3495 0.9258
1.6386 -19.0649 -2.3495 0.9258
4.1753 -19.9424 -2.5017 0.9212
6.5451 -19.2949 -2.5017 0.9212
8.8198 -18.3669 -2.5017 0.9212
16.3362 -12.1762 -2.5017 0.9212
19.5893 -5.6028 -2.5017 0.9212
20.1213 -3.2044 -2.5017 0.9212
20.3607 -0.7594 -2.5017 0.9212
20.3040 1.6967 -2.5017 0.9212
19.7156 4.0791 -2.4720 0.9221
18.1356 6.1040 -2.3495 0.9258
10.4765 8.5871 -1.6632 0.9469
8.2648 8.6342 -1.4676 0.9530
2.5019 8.6696 -1.1079 0.9643
1.4028 8.6764 -1.0792 0.9652
0.3444 8.6829 -1.0670 0.9656
-1.7699 8.6577 -1.0850 0.9650
-4.0461 8.5291 -1.1591 0.9627
-5.5100 8.7189 -1.2664 0.9593
-7.1201 8.7288 -1.3831 0.9556
-13.8724 13.3419 -2.3632 0.9254
-11.6327 8.7565 -1.7878 0.9430
-14.6499 8.4779 -2.0783 0.9341
-17.5951 7.5214 -2.3495 0.9258
-18.3724 5.3490 -2.3495 0.9258
-18.8826 3.0989 -2.3495 0.9258
-20.3119 -1.6004 -2.5017 0.9212
-5.9490 -14.5812 -2.4943 0.9382
-0.4009 -15.7578 -2.4966 0.9382
1.5017 -15.7236 -2.5017 0.9380
3.3832 -15.4286 -2.5017 0.9380
6.9720 -14.1732 -2.5017 0.9380
8.6272 -13.2310 -2.5017 0.9380
10.1569 -12.0965 -2.5017 0.9380
15.2267 -4.1994 -2.5017 0.9380
15.7891 -0.4391 -2.5017 0.9380
6.8192 2.3673 -1.1433 0.9712
6.5709 3.2130 -1.1585 0.9708
12.4452 8.0728 -2.3495 0.9417
10.3176 8.6216 -2.1296 0.9470
8.1103 8.6352 -1.8763 0.9532
6.3122 8.5955 -1.6891 0.9577
4.7487 8.4347 -1.5331 0.9616
3.4614 8.3703 -1.4346 0.9640
-1.8419 8.5940 -1.3921 0.9650
-2.9347 8.5185 -1.4270 0.9642
-9.2637 8.7420 -2.0174 0.9497
-12.9091 7.3081 -2.3495 0.9417
-13.6949 5.7013 -2.3495 0.9417
-14.2815 4.0116 -2.3495 0.9417
-15.4523 -3.2734 -2.5017 0.9380
-13.2920 -8.5329 -2.5017 0.9380
-10.8679 -11.4620 -2.5017 0.9380
-7.8141 -13.7269 -2.5017 0.9380
-4.1595 -14.6746 -2.4158 0.9401
-2.3644 -15.0770 -2.4171 0.9401
-0.5499 -15.7468 -2.4956 0.9382
3.2368 -15.4600 -2.5017 0.9380
15.7842 -0.5887 -2.5017 0.9380
6.8909 2.3193 -1.1516 0.9710
12.5212 7.9545 -2.3495 0.9417
10.4765 8.5871 -2.1455 0.9466
6.4588 8.6227 -1.7064 0.9573
4.8563 8.4378 -1.5419 0.9613
3.5638 8.3919 -1.4440 0.9637
1.4028 8.6764 -1.3921 0.9650
-0.7054 8.6894 -1.3808 0.9653
-1.7600 8.6092 -1.3918 0.9650
-5.5100 8.7189 -1.6336 0.9591
-7.1201 8.7288 -1.7841 0.9554
-10.6955 10.2865 -2.3503 0.9417
-11.8517 8.9214 -2.3495 0.9417
-12.8393 7.4301 -2.3495 0.9417
-14.2428 4.1467 -2.3495 0.9417
-15.5571 2.5532 -2.4970 0.9381
-15.7464 -1.2407 -2.5017 0.9380
-4.8619 -11.9166 -2.5017 0.9489
-3.3923 -12.4151 -2.5017 0.9489
-0.3273 -12.8660 -2.5017 0.9489
1.2236 -12.8119 -2.5017 0.9489
4.2497 -12.1483 -2.5017 0.9489
8.2760 -9.8564 -2.5017 0.9489
9.4021 -8.7887 -2.5017 0.9489
11.2299 -6.2874 -2.5017 0.9489
12.4070 -3.4217 -2.5017 0.9489
12.8652 -0.3578 -2.5017 0.9489
12.8148 1.1932 -2.5017 0.9489
9.2752 7.7505 -2.3495 0.9519
6.3122 8.5955 -2.0729 0.9575
4.7025 8.3528 -1.8632 0.9617
2.4133 8.6702 -1.7494 0.9640
0.2621 8.6834 -1.6887 0.9652
-0.5334 5.8797 -1.1476 0.9762
-1.8419 8.5940 -1.7084 0.9648
-2.9094 8.4451 -1.7362 0.9643
-4.0346 8.3008 -1.7940 0.9631
-7.2596 8.7297 -2.2070 0.9548
-10.5186 5.9548 -2.3495 0.9519
-11.1588 4.6455 -2.3495 0.9519
-12.3545 3.4703 -2.4944 0.9491
-12.7195 1.9639 -2.5017 0.9489
-12.8203 -1.1325 -2.5017 0.9489
-11.5886 -5.5987 -2.5017 0.9489
-7.6669 -10.3373 -2.5017 0.9489
-1.9940 -12.7148 -2.5017 0.9489
-0.4492 -12.8623 -2.5017 0.9489
2.6374 -12.5970 -2.5017 0.9489
4.1344 -12.1880 -2.5017 0.9489
5.5712 -11.6019 -2.5017 0.9489
6.9271 -10.8470 -2.5017 0.9489
8.1822 -9.9344 -2.5017 0.9489
10.3191 -7.6914 -2.5017 0.9489
11.1698 -6.3935 -2.5017 0.9489
12.3740 -3.5391 -2.5017 0.9489
12.8255 1.0717 -2.5017 0.9489
9.6458 1.9957 -1.9147 0.9607
6.5825 2.2155 -1.3500 0.9721
6.4588 8.6227 -2.0942 0.9570
-0.7054 8.6894 -1.6946 0.9651
-1.7600 8.6092 -1.7081 0.9648
-2.8219 8.4505 -1.7318 0.9643
-5.5100 8.7189 -2.0048 0.9588
-7.1201 8.7288 -2.1896 0.9551
-9.6570 7.2693 -2.3495 0.9519
-11.1143 4.7510 -2.3495 0.9519
-12.7003 2.0843 -2.5017 0.9489
-12.8588 0.5406 -2.5017 0.9489
-12.8304 -1.0110 -2.5017 0.9489
-2.8562 -10.4529 -2.5017 0.9565
1.0302 -10.7870 -2.5017 0.9565
4.7831 -9.7233 -2.5017 0.9565
6.9680 -8.2987 -2.5017 0.9565
10.0235 -4.1172 -2.5017 0.9565
10.4461 -2.8809 -2.5017 0.9565
10.7169 -1.6027 -2.5017 0.9565
10.7894 1.0046 -2.5017 0.9565
9.3106 2.0185 -2.1995 0.9616
6.1861 2.1476 -1.5118 0.9735
7.8093 6.5256 -2.3495 0.9591
6.9671 7.4181 -2.3495 0.9591
6.0237 8.2027 -2.3495 0.9591
4.9926 8.8680 -2.3495 0.9591
-0.5333 5.8787 -1.3628 0.9761
-1.8419 8.5940 -2.0291 0.9646
-2.8935 8.3990 -2.0509 0.9642
-4.2323 8.7076 -2.2352 0.9610
-7.4015 6.9847 -2.3495 0.9591
-8.1884 6.0431 -2.3495 0.9591
-9.5910 3.9928 -2.3985 0.9582
-10.7092 1.6535 -2.5017 0.9565
-10.8304 0.3525 -2.5017 0.9565
-10.7941 -0.9535 -2.5017 0.9565
-8.3480 -6.9089 -2.5017 0.9565
-7.4558 -7.8633 -2.5017 0.9565
-6.4552 -8.7036 -2.5017 0.9565
-5.3607 -9.4172 -2.5017 0.9565
-4.1884 -9.9939 -2.5017 0.9565
-2.9551 -10.4254 -2.5017 0.9565
-1.6789 -10.7053 -2.5017 0.9565
-0.3782 -10.8295 -2.5017 0.9565
2.2206 -10.6061 -2.5017 0.9565
3.4810 -10.2618 -2.5017 0.9565
4.6907 -9.7682 -2.5017 0.9565
5.8323 -9.1327 -2.5017 0.9565
6.8890 -8.3643 -2.5017 0.9565
7.8457 -7.4744 -2.5017 0.9565
9.9840 -4.2120 -2.5017 0.9565
10.7012 -1.7042 -2.5017 0.9565
6.2825 2.1146 -1.5304 0.9732
5.7678 2.7529 -1.4755 0.9741
7.0371 7.3517 -2.3495 0.9591
5.0765 8.8203 -2.3495 0.9591
3.9780 9.3672 -2.3495 0.9591
0.3444 8.6829 -2.0062 0.9650
-0.4820 5.9376 -1.3753 0.9758
-2.8099 8.4145 -2.0481 0.9642
-5.4368 8.6029 -2.3495 0.9591
-8.1307 6.1204 -2.3495 0.9591
-8.8083 5.0973 -2.3495 0.9591
-10.4041 3.0291 -2.5017 0.9565
-3.5270 -8.6447 -2.5017 0.9621
-1.3590 -9.2371 -2.5017 0.9621
-0.2374 -9.3335 -2.5017 0.9621
0.8876 -9.2942 -2.5017 0.9621
1.9998 -9.1198 -2.5017 0.9621
3.0829 -8.8129 -2.5017 0.9621
5.0995 -7.8208 -2.5017 0.9621
6.0037 -7.1502 -2.5017 0.9621
7.5384 -5.5084 -2.5017 0.9621
9.2338 -1.3809 -2.5017 0.9621
5.7434 2.8084 -1.7131 0.9739
4.3017 7.6408 -2.3495 0.9643
3.3508 8.1030 -2.3495 0.9643
2.3512 8.4474 -2.3495 0.9643
1.3175 8.6690 -2.3495 0.9643
0.2645 8.7645 -2.3495 0.9643
-3.8331 7.8863 -2.3495 0.9643
-4.7544 7.3676 -2.3495 0.9643
-7.0552 5.2068 -2.3495 0.9643
-7.6306 4.3198 -2.3495 0.9643
-8.6194 3.5883 -2.5017 0.9621
-9.2272 1.4247 -2.5017 0.9621
-9.3003 -0.8215 -2.5017 0.9621
-8.4068 -4.0615 -2.5017 0.9621
-7.8569 -5.0438 -2.5017 0.9621
-5.5619 -7.4991 -2.5017 0.9621
-2.5461 -8.9826 -2.5017 0.9621
1.9133 -9.1384 -2.5017 0.9621
4.0416 -8.4164 -2.5017 0.9621
5.0252 -7.8688 -2.5017 0.9621
5.9357 -7.2068 -2.5017 0.9621
6.7599 -6.4400 -2.5017 0.9621
7.4859 -5.5796 -2.5017 0.9621
8.1030 -4.6381 -2.5017 0.9621
8.6023 -3.6291 -2.5017 0.9621
8.9766 -2.5674 -2.5017 0.9621
9.3041 0.7775 -2.5017 0.9621
6.1600 2.0733 -1.7416 0.9734
5.2568 7.0180 -2.3495 0.9643
4.3739 7.5997 -2.3495 0.9643
2.4312 8.4247 -2.3495 0.9643
1.3996 8.6561 -2.3495 0.9643
0.3476 8.7616 -2.3495 0.9643
-2.7774 8.3170 -2.3495 0.9643
-3.7582 7.9223 -2.3495 0.9643
-4.6844 7.4124 -2.3495 0.9643
-5.5424 6.7947 -2.3495 0.9643
-8.9643 2.6099 -2.5017 0.9621
-9.3283 0.3922 -2.5017 0.9621
-9.3077 -0.7334 -2.5017 0.9621
