ply
format ascii 1.0
element vertex 916
property float32 x
property float32 y
property float32 z
property float32 I
end_header
-11.5540 -25.6459 7.5370 0.8900
-9.0823 -29.0763 8.1622 0.8815
49.6234 -82.6065 25.8211 0.6710
43.3183 19.1635 12.6922 0.8219
34.5658 34.0644 13.0036 0.8179
-0.3023 5.9224 1.5890 0.9757
-11.7816 26.9161 7.8728 0.8854
-14.3627 24.3386 7.5724 0.8896
-17.7653 23.1929 7.8281 0.8860
-56.2965 -16.6862 15.7333 0.7842
-51.4865 -30.1121 15.9820 0.7811
-9.8163 -29.7800 8.4019 0.8782
-5.9382 -29.6161 8.0936 0.8824
-3.1378 -40.4846 10.8803 0.8452
9.8680 5.6681 3.0493 0.9540
33.5103 25.0495 11.2104 0.8409
34.5593 33.0078 12.8052 0.8204
33.6079 40.9010 14.1846 0.8031
34.6912 54.4465 17.2986 0.7654
-9.7455 34.3548 9.5685 0.8625
-11.3456 27.0656 7.8636 0.8856
-17.1934 23.1894 7.7351 0.8873
-22.0724 23.2917 8.5982 0.8756
-58.2327 -16.2729 16.2012 0.7785
-53.6071 -22.2253 15.5496 0.7864
-26.4888 -40.8637 13.0486 0.8174
-16.4468 -33.6518 10.0363 0.8563
-6.3638 -29.3479 8.0465 0.8831
-1.5117 -16.2072 4.3615 0.9348
35.7733 19.8099 10.9570 0.8442
34.0075 24.6010 11.2466 0.8405
-14.2271 -31.5792 7.9963 0.8675
-9.6770 -30.9801 7.4931 0.8753
-6.1976 -33.6326 7.8954 0.8690
-2.9438 -47.6525 11.0224 0.8220
24.9208 -41.4850 11.1728 0.8198
32.7229 -42.0346 12.2983 0.8036
58.9861 -26.8526 14.9627 0.7664
33.9806 20.2323 9.1303 0.8501
33.6931 54.7527 14.8423 0.7680
-9.7572 32.4526 7.8236 0.8701
-14.3627 24.3386 6.5244 0.8905
-17.7653 23.1929 6.7448 0.8870
-54.3045 55.5368 17.9325 0.7270
-20.1223 1.4804 4.6582 0.9205
-56.9745 -16.8872 13.7192 0.7835
-62.6822 -36.6600 16.7646 0.7422
-19.7636 -31.5606 8.5971 0.8582
-14.7468 -31.4104 8.0111 0.8672
-3.1378 -40.4846 9.3746 0.8465
24.6883 -42.5943 11.3661 0.8170
31.6965 -42.0582 12.1586 0.8056
45.1913 19.1519 11.3315 0.8175
34.5593 33.0079 11.0331 0.8219
33.6079 40.9011 12.2216 0.8047
-10.1637 35.8291 8.5982 0.8582
-11.3456 27.0656 6.7754 0.8865
-13.8519 24.3355 6.4647 0.8914
-64.6644 53.5593 19.3848 0.7084
-57.4026 -16.0410 13.7602 0.7830
-51.3357 -28.9551 13.6070 0.7851
-56.3064 -41.4071 16.1359 0.7506
-26.4888 -40.8637 11.2428 0.8188
-7.3064 -33.6946 7.9598 0.8680
23.9085 -42.7788 11.3141 0.8178
30.6716 -42.0519 12.0165 0.8076
58.8856 -29.0654 15.1607 0.7637
47.2053 19.1395 11.7599 0.8113
10.2316 5.6659 2.7002 0.9531
34.0075 24.6010 9.6902 0.8417
-6.1976 -33.6326 6.6476 0.8699
-2.7552 -44.5993 8.6858 0.8335
48.7627 -49.0945 13.4503 0.7543
94.7485 16.7960 18.7044 0.6756
33.9806 20.2323 7.6873 0.8512
34.5202 26.6568 8.4778 0.8372
33.6932 54.7528 12.4965 0.7695
3.9836 8.6606 1.8530 0.9619
2.7789 8.6578 1.7675 0.9636
0.6046 8.6813 1.6916 0.9652
-3.8118 8.7085 1.8478 0.9620
-14.3627 24.3386 5.4933 0.8912
-17.7653 23.1929 5.6788 0.8878
-81.9240 26.6494 16.7458 0.7040
-79.4086 -13.4366 15.6549 0.7202
-55.7379 -16.5207 11.3002 0.7891
-67.6022 -29.2759 14.3198 0.7407
-19.7636 -31.5606 7.2383 0.8592
-6.7566 -33.6979 6.6806 0.8693
-3.1379 -40.4846 7.8930 0.8475
37.4791 -87.4820 18.4996 0.6785
31.8783 -42.2993 10.2957 0.8059
58.9345 -48.0406 14.7795 0.7336
73.8124 -46.6254 16.9704 0.7006
59.0368 16.9969 11.9417 0.7785
45.1914 19.1520 9.5406 0.8187
34.6155 42.1273 10.5985 0.8008
34.6913 54.4466 12.5491 0.7687
4.1486 8.6595 1.8664 0.9616
0.7412 8.6805 1.6935 0.9651
-0.3072 8.6869 1.6896 0.9652
-2.4680 8.7002 1.7579 0.9638
-17.1934 23.1894 5.6114 0.8890
-52.6197 55.5264 14.8698 0.7322
-64.6643 53.5592 16.3211 0.7102
-79.9003 7.1374 15.5929 0.7212
-57.2159 -42.0759 13.8052 0.7487
-21.7991 -33.6291 7.7901 0.8493
-16.4468 -33.6518 7.2807 0.8584
-11.5562 -33.2963 6.8509 0.8662
-7.3064 -33.6946 6.7018 0.8689
35.8650 -87.4721 18.3765 0.6803
48.9420 -52.4619 13.9461 0.7465
53.1472 -44.7259 13.5021 0.7535
47.2054 19.1396 9.9013 0.8126
35.5947 19.7111 7.9089 0.8472
-9.8118 -31.4118 5.2122 0.8752
-5.8305 -31.6408 5.0958 0.8778
23.1135 -51.6993 8.9694 0.7951
41.8356 -42.1203 9.4027 0.7863
58.9438 -46.5317 11.8942 0.7378
59.1332 -36.0704 10.9707 0.7554
59.2666 -26.9803 10.3138 0.7682
29.6385 5.2540 4.7675 0.8852
59.1933 18.0500 9.8015 0.7783
43.9761 19.4545 7.6163 0.8230
33.9806 20.2323 6.2638 0.8520
34.5202 26.6568 6.9079 0.8381
33.6162 42.2422 8.5505 0.8036
3.9836 8.6606 1.5098 0.9621
2.7789 8.6578 1.4402 0.9638
1.6688 8.6748 1.3991 0.9649
0.6046 8.6813 1.3783 0.9654
-1.5062 8.6943 1.3975 0.9649
-2.6161 8.7011 1.4391 0.9639
-3.8118 8.7085 1.5056 0.9622
-6.6840 8.7261 1.7409 0.9565
-8.5437 8.7375 1.9355 0.9517
-52.8080 17.1782 8.7954 0.7986
-79.0516 5.8159 12.5544 0.7254
-78.7348 -13.3226 12.6476 0.7237
-63.4197 -61.5289 13.9952 0.6992
-19.7636 -31.5606 5.8979 0.8600
-10.4319 -31.6475 5.2778 0.8738
22.1278 -51.6497 8.8996 0.7965
23.8319 -41.1168 7.5271 0.8249
52.4697 -42.7709 10.7216 0.7602
73.8599 -24.6672 12.3334 0.7295
7.1005 8.6414 1.7714 0.9557
5.5122 8.6512 1.6247 0.9593
4.1486 8.6595 1.5208 0.9619
21.9559 64.8955 10.8508 0.7577
0.7412 8.6805 1.3799 0.9653
-0.3072 8.6869 1.3767 0.9654
-1.3662 8.6934 1.3938 0.9650
-13.8519 24.3355 4.4350 0.8928
-6.4689 8.7248 1.7203 0.9570
-8.2653 8.7219 1.9032 0.9525
-64.6643 53.5592 13.2987 0.7117
-52.3843 17.9519 8.7705 0.7991
-82.5814 -12.6472 13.2321 0.7130
-58.3706 -16.3115 9.5992 0.7824
-80.7299 -33.4702 13.8417 0.7019
-57.7486 -42.4677 11.3534 0.7480
-23.1654 -21.7813 5.0362 0.8792
-20.4782 -31.5913 5.9629 0.8586
-15.4547 -31.6220 5.5746 0.8672
-10.9828 -31.6441 5.3052 0.8731
-6.8597 -31.6345 5.1269 0.8771
23.2235 -41.5532 7.5395 0.8247
28.5122 -39.0913 7.6634 0.8221
69.9738 -24.5933 11.7473 0.7405
59.5315 16.1346 9.7690 0.7790
47.2055 19.1396 8.0678 0.8136
35.5947 19.7111 6.4443 0.8481
34.0076 24.6010 6.6478 0.8437
-6.1976 -33.6326 4.1991 0.8713
-2.7552 -44.5993 5.4865 0.8352
27.1969 -87.9545 11.3040 0.6900
31.8315 -40.8896 6.3626 0.8115
58.7646 -35.8456 8.4518 0.7577
77.9777 -24.6925 10.0429 0.7192
65.7292 -12.3783 8.2124 0.7637
65.7787 -4.3221 8.0940 0.7667
65.8275 3.6187 8.0948 0.7667
59.1933 18.0500 7.5984 0.7793
43.9761 19.4545 5.9044 0.8238
8.7582 8.6312 1.5098 0.9517
3.9836 8.6606 1.1705 0.9623
1.6688 8.6748 1.0847 0.9650
0.6046 8.6813 1.0685 0.9655
-0.3020 5.9163 0.7274 0.9764
-1.5062 8.6943 1.0834 0.9651
-2.6161 8.7011 1.1156 0.9640
-3.8118 8.7085 1.1672 0.9624
-5.1439 8.7166 1.2427 0.9600
-15.7331 -33.5112 4.5456 0.8614
-6.7567 -33.6980 4.2199 0.8707
-3.1266 -40.3389 4.9678 0.8495
21.4713 -50.1172 6.6946 0.8027
40.7705 -42.3537 7.2183 0.7891
58.7568 -37.1151 8.5332 0.7557
59.4576 17.1180 7.5970 0.7793
34.3296 19.7188 4.8610 0.8525
9.0351 8.6295 1.5341 0.9509
7.1005 8.6414 1.3733 0.9559
5.5122 8.6512 1.2595 0.9595
0.7412 8.6805 1.0697 0.9655
-0.3072 8.6869 1.0673 0.9656
-2.4680 8.7002 1.1104 0.9642
-3.6501 8.7075 1.1593 0.9627
-6.4689 8.7248 1.3336 0.9572
-10.5642 8.7500 1.6843 0.9462
-82.1911 -12.5874 10.2095 0.7153
-80.5116 -33.3797 10.7015 0.7038
-64.8949 -36.6029 9.1482 0.7406
-58.0449 -42.6855 8.8470 0.7480
-16.4468 -33.6519 4.5990 0.8599
-11.5562 -33.2963 4.3275 0.8676
-7.3064 -33.6946 4.2333 0.8703
20.8615 -50.8798 6.7520 0.8012
23.0990 -41.3304 5.8135 0.8263
39.6164 -42.4656 7.1308 0.7913
50.4475 -42.4539 8.0957 0.7667
58.8040 -29.0251 8.0519 0.7678
63.3456 -22.2637 8.2443 0.7629
63.2959 -6.1539 7.8084 0.7739
61.3129 8.8993 7.6072 0.7790
59.4514 16.1129 7.5631 0.7802
35.5947 19.7111 4.9958 0.8488
11.9047 8.6119 1.8041 0.9425
-2.9438 -47.6525 4.1770 0.8256
26.1619 -84.6074 7.7480 0.7008
22.4540 -50.2242 4.8132 0.8018
59.2129 -36.1191 6.0682 0.7569
58.4287 -18.5021 5.3620 0.7819
63.3015 3.4798 5.5465 0.7753
63.3492 11.2299 5.6287 0.7723
59.0931 18.0194 5.4050 0.7803
14.4377 8.5963 1.4701 0.9348
3.9836 8.6606 0.8340 0.9624
2.7789 8.6578 0.7955 0.9641
0.6045 8.6813 0.7614 0.9657
-1.5062 8.6943 0.7720 0.9652
-5.1439 8.7166 0.8855 0.9602
-6.6840 8.7261 0.9617 0.9568
-10.9100 8.7521 1.2237 0.9454
-14.1305 8.7719 1.4551 0.9354
-19.7636 -31.5606 3.2579 0.8611
-6.3436 -31.6377 2.8230 0.8785
-2.6835 -34.6229 3.0382 0.8698
25.3710 -86.8434 7.9154 0.6954
22.6652 -52.9040 5.0354 0.7937
24.0178 -41.4376 4.1903 0.8250
31.5133 -41.8151 4.5809 0.8104
40.6226 -42.2001 5.1247 0.7904
59.2597 -28.1052 5.7381 0.7685
57.9219 -19.3443 5.3426 0.7825
63.2484 -5.1513 5.5518 0.7751
59.5713 2.3402 5.2158 0.7871
9.0351 8.6295 1.0931 0.9511
5.5122 8.6512 0.8975 0.9596
4.1486 8.6595 0.8401 0.9622
1.8099 8.6739 0.7752 0.9650
-0.3072 8.6869 0.7605 0.9657
-1.3662 8.6934 0.7699 0.9653
-2.4680 8.7002 0.7912 0.9643
-3.6501 8.7075 0.8260 0.9628
-13.8519 24.3355 2.4498 0.8937
-6.4689 8.7248 0.9502 0.9573
-10.5642 8.7500 1.2001 0.9464
-13.6443 8.7689 1.4190 0.9370
-18.1790 8.7968 1.7669 0.9221
-21.7991 -33.6291 3.5062 0.8514
-10.9828 -31.6442 2.9305 0.8742
-1.5076 -16.1627 1.4202 0.9369
23.0419 -41.2282 4.1321 0.8273
39.3616 -42.1925 5.0483 0.7932
50.2162 -42.2593 5.7420 0.7683
58.9480 -38.5398 6.1617 0.7537
58.9037 -29.0744 5.7470 0.7682
58.3422 -20.5052 5.4104 0.7801
57.7042 8.3755 5.1014 0.7913
35.7734 19.8100 3.5776 0.8486
11.9047 8.6119 1.2855 0.9427
-13.7841 -30.5960 1.7587 0.8742
-6.1547 -33.3999 1.7799 0.8728
-2.7552 -44.5994 2.3418 0.8361
26.1277 -84.4967 4.6352 0.7017
24.7254 -41.1596 2.5164 0.8250
31.7921 -40.8390 2.7124 0.8128
33.3809 -26.3517 2.2288 0.8434
59.2666 -26.9803 3.4127 0.7704
68.2122 -4.4820 3.5826 0.7605
52.2546 9.2632 2.7812 0.8085
43.9761 19.4545 2.5201 0.8248
14.4377 8.5963 0.8806 0.9349
33.6162 42.2422 2.8293 0.8055
5.3244 8.6523 0.5324 0.9601
3.9836 8.6606 0.4996 0.9625
1.6663 8.6616 0.4623 0.9653
-0.3019 5.9130 0.3103 0.9766
-1.5040 8.6816 0.4618 0.9653
-3.8118 8.7085 0.4982 0.9626
-10.9100 8.7521 0.7330 0.9455
-34.4062 2.5313 1.8080 0.8709
-25.4934 -31.5255 2.1248 0.8501
-6.6962 -33.3966 1.7851 0.8725
25.1767 -86.1784 4.7052 0.6979
22.2433 -51.9191 2.9602 0.7975
25.3206 -43.6853 2.6462 0.8169
31.3346 -41.5779 2.7285 0.8118
40.6229 -42.2004 3.0698 0.7909
33.3831 -27.2123 2.2572 0.8415
59.1486 -19.7540 3.2681 0.7790
68.2752 -13.9677 3.6523 0.7564
68.2193 -5.5561 3.5871 0.7602
68.1651 2.6778 3.5751 0.7609
51.9848 8.3782 2.7596 0.8098
29.4870 8.4894 1.6081 0.8843
33.6632 14.2664 1.9161 0.8638
11.5238 8.6142 0.7540 0.9440
9.0351 8.6295 0.6548 0.9512
7.1005 8.6414 0.5861 0.9562
5.5122 8.6512 0.5376 0.9597
4.1486 8.6595 0.5032 0.9623
-3.6501 8.7075 0.4948 0.9629
-6.4689 8.7248 0.5692 0.9574
-8.2786 8.7359 0.6307 0.9529
-13.6443 8.7689 0.8500 0.9371
-18.1790 8.7968 1.0584 0.9223
-58.0773 -42.7093 3.7782 0.7492
-20.4568 -31.5582 1.9710 0.8602
-11.5563 -33.2964 1.8471 0.8683
-1.5075 -16.1613 0.8507 0.9371
24.0083 -87.2292 4.7415 0.6960
22.4451 -54.7420 3.1007 0.7890
30.6692 -42.0487 2.7276 0.8118
39.3615 -42.1924 3.0240 0.7936
50.4475 -42.4540 3.4554 0.7679
58.9480 -38.5398 3.6910 0.7542
68.2264 -6.6333 3.5924 0.7599
68.1721 1.6098 3.5737 0.7610
33.6558 13.6459 1.9033 0.8646
35.5947 19.7111 2.1324 0.8496
11.9047 8.6119 0.7700 0.9428
-15.8555 -35.1936 0.6738 0.8569
-9.3282 -29.8636 0.5461 0.8824
-5.7543 -31.2272 0.5542 0.8807
-2.3169 -37.5047 0.6559 0.8604
39.1140 -87.4886 1.6728 0.6815
33.3448 -33.5717 0.8259 0.8275
39.8899 -24.3323 0.8156 0.8295
53.6404 -24.4191 1.0287 0.7900
27.9190 8.5134 0.5095 0.8898
45.5479 20.1498 0.8694 0.8193
11.1582 8.6165 0.2461 0.9452
3.9649 8.6200 0.1656 0.9628
2.7789 8.6578 0.1587 0.9643
-0.3018 5.9114 0.1033 0.9766
-2.6099 8.6804 0.1582 0.9644
-6.6840 8.7261 0.1919 0.9570
-8.5437 8.7375 0.2133 0.9523
-27.2131 8.8523 0.4995 0.8918
-58.0772 -17.2140 1.0573 0.7848
-19.7636 -31.5606 0.6500 0.8616
-3.1379 -40.4847 0.7088 0.8501
25.8477 -88.4753 1.6089 0.6916
25.3049 -43.6581 0.8808 0.8172
31.7626 -42.1458 0.9212 0.8097
33.3383 -34.6330 0.8391 0.8250
38.4879 -24.3118 0.7946 0.8335
73.8601 -24.6672 1.3592 0.7323
95.9362 -19.6266 1.7092 0.6759
34.3296 19.7189 0.6910 0.8535
5.4999 8.6320 0.1787 0.9599
-1.3641 8.6800 0.1534 0.9655
-2.4621 8.6795 0.1575 0.9646
-3.6329 8.6665 0.1640 0.9631
-6.4689 8.7248 0.1896 0.9575
-10.5642 8.7500 0.2394 0.9466
-13.6249 8.7564 0.2827 0.9373
-25.7735 8.8325 0.4756 0.8967
-81.6500 -12.5045 1.4418 0.7186
-26.0171 -31.1624 0.7086 0.8501
-17.2767 -35.3499 0.6868 0.8544
-10.8273 -31.1962 0.5764 0.8762
30.8142 -42.2474 0.9127 0.8112
33.3316 -35.7288 0.8529 0.8224
33.3785 -28.0896 0.7615 0.8399
37.1382 -24.2807 0.7745 0.8374
49.4197 -24.3931 0.9620 0.8021
53.6018 -18.8391 0.9917 0.7967
89.2599 -19.7213 1.5956 0.6937
49.9728 7.2533 0.8814 0.8171
31.3344 8.4925 0.5667 0.8782
48.8282 19.7975 0.9197 0.8099
-8.7788 -19.4860 -0.3731 0.9181
-6.1836 -33.5570 -0.5956 0.8724
30.3132 -38.9392 -0.8614 0.8208
33.3448 -33.5717 -0.8259 0.8275
39.8937 -24.3346 -0.8157 0.8295
53.6404 -24.4191 -1.0287 0.7900
70.1812 3.8580 -1.2269 0.7549
11.1582 8.6165 -0.2461 0.9452
28.9008 36.3169 -0.8101 0.8305
3.9445 8.5756 -0.1648 0.9629
2.7789 8.6578 -0.1587 0.9643
0.6046 8.6813 -0.1519 0.9658
-2.6035 8.6593 -0.1578 0.9645
-3.7747 8.6236 -0.1643 0.9630
-5.1439 8.7166 -0.1767 0.9603
-8.5437 8.7375 -0.2133 0.9523
-10.9100 8.7521 -0.2441 0.9456
-88.0517 17.2968 -1.5663 0.6984
-55.7600 4.1023 -0.9759 0.7996
-88.1867 -4.1558 -1.5410 0.7024
-58.3159 -17.2848 -1.0617 0.7840
-60.4094 -35.3307 -1.2215 0.7558
-62.6601 -47.6085 -1.3736 0.7299
-12.5331 -20.0142 -0.4122 0.9099
-9.2274 -19.6544 -0.3790 0.9168
-6.4407 -19.5394 -0.3591 0.9210
25.7560 -88.1614 -1.6032 0.6925
25.2934 -43.6384 -0.8804 0.8173
33.3839 -27.2130 -0.7518 0.8417
38.5106 -24.3261 -0.7951 0.8334
96.3622 -19.7138 -1.7168 0.6747
75.8688 2.9804 -1.3253 0.7380
34.3297 19.7189 -0.6910 0.8535
9.0351 8.6295 -0.2181 0.9512
5.4848 8.6082 -0.1782 0.9600
4.1080 8.5749 -0.1660 0.9627
1.8099 8.6739 -0.1547 0.9652
0.7412 8.6805 -0.1521 0.9657
-2.4561 8.6584 -0.1571 0.9646
-3.6181 8.6311 -0.1634 0.9633
-10.5642 8.7500 -0.2394 0.9466
-18.0648 8.7415 -0.3503 0.9229
-25.8061 8.8436 -0.4762 0.8966
-55.5070 11.8091 -0.9906 0.7969
-58.1070 -42.7311 -1.2590 0.7493
-19.1171 -22.8979 -0.5207 0.8875
-4.4471 -20.5082 -0.3663 0.9195
-1.5074 -16.1610 -0.2833 0.9371
0.7702 -27.9770 -0.4885 0.8941
35.8650 -87.4720 -1.6502 0.6851
28.6607 -51.2817 -1.0254 0.7906
33.3316 -35.7288 -0.8529 0.8224
37.1382 -24.2807 -0.7745 0.8374
71.6580 -25.1852 -1.3258 0.7380
59.4728 -13.1401 -1.0631 0.7837
44.6842 18.1173 -0.8416 0.8246
-8.6786 -19.2636 -1.1073 0.9189
-1.3360 -21.6268 -1.1356 0.9169
8.5158 -46.9683 -2.5016 0.8260
19.4823 -43.5773 -2.5016 0.8260
23.2160 -38.6469 -2.3627 0.8348
27.5383 -35.3746 -2.3494 0.8356
33.2848 -26.2758 -2.2224 0.8438
40.2683 -12.7514 -2.2136 0.8444
46.9095 -8.8341 -2.5016 0.8260
28.5150 12.6147 -1.6341 0.8826
15.3262 9.1253 -0.9348 0.9310
11.1582 8.6165 -0.7388 0.9451
8.7582 8.6312 -0.6444 0.9519
29.0540 36.5094 -2.4453 0.8295
5.2836 8.5861 -0.5284 0.9604
0.6045 8.6813 -0.4561 0.9657
-1.5026 8.6736 -0.4613 0.9654
-3.7653 8.6021 -0.4921 0.9631
-6.6840 8.7261 -0.5761 0.9569
-8.5437 8.7375 -0.6404 0.9522
-10.9100 8.7521 -0.7330 0.9455
-14.0329 8.7113 -0.8656 0.9360
-18.7042 8.6922 -1.0809 0.9207
-23.3577 7.5981 -1.2873 0.9063
-44.6300 8.7670 -2.3837 0.8335
-45.1412 3.3211 -2.3721 0.8342
-45.0590 -2.1234 -2.3641 0.8347
-42.9816 -12.7397 -2.3494 0.8356
-38.0079 -28.8780 -2.5016 0.8260
-34.2599 -33.2385 -2.5016 0.8260
-9.0679 -19.3147 -1.1182 0.9181
-4.0808 -20.3527 -1.0879 0.9202
-1.6712 -21.5612 -1.1334 0.9170
18.7978 -43.8769 -2.5016 0.8260
31.0901 -32.2975 -2.3494 0.8356
40.5053 -19.2105 -2.3494 0.8356
47.6973 1.8737 -2.5016 0.8260
44.2588 7.1331 -2.3494 0.8356
29.4870 8.4894 -1.6081 0.8843
11.5238 8.6142 -0.7540 0.9440
5.4698 8.5846 -0.5335 0.9600
4.0972 8.5523 -0.4970 0.9627
-2.4502 8.6375 -0.4705 0.9647
-13.6819 24.0368 -1.4495 0.8951
-6.4689 8.7248 -0.5692 0.9574
-8.2786 8.7359 -0.6307 0.9529
-10.5642 8.7500 -0.7189 0.9465
-13.5872 8.7323 -0.8465 0.9374
-18.0444 8.7316 -1.0506 0.9228
-34.7788 7.3992 -1.8635 0.8673
-42.7456 -6.5464 -2.2663 0.8410
-38.4553 -28.2795 -2.5016 0.8260
-34.7760 -32.6981 -2.5016 0.8260
-6.6018 -19.0213 -1.0552 0.9225
-4.4189 -20.3783 -1.0928 0.9199
-1.5074 -16.1608 -0.8506 0.9371
0.7560 -27.4619 -1.4398 0.8958
12.6669 -46.0227 -2.5016 0.8260
18.1087 -44.1658 -2.5016 0.8260
23.1675 -41.4529 -2.4887 0.8268
26.4175 -36.2193 -2.3494 0.8356
37.0334 -24.2122 -2.3188 0.8376
47.5100 -4.6191 -2.5016 0.8260
47.7208 1.1269 -2.5016 0.8260
31.3344 8.4925 -1.7014 0.8781
21.1403 8.5714 -1.1955 0.9127
-6.0512 -19.3724 -1.7756 0.9217
-3.7597 -20.4024 -1.8150 0.9201
-1.3300 -21.5288 -1.8871 0.9170
5.1011 -28.1351 -2.5016 0.8915
17.5647 -22.5630 -2.5016 0.8915
22.4433 -17.7173 -2.5016 0.8915
24.4108 -14.8902 -2.5016 0.8915
27.2597 -8.6321 -2.5016 0.8915
28.0999 -5.2918 -2.5016 0.8915
25.6865 7.8327 -2.3494 0.8978
24.5639 10.8668 -2.3500 0.8978
11.1582 8.6165 -1.2334 0.9450
-0.3015 5.9066 -0.5174 0.9765
-1.5026 8.6736 -0.7701 0.9653
-3.7559 8.5807 -0.8195 0.9631
-5.1439 8.7166 -0.8855 0.9602
-6.6840 8.7261 -0.9617 0.9568
-23.3577 7.5981 -2.1489 0.9061
-26.2390 -11.3631 -2.5016 0.8915
-24.6824 -14.4356 -2.5016 0.8915
-16.8857 -20.8811 -2.3494 0.8978
-12.2706 -19.5951 -2.0227 0.9113
-1.6553 -21.3563 -1.8740 0.9176
17.2094 -22.8351 -2.5016 0.8915
22.1632 -18.0664 -2.5016 0.8915
25.8354 -12.2530 -2.5016 0.8915
28.5718 1.1224 -2.5016 0.8915
25.8059 7.4296 -2.3494 0.8978
24.7254 10.4786 -2.3494 0.8978
5.4683 8.5822 -0.8903 0.9600
-0.3072 8.6869 -0.7605 0.9657
-1.3641 8.6800 -0.7687 0.9653
-2.4478 8.6292 -0.7847 0.9646
-12.5571 22.0608 -2.2208 0.9031
-6.4689 8.7248 -0.9502 0.9573
-8.2786 8.7359 -1.0530 0.9528
-13.4729 8.6587 -1.4012 0.9377
-26.2771 5.5904 -2.3504 0.8977
-21.7062 1.9390 -1.9066 0.9162
-26.8409 -0.8441 -2.3494 0.8978
-24.9053 -14.0475 -2.5016 0.8915
-23.0356 -16.9401 -2.5016 0.8915
-20.8316 -19.5870 -2.5016 0.8915
-17.2105 -20.6142 -2.3494 0.8978
-9.3998 -19.2330 -1.8729 0.9176
-6.6317 -19.1074 -1.7695 0.9220
0.7139 -25.9318 -2.2696 0.9011
3.8389 -25.7395 -2.2768 0.9008
10.8475 -26.4563 -2.5016 0.8915
16.8498 -23.1017 -2.5016 0.8915
19.5053 -20.9081 -2.5016 0.8915
21.8777 -18.4112 -2.5016 0.8915
23.9327 -15.6471 -2.5016 0.8915
26.9762 -9.4812 -2.5016 0.8915
27.9204 -6.1688 -2.5016 0.8915
28.4596 -2.7670 -2.5016 0.8915
28.5858 0.6750 -2.5016 0.8915
25.9191 7.0248 -2.3494 0.8978
24.8864 10.0903 -2.3494 0.8978
15.7630 8.7290 -1.5764 0.9302
11.9047 8.6119 -1.2855 0.9427
-7.8597 -17.4459 -2.3494 0.9258
-5.7051 -18.2643 -2.3494 0.9258
-1.1798 -19.0982 -2.3494 0.9258
1.1250 -19.1015 -2.3494 0.9258
3.6252 -19.9947 -2.4951 0.9214
8.3156 -18.6000 -2.5016 0.9212
10.4917 -17.4652 -2.5016 0.9212
12.5155 -16.0770 -2.5016 0.9212
15.9917 -12.6243 -2.5016 0.9212
17.3936 -10.6099 -2.5016 0.9212
20.3303 -1.3358 -2.5016 0.9212
17.4988 7.7412 -2.3494 0.9258
11.1582 8.6165 -1.7310 0.9448
3.8988 8.4761 -1.1456 0.9631
1.6688 8.6748 -1.0847 0.9650
0.6046 8.6813 -1.0685 0.9655
-0.3014 5.9050 -0.7260 0.9765
-1.5005 8.6615 -1.0793 0.9652
-3.7368 8.5370 -1.1442 0.9631
-5.1439 8.7166 -1.2427 0.9600
-10.9100 8.7521 -1.7173 0.9452
-13.8389 8.5909 -2.0000 0.9365
-17.3524 8.0640 -2.3494 0.9258
-18.7758 3.6883 -2.3494 0.9258
-20.3516 -0.9591 -2.5016 0.9212
-18.6963 -8.0966 -2.5016 0.9212
-17.5871 -10.2859 -2.5016 0.9212
-14.6231 -14.1871 -2.5016 0.9212
-12.8078 -15.8383 -2.5010 0.9212
-10.1555 -16.2173 -2.3494 0.9258
-8.1318 -17.3207 -2.3494 0.9258
-5.9902 -18.1728 -2.3494 0.9258
-1.2457 -16.0714 -1.9792 0.9371
0.8259 -19.1168 -2.3494 0.9258
3.1936 -19.3333 -2.4060 0.9241
5.7134 -19.5567 -2.5016 0.9212
8.0234 -18.7278 -2.5016 0.9212
14.1298 -14.6785 -2.5016 0.9212
15.7922 -12.8730 -2.5016 0.9212
17.2254 -10.8808 -2.5016 0.9212
18.4087 -8.7308 -2.5016 0.9212
19.3249 -6.4540 -2.5016 0.9212
20.3069 -1.6539 -2.5016 0.9212
20.3585 0.7998 -2.5016 0.9212
8.8969 2.5614 -1.1368 0.9634
17.6178 7.4664 -2.3494 0.9258
15.3201 8.7998 -2.1693 0.9313
9.0351 8.6295 -1.5341 0.9509
7.1005 8.6414 -1.3733 0.9559
5.4335 8.5276 -1.2415 0.9601
1.8099 8.6739 -1.0880 0.9649
0.7412 8.6805 -1.0697 0.9655
-1.3623 8.6687 -1.0774 0.9653
-2.4427 8.6109 -1.0990 0.9646
-4.7916 8.4181 -1.1893 0.9617
-6.4689 8.7248 -1.3336 0.9572
-8.2786 8.7359 -1.4778 0.9527
-10.5642 8.7500 -1.6843 0.9462
-13.4729 8.6587 -1.9664 0.9375
-18.1012 6.2032 -2.3494 0.9258
-18.7157 3.9817 -2.3494 0.9258
-19.0587 1.7025 -2.3494 0.9258
-19.6224 -5.4834 -2.5016 0.9212
-13.0576 -15.6399 -2.5016 0.9212
-10.4081 -16.0563 -2.3494 0.9258
-8.4020 -17.1913 -2.3494 0.9258
-6.2740 -18.0768 -2.3494 0.9258
2.8226 -18.9253 -2.3494 0.9258
5.4066 -19.6437 -2.5016 0.9212
9.9398 -17.7850 -2.5016 0.9212
15.5887 -13.1187 -2.5016 0.9212
17.0530 -11.1491 -2.5016 0.9212
18.2698 -9.0178 -2.5016 0.9212
19.2215 -6.7557 -2.5016 0.9212
19.8944 -4.3955 -2.5016 0.9212
20.1629 2.9266 -2.5016 0.9212
15.7630 8.7290 -2.2124 0.9300
-6.4799 -14.3832 -2.4986 0.9381
-0.9601 -15.5420 -2.4663 0.9389
0.9287 -15.7674 -2.5016 0.9380
6.4465 -14.4192 -2.5016 0.9380
8.1335 -13.5395 -2.5016 0.9380
9.7024 -12.4634 -2.5016 0.9380
11.1306 -11.2063 -2.5016 0.9380
13.4841 -8.2251 -2.5016 0.9380
15.0578 -4.7682 -2.5016 0.9380
15.7709 0.8670 -2.5016 0.9380
12.7456 7.5888 -2.3494 0.9417
9.2500 11.6235 -2.3528 0.9416
2.7789 8.6578 -1.4402 0.9638
1.6688 8.6748 -1.3991 0.9649
-1.4935 8.6212 -1.3858 0.9652
-2.5646 8.5297 -1.4107 0.9646
-12.6028 7.8236 -2.3494 0.9417
-13.4521 6.2515 -2.3494 0.9417
-15.7521 1.1589 -2.5016 0.9380
-15.7772 -0.7435 -2.5016 0.9380
-15.1435 -4.4885 -2.5016 0.9380
-14.4939 -6.2768 -2.5016 0.9380
-12.5764 -9.5554 -2.5016 0.9380
-11.3362 -10.9983 -2.5016 0.9380
-8.3828 -13.3866 -2.5016 0.9380
-6.7096 -14.2913 -2.5006 0.9381
-4.8128 -14.6006 -2.4349 0.9396
-1.1967 -15.4400 -2.4528 0.9392
6.2200 -14.5184 -2.5016 0.9380
13.3537 -8.4352 -2.5016 0.9380
14.2710 -6.7683 -2.5016 0.9380
14.9813 -5.0033 -2.5016 0.9380
15.5935 2.5132 -2.5016 0.9380
8.2732 2.3819 -1.3636 0.9657
12.8628 7.3884 -2.3494 0.9417
11.8811 8.8813 -2.3494 0.9417
1.8099 8.6739 -1.4034 0.9648
0.7412 8.6805 -1.3799 0.9653
-0.3072 8.6869 -1.3767 0.9654
-1.3588 8.6462 -1.3862 0.9652
-3.5510 8.4711 -1.4548 0.9635
-6.4689 8.7248 -1.7203 0.9570
-14.0326 4.8089 -2.3494 0.9417
-15.7321 1.4053 -2.5016 0.9380
-15.7869 -0.4965 -2.5016 0.9380
-15.6127 -2.3910 -2.5016 0.9380
-15.2119 -4.2509 -2.5016 0.9380
-14.5904 -6.0491 -2.5016 0.9380
-12.7244 -9.3574 -2.5016 0.9380
-11.5070 -10.8195 -2.5016 0.9380
-10.1226 -12.1246 -2.5016 0.9380
-8.5913 -13.2537 -2.5016 0.9380
-5.0637 -14.5896 -2.4460 0.9394
-3.2103 -14.8049 -2.3994 0.9405
0.4347 -15.7887 -2.5016 0.9380
7.7057 -13.7875 -2.5016 0.9380
9.3075 -12.7610 -2.5016 0.9380
12.0849 -10.1700 -2.5016 0.9380
13.2200 -8.6431 -2.5016 0.9380
15.7903 0.3729 -2.5016 0.9380
8.0836 3.2775 -1.3815 0.9653
12.0187 8.6943 -2.3494 0.9417
-2.3323 -12.6567 -2.5016 0.9489
-0.7935 -12.8453 -2.5016 0.9489
2.2960 -12.6633 -2.5016 0.9489
6.6273 -11.0322 -2.5016 0.9489
7.9057 -10.1554 -2.5016 0.9489
10.1015 -7.9744 -2.5016 0.9489
10.9870 -6.7020 -2.5016 0.9489
11.7132 -5.3323 -2.5016 0.9489
12.2693 -3.8852 -2.5016 0.9489
12.8421 -0.8438 -2.5016 0.9489
5.1401 8.3529 -1.9064 0.9608
3.7728 8.2022 -1.7549 0.9639
1.6688 8.6748 -1.7171 0.9646
-0.3013 5.9017 -1.1487 0.9762
-1.4935 8.6212 -1.7007 0.9650
-2.5427 8.4570 -1.7166 0.9647
-4.7465 8.0434 -1.8154 0.9627
-8.4502 8.6420 -2.3494 0.9519
-9.4280 7.5633 -2.3494 0.9519
-12.8351 0.9443 -2.5016 0.9489
-12.8555 -0.6058 -2.5016 0.9489
-12.6894 -2.1471 -2.5016 0.9489
-11.1093 -6.4973 -2.5016 0.9489
-9.2370 -8.9616 -2.5016 0.9489
-8.0924 -10.0072 -2.5016 0.9489
-6.8305 -10.9076 -2.5016 0.9489
-0.9945 -12.8313 -2.5016 0.9489
2.0975 -12.6977 -2.5016 0.9489
3.6090 -12.3534 -2.5016 0.9489
5.0682 -11.8298 -2.5016 0.9489
7.7458 -10.2779 -2.5016 0.9489
9.9755 -8.1315 -2.5016 0.9489
12.2070 -4.0768 -2.5016 0.9489
12.8273 -1.0447 -2.5016 0.9489
12.8599 0.5052 -2.5016 0.9489
7.9781 3.3811 -1.6843 0.9653
9.6810 7.2367 -2.3494 0.9519
8.7406 8.3482 -2.3494 0.9519
3.9457 8.2360 -1.7752 0.9635
3.8781 11.4627 -2.3522 0.9519
1.8099 8.6739 -1.7223 0.9645
0.7412 8.6805 -1.6935 0.9651
-0.3072 8.6869 -1.6896 0.9652
-1.3588 8.6462 -1.7013 0.9650
-8.3139 8.7732 -2.3494 0.9519
-12.8187 1.1451 -2.5016 0.9489
-12.7215 -1.9483 -2.5016 0.9489
-11.8885 -4.9289 -2.5016 0.9489
-10.3681 -7.6246 -2.5016 0.9489
-5.6511 -11.5627 -2.5016 0.9489
1.8985 -12.7290 -2.5016 0.9489
4.8824 -11.9077 -2.5016 0.9489
7.5839 -10.3979 -2.5016 0.9489
8.7791 -9.4105 -2.5016 0.9489
12.1417 -4.2674 -2.5016 0.9489
12.5667 -2.7765 -2.5016 0.9489
12.8094 -1.2454 -2.5016 0.9489
8.0856 2.1914 -1.6284 0.9664
7.9371 3.2181 -1.6648 0.9657
-4.4509 -9.8795 -2.5016 0.9565
-3.2307 -10.3429 -2.5016 0.9565
0.6371 -10.8170 -2.5016 0.9565
1.9331 -10.6619 -2.5016 0.9565
4.4225 -9.8922 -2.5016 0.9565
6.6562 -8.5503 -2.5016 0.9565
8.5050 -6.7141 -2.5016 0.9565
9.2506 -5.6427 -2.5016 0.9565
9.8619 -4.4895 -2.5016 0.9565
10.8194 0.5948 -2.5016 0.9565
7.9881 3.5339 -2.0166 0.9648
8.7440 5.2062 -2.3494 0.9591
8.0545 6.2198 -2.3494 0.9591
6.3368 7.9628 -2.3494 0.9591
5.3334 8.6670 -2.3494 0.9591
2.7789 8.6578 -2.0993 0.9634
1.6688 8.6748 -2.0395 0.9644
0.6046 8.6813 -2.0091 0.9649
-1.4935 8.6212 -2.0200 0.9647
-6.1882 8.0788 -2.3494 0.9591
-7.1147 7.2762 -2.3494 0.9591
-7.9380 6.3679 -2.3494 0.9591
-8.6460 5.3673 -2.3494 0.9591
-9.2287 4.2887 -2.3494 0.9591
-10.6326 2.0886 -2.5016 0.9565
-10.3890 -3.0793 -2.5016 0.9565
-9.9434 -4.3061 -2.5016 0.9565
-8.6279 -6.5554 -2.5016 0.9565
-3.3922 -10.2911 -2.5016 0.9565
-0.8373 -10.8034 -2.5016 0.9565
3.0386 -10.4010 -2.5016 0.9565
4.2671 -9.9602 -2.5016 0.9565
5.4338 -9.3748 -2.5016 0.9565
8.3989 -6.8464 -2.5016 0.9565
10.2777 -3.4325 -2.5016 0.9565
10.8000 -0.8796 -2.5016 0.9565
10.8274 0.4253 -2.5016 0.9565
10.6977 1.7241 -2.5016 0.9565
7.9764 2.2964 -1.9163 0.9665
8.8244 5.0687 -2.3494 0.9591
8.1509 6.0929 -2.3494 0.9591
7.3592 7.0288 -2.3494 0.9591
5.4684 8.5824 -2.3494 0.9591
4.3968 9.1777 -2.3494 0.9591
3.2614 9.6398 -2.3494 0.9591
1.8099 8.6739 -2.0457 0.9643
0.7412 8.6805 -2.0113 0.9649
-0.3072 8.6869 -2.0068 0.9649
-2.3980 8.4534 -2.0286 0.9646
-7.0000 7.3866 -2.3494 0.9591
-7.8373 6.4914 -2.3494 0.9591
-9.1604 4.4327 -2.3494 0.9591
-10.5986 2.2548 -2.5016 0.9565
-10.7928 0.9641 -2.5016 0.9565
-10.8304 -0.3406 -2.5016 0.9565
-10.7109 -1.6403 -2.5016 0.9565
-10.4360 -2.9163 -2.5016 0.9565
-8.7295 -6.4195 -2.5016 0.9565
-6.9445 -8.3179 -2.5016 0.9565
-4.7579 -9.7353 -2.5016 0.9565
1.5984 -10.7172 -2.5016 0.9565
2.8754 -10.4473 -2.5016 0.9565
4.1107 -10.0257 -2.5016 0.9565
5.2864 -9.4588 -2.5016 0.9565
9.7166 -4.7960 -2.5016 0.9565
10.2227 -3.5929 -2.5016 0.9565
10.7234 1.5565 -2.5016 0.9565
8.0574 2.1838 -1.9273 0.9663
8.9026 4.9300 -2.3494 0.9591
8.2453 5.9646 -2.3494 0.9591
-3.8349 -8.5122 -2.5016 0.9621
-2.7836 -8.9116 -2.5016 0.9621
-1.6919 -9.1816 -2.5016 0.9621
-0.5757 -9.3185 -2.5016 0.9621
4.8077 -8.0032 -2.5016 0.9621
6.5793 -6.6241 -2.5016 0.9621
7.3280 -5.7849 -2.5016 0.9621
7.9704 -4.8618 -2.5016 0.9621
8.9006 -2.8185 -2.5016 0.9621
9.1749 -1.7278 -2.5016 0.9621
9.3221 0.5125 -2.5016 0.9621
9.1929 1.6296 -2.5016 0.9621
8.9303 2.7231 -2.5016 0.9621
8.5381 3.7771 -2.5016 0.9621
6.2452 6.1546 -2.3494 0.9643
4.5953 7.4676 -2.3494 0.9643
1.6564 8.6103 -2.3494 0.9643
-0.3011 5.8983 -1.5825 0.9758
-2.5246 8.3969 -2.3494 0.9643
-5.3318 6.9608 -2.3494 0.9643
-6.1301 6.2692 -2.3494 0.9643
-8.4510 3.9274 -2.4970 0.9621
-8.8783 2.8881 -2.5016 0.9621
-9.1611 1.7996 -2.5016 0.9621
-9.3111 0.6850 -2.5016 0.9621
-8.9513 -2.6532 -2.5016 0.9621
-7.4339 -5.6482 -2.5016 0.9621
-6.7008 -6.5011 -2.5016 0.9621
-2.9228 -8.8670 -2.5016 0.9621
-1.8354 -9.1540 -2.5016 0.9621
-0.7215 -9.3083 -2.5016 0.9621
0.4030 -9.3275 -2.5016 0.9621
1.5216 -9.2114 -2.5016 0.9621
4.6818 -8.0775 -2.5016 0.9621
7.2366 -5.8989 -2.5016 0.9621
8.8554 -2.9575 -2.5016 0.9621
9.3290 0.3665 -2.5016 0.9621
8.5961 3.6430 -2.5016 0.9621
7.0229 5.2498 -2.3494 0.9643
6.3408 6.0561 -2.3494 0.9643
5.5666 6.7746 -2.3494 0.9643
3.7883 7.9076 -2.3494 0.9643
1.9467 5.7540 -1.6276 0.9752
-0.3099 8.7627 -2.3494 0.9643
-1.3613 8.6619 -2.3494 0.9643
-2.3929 8.4354 -2.3494 0.9643
-3.3898 8.0865 -2.3494 0.9643
-8.3817 4.0559 -2.4950 0.9622
-8.8320 3.0267 -2.5016 0.9621
-9.1319 1.9428 -2.5016 0.9621
-9.2992 0.8307 -2.5016 0.9621
-8.9917 -2.5127 -2.5016 0.9621
-7.5214 -5.5311 -2.5016 0.9621
-6.8018 -6.3954 -2.5016 0.9621
-5.9835 -7.1668 -2.5016 0.9621
-5.0783 -7.8343 -2.5016 0.9621
-3.0612 -8.8201 -2.5016 0.9621
-0.8671 -9.2959 -2.5016 0.9621
0.2569 -9.3327 -2.5016 0.9621
3.5419 -8.6383 -2.5016 0.9621
4.5548 -8.1498 -2.5016 0.9621
5.5017 -7.5430 -2.5016 0.9621
6.3687 -6.8268 -2.5016 0.9621
7.8143 -5.1090 -2.5016 0.9621
9.2924 -0.9034 -2.5016 0.9621
9.3336 0.2204 -2.5016 0.9621
8.1442 4.5100 -2.4945 0.9622
7.1042 5.1392 -2.3494 0.9643
