ply
format ascii 1.0
element vertex 1560
property float32 x
property float32 y
property float32 z
property float32 I
end_header
-1.3835 8.6820 0.4607 0.9654
-4.9879 8.7157 0.5263 0.9606
-6.5014 8.7250 0.5702 0.9574
-8.3196 8.7362 0.6322 0.9528
-26.0390 8.8451 1.4412 0.8957
-57.0727 -16.1337 3.1083 0.7885
-3.0361 -33.8749 1.7824 0.8726
22.5417 -54.3783 3.0850 0.7900
30.9280 -42.0503 2.7356 0.8113
49.0722 -40.9534 3.3497 0.7741
60.1147 -29.3565 3.5061 0.7649
69.4832 1.9521 3.6429 0.7570
30.7852 8.4958 1.6737 0.8799
11.7866 8.6126 0.7650 0.9432
7.2567 8.6404 0.5913 0.9558
-0.2168 8.6805 0.4551 0.9658
-2.3677 8.6847 0.4718 0.9646
-3.5320 8.6727 0.4908 0.9632
-4.8442 8.7148 0.5225 0.9608
-6.3331 8.7240 0.5650 0.9577
-8.1132 8.7349 0.6248 0.9534
-10.3512 8.7487 0.7103 0.9472
-24.9930 8.8386 1.3893 0.8993
-79.9016 7.9148 4.2080 0.7250
-11.2887 -31.6074 1.7590 0.8742
-7.5526 -33.3914 1.7942 0.8719
38.6992 -42.1885 3.0003 0.7951
63.5139 -42.2809 3.9987 0.7367
53.4825 -19.2894 2.9796 0.7963
69.2448 -7.2951 3.6490 0.7566
69.4889 1.0859 3.6422 0.7570
15.7955 8.5879 0.9422 0.9305
15.5999 11.1035 1.0035 0.9262
7.4413 8.6393 0.5976 0.9554
5.7968 8.6494 0.5457 0.9592
4.3964 8.6580 0.5089 0.9619
3.1547 8.6622 0.4831 0.9637
-1.1625 8.6823 0.4591 0.9655
-3.4197 8.7061 0.4902 0.9632
-4.7026 8.7139 0.5189 0.9611
-7.9117 8.7337 0.6176 0.9539
-10.0916 8.7471 0.6999 0.9479
-12.9903 8.7649 0.8213 0.9392
-17.1790 8.7906 1.0113 0.9256
-21.4026 2.3898 1.1286 0.9174
-21.4325 -31.5523 1.9990 0.8583
-15.7704 -30.5839 1.8034 0.8712
-7.9906 -33.3887 1.7992 0.8715
-2.7850 -24.2569 1.2796 0.9068
0.3939 -62.7173 3.2869 0.7779
30.1616 -78.2149 4.3933 0.7148
47.5527 -41.7388 3.3160 0.7761
53.5365 -20.0662 2.9963 0.7953
67.6650 -16.4167 3.6490 0.7566
69.1485 -8.1574 3.6490 0.7566
59.0634 7.3469 3.1192 0.7879
33.9957 8.4761 1.8362 0.8691
50.0512 19.1221 2.8080 0.8069
9.7022 8.6254 0.6804 0.9493
7.6298 8.6381 0.6040 0.9549
5.9537 8.6484 0.5503 0.9588
3.2781 8.6637 0.4855 0.9636
-0.0004 8.6794 0.4549 0.9658
-1.0525 8.6823 0.4584 0.9656
-2.1355 8.6800 0.4685 0.9648
-6.0055 8.7220 0.5550 0.9585
-7.6929 8.7079 0.6089 0.9545
-16.6576 8.7874 0.9870 0.9273
-21.0789 2.6199 1.1132 0.9184
-57.5332 -13.9645 3.1027 0.7889
-4.2584 -33.4115 1.7652 0.8738
-0.0998 -16.1552 0.8467 0.9373
25.9929 -50.3966 2.9718 0.7968
27.6869 -40.7512 2.5820 0.8209
54.2242 -21.0983 3.0493 0.7921
67.4552 -17.2585 3.6490 0.7566
69.0415 -9.0182 3.6490 0.7566
60.3827 14.2585 3.2515 0.7800
51.9536 19.1104 2.9011 0.8011
12.7531 8.6067 0.8063 0.9402
9.9474 8.6239 0.6900 0.9486
6.1132 8.6475 0.5550 0.9585
4.6704 8.6563 0.5155 0.9614
3.4023 8.6641 0.4878 0.9634
1.1598 8.6687 0.4584 0.9656
-2.0210 8.6796 0.4670 0.9649
-3.1707 8.7033 0.4854 0.9636
-5.8460 8.7210 0.5502 0.9588
-7.4936 8.6983 0.6017 0.9551
-12.3110 8.7607 0.7919 0.9413
-16.1607 8.7844 0.9640 0.9290
-21.1083 2.8910 1.1166 0.9182
-37.6723 -8.6484 2.0257 0.8566
-49.7436 -25.0704 2.9193 0.8000
-22.5964 -31.5452 2.0336 0.8561
-12.2389 -30.6055 1.7275 0.8763
-1.5703 -84.2253 4.4148 0.7136
44.3451 -40.9243 3.1624 0.7853
34.6937 -25.0156 2.2416 0.8425
60.4925 -33.3717 3.6207 0.7583
69.5060 -1.5125 3.6435 0.7569
69.2882 6.8705 3.6490 0.7566
61.0788 13.6215 3.2796 0.7783
53.9862 19.0979 3.0011 0.7950
8.0195 8.6357 0.6176 0.9539
4.8102 8.6555 0.5190 0.9611
3.5272 8.6633 0.4902 0.9632
2.3583 8.6540 0.4701 0.9647
-3.0473 8.7003 0.4831 0.9637
8.3604 8.6337 0.2098 0.9531
3.3375 5.7206 0.1156 0.9739
-1.7165 8.6722 0.1543 0.9653
-4.0642 8.7100 0.1678 0.9623
-5.4318 8.7184 0.1793 0.9597
-7.0260 8.7282 0.1956 0.9562
-11.4362 8.7272 0.2511 0.9441
-14.8982 8.7542 0.3016 0.9332
-20.2318 8.8094 0.3852 0.9155
-73.5865 -5.2852 1.2878 0.7444
-57.2391 -18.5172 1.0501 0.7861
-63.6680 -29.4674 1.2246 0.7553
-23.9444 -31.1752 0.6861 0.8545
-15.5280 -35.3606 0.6741 0.8568
-9.4204 -31.2048 0.5690 0.8777
-5.4442 -31.2291 0.5533 0.8809
-2.1077 -40.4910 0.7077 0.8503
26.8016 -43.6217 0.8936 0.8148
31.0722 -39.0963 0.8717 0.8189
34.6538 -34.1903 0.8497 0.8230
34.6990 -26.8233 0.7655 0.8391
51.0806 9.6153 0.9073 0.8123
14.0928 8.5984 0.2882 0.9361
10.9131 8.6180 0.2427 0.9459
6.7106 8.6253 0.1908 0.9572
3.4374 5.7266 0.1166 0.9736
3.8680 8.6613 0.1656 0.9628
2.6760 8.6686 0.1584 0.9644
1.5682 8.6754 0.1539 0.9653
0.5062 8.6819 0.1518 0.9658
-0.5411 8.6673 0.1516 0.9659
-3.9325 8.7092 0.1668 0.9625
-6.8477 8.7271 0.1936 0.9566
-8.7475 8.7388 0.2158 0.9517
-11.1793 8.7537 0.2478 0.9448
-20.3885 -33.4921 0.6844 0.8548
-5.8456 -31.2267 0.5545 0.8806
27.1204 -88.5170 1.6160 0.6905
37.2029 -83.7808 1.6001 0.6930
32.6516 -42.1513 0.9307 0.8079
27.4011 -16.7977 0.5610 0.8793
96.5695 -18.3894 1.7159 0.6748
50.5967 8.8729 0.8966 0.8142
28.0953 8.5124 0.5124 0.8892
45.1263 19.8703 0.8607 0.8210
14.4919 8.5960 0.2941 0.9348
11.1949 8.6162 0.2466 0.9451
8.7851 8.6310 0.2150 0.9519
6.8841 8.6244 0.1926 0.9568
5.3171 8.6132 0.1767 0.9603
3.9978 8.6605 0.1665 0.9626
1.6799 8.6747 0.1542 0.9653
0.6148 8.6813 0.1519 0.9658
-0.4328 8.6666 0.1515 0.9659
-1.4931 8.6733 0.1536 0.9654
-2.5942 8.6592 0.1578 0.9645
-3.8015 8.7068 0.1658 0.9627
-5.1336 8.7166 0.1766 0.9603
-6.6729 8.7261 0.1917 0.9570
-10.8947 8.7520 0.2439 0.9456
-14.0717 8.7475 0.2892 0.9359
-18.8806 8.7870 0.3635 0.9201
-56.7936 -16.8219 1.0339 0.7890
-25.1979 -31.1675 0.6996 0.8519
-10.4099 -31.6128 0.5809 0.8753
-6.2489 -31.2242 0.5558 0.8804
-3.1206 -40.4848 0.7088 0.8501
32.1250 -42.5566 0.9307 0.8079
34.6431 -35.9270 0.8712 0.8190
34.6903 -28.2252 0.7806 0.8362
38.5704 -24.3112 0.7958 0.8333
51.5994 -24.4065 0.9963 0.7958
50.7134 8.2434 0.8968 0.8142
47.3265 20.1389 0.8978 0.8140
15.6169 9.0021 0.3146 0.9304
7.0610 8.6234 0.1945 0.9564
5.4660 8.6124 0.1781 0.9600
-0.3245 8.6659 0.1514 0.9659
-1.3820 8.6726 0.1533 0.9655
-2.4768 8.6584 0.1572 0.9646
-4.9879 8.7157 0.1753 0.9606
-8.3196 8.7362 0.2106 0.9529
-18.2712 8.7820 0.3538 0.9221
-26.0181 8.8379 0.4796 0.8959
-80.2894 -12.5380 1.4184 0.7225
-20.0748 -31.1989 0.6476 0.8621
-17.0473 -35.1863 0.6825 0.8552
-10.8474 -31.6101 0.5833 0.8749
36.2613 -87.4745 1.6529 0.6847
36.8772 -39.2102 0.9396 0.8063
34.6782 -28.9407 0.7884 0.8347
37.5390 -24.3199 0.7807 0.8362
90.5734 -19.5984 1.6175 0.6902
48.9880 20.1287 0.9245 0.8091
11.7866 8.6126 0.2548 0.9433
9.2316 8.6283 0.2206 0.9507
3.0345 8.6664 0.1603 0.9639
1.9050 8.6733 0.1550 0.9651
-0.2164 8.6653 0.1513 0.9659
-1.2713 8.6718 0.1530 0.9655
-4.8442 8.7148 0.1740 0.9609
-8.1132 8.7349 0.2081 0.9534
-10.3512 8.7487 0.2366 0.9472
-17.6931 8.7772 0.3447 0.9240
-24.9560 8.8256 0.4620 0.8995
-31.8745 -37.4759 0.8587 0.8213
-17.3408 -34.6838 0.6769 0.8563
-7.0613 -31.2192 0.5587 0.8798
-3.4314 -33.5739 0.5891 0.8737
34.9875 -87.4667 1.6443 0.6860
36.5241 -24.3139 0.7659 0.8390
48.3994 -24.3869 0.9460 0.8051
54.1639 7.4241 0.9543 0.8036
32.3161 8.4864 0.5832 0.8749
36.2466 19.7071 0.7201 0.8478
14.7015 10.4640 0.3150 0.9304
7.4259 8.6214 0.1986 0.9555
5.7710 8.6110 0.1809 0.9594
3.1560 8.6656 0.1610 0.9638
0.9417 8.6792 0.1524 0.9657
-0.1085 8.6693 0.1513 0.9659
-1.1610 8.6712 0.1527 0.9656
-3.4035 8.6649 0.1625 0.9634
-4.7026 8.7139 0.1728 0.9612
-6.1678 8.7229 0.1865 0.9582
-7.9117 8.7337 0.2057 0.9539
-12.9708 8.7518 0.2731 0.9393
-17.1617 8.7818 0.3365 0.9258
-21.3489 2.3838 0.3750 0.9176
-55.2909 -14.1520 0.9962 0.7959
-63.2297 -33.8687 1.2520 0.7505
0.5377 -85.6083 1.4943 0.7100
25.2087 -47.4160 0.9373 0.8067
35.0625 -39.1933 0.9179 0.8103
46.9171 -24.3778 0.9229 0.8094
33.9957 8.4761 0.6116 0.8692
37.3354 19.7004 0.7368 0.8446
9.7022 8.6254 0.2266 0.9494
4.5116 8.6172 0.1698 0.9618
3.2785 8.6649 0.1617 0.9636
2.1326 8.6719 0.1559 0.9649
-1.0511 8.6705 0.1525 0.9657
-2.1296 8.6561 0.1556 0.9650
-4.5629 8.7131 0.1717 0.9614
-9.8393 8.7455 0.2298 0.9487
-55.2521 -13.4109 0.9924 0.7966
-62.1273 -32.2887 1.2221 0.7557
-17.3280 -32.6011 0.6444 0.8627
-13.6364 -35.3722 0.6617 0.8593
-3.9814 -31.2381 0.5497 0.8816
-0.0998 -16.1550 0.2820 0.9374
34.1858 -39.1851 0.9077 0.8122
34.7141 -24.3788 0.7404 0.8439
50.3889 -19.6060 0.9438 0.8055
60.3827 14.2585 1.0830 0.7802
54.6276 20.0940 1.0160 0.7923
38.4764 19.6934 0.7545 0.8412
9.9474 8.6239 0.2298 0.9487
7.8093 8.6224 0.2031 0.9545
6.0954 8.6223 0.1843 0.9586
4.6489 8.6165 0.1709 0.9616
3.4023 8.6641 0.1625 0.9634
2.2473 8.6712 0.1564 0.9648
1.1610 8.6779 0.1528 0.9656
-0.9416 8.6698 0.1522 0.9657
-3.1560 8.6631 0.1609 0.9638
-5.8460 8.7210 0.1833 0.9589
-9.5941 8.7440 0.2266 0.9494
-12.2916 8.7469 0.2633 0.9414
-16.1424 8.7744 0.3207 0.9291
-21.1321 2.8943 0.3723 0.9182
-49.7088 -25.0529 0.9716 0.8004
-22.3384 -31.1850 0.6696 0.8577
-7.9457 -29.8902 0.5399 0.8836
-4.3774 -31.2357 0.5505 0.8815
30.5530 -46.1977 0.9668 0.8013
34.6673 -31.9930 0.8234 0.8280
50.9602 -20.5630 0.9592 0.8026
92.0482 -24.7765 1.6639 0.6829
90.7365 8.9973 1.5916 0.6943
60.7646 13.5514 1.0867 0.7795
55.3755 19.5893 1.0253 0.7906
13.0990 8.6045 0.2736 0.9392
4.7881 8.6158 0.1721 0.9613
3.5272 8.6633 0.1633 0.9633
2.3628 8.6705 0.1569 0.9647
1.2712 8.6772 0.1531 0.9655
-0.8324 8.6691 0.1520 0.9658
-1.9037 8.6633 0.1548 0.9651
-3.0340 8.6623 0.1602 0.9639
-9.3557 8.7425 0.2235 0.9501
8.3604 8.6337 -0.2098 0.9531
3.3375 5.7205 -0.1156 0.9739
3.7396 8.6621 -0.1647 0.9630
0.9872 5.8788 -0.1040 0.9764
0.3965 8.6553 -0.1512 0.9659
-1.7124 8.6518 -0.1539 0.9653
-2.8177 8.6181 -0.1583 0.9644
-4.0642 8.7100 -0.1678 0.9623
-5.4318 8.7184 -0.1793 0.9597
-86.8211 4.2482 -1.5173 0.7063
-72.7518 -5.2252 -1.2732 0.7469
-46.7064 -9.0935 -0.8306 0.8267
-57.7870 -18.6945 -1.0601 0.7843
-63.6463 -29.4574 -1.2242 0.7554
-59.6353 -36.8970 -1.2241 0.7554
-61.9486 -49.5499 -1.3847 0.7281
-11.8101 -19.9561 -0.4048 0.9114
-1.1341 -21.7878 -0.3808 0.9164
1.8588 -27.0611 -0.4735 0.8972
40.1664 -87.4985 -1.6805 0.6803
30.8900 -38.8670 -0.8666 0.8199
34.6990 -26.8233 -0.7655 0.8391
40.8384 -24.3404 -0.8298 0.8268
55.1616 -24.4284 -1.0530 0.7856
40.8701 18.6076 -0.7838 0.8356
14.0928 8.5984 -0.2882 0.9361
8.5702 8.6324 -0.2123 0.9525
6.6909 8.6000 -0.1902 0.9573
3.4373 5.7265 -0.1166 0.9736
3.8680 8.6613 -0.1656 0.9628
2.6760 8.6686 -0.1584 0.9644
-2.6991 8.6174 -0.1576 0.9645
-6.8477 8.7271 -0.1936 0.9566
-19.2991 8.6909 -0.3694 0.9188
-26.3795 8.2335 -0.4824 0.8953
-72.8569 -32.6243 -1.3934 0.7266
-61.6510 -48.0646 -1.3645 0.7314
-6.1510 -19.4939 -0.3568 0.9215
-3.8145 -20.3766 -0.3619 0.9204
1.4202 -25.2792 -0.4419 0.9037
38.8502 -87.4904 -1.6709 0.6818
30.1725 -50.5084 -1.0270 0.7903
34.6485 -35.0478 -0.8602 0.8211
34.6948 -27.5174 -0.7729 0.8376
27.3961 -16.7947 -0.5609 0.8794
53.3313 -24.4172 -1.0238 0.7908
78.0145 -24.8839 -1.4293 0.7207
11.1949 8.6162 -0.2466 0.9451
8.7851 8.6310 -0.2150 0.9519
1.6799 8.6747 -0.1542 0.9653
0.6148 8.6813 -0.1519 0.9658
-2.5814 8.6168 -0.1570 0.9647
-3.8015 8.7068 -0.1658 0.9627
-5.1336 8.7166 -0.1766 0.9603
-6.6729 8.7261 -0.1917 0.9570
-10.8947 8.7520 -0.2439 0.9456
-13.9833 8.6926 -0.2874 0.9363
-27.1664 8.8520 -0.4987 0.8920
-86.7403 17.0784 -1.5431 0.7021
-72.9059 -12.3174 -1.2906 0.7439
-72.7492 -31.4937 -1.3837 0.7282
-56.5622 -42.9749 -1.2399 0.7526
-6.4111 -19.4692 -0.3578 0.9213
-4.0526 -20.2498 -0.3605 0.9207
1.0544 -24.1326 -0.4216 0.9079
34.2486 -79.7937 -1.5157 0.7065
30.5137 -52.5563 -1.0608 0.7842
26.1656 -34.6621 -0.7581 0.8405
61.6891 -12.5457 -1.0988 0.7774
52.2699 8.4964 -0.9243 0.8091
29.1585 8.4393 -0.5298 0.8856
42.8309 18.2259 -0.8125 0.8301
15.6169 9.0021 -0.3146 0.9304
11.4859 8.6144 -0.2506 0.9442
9.0055 8.6297 -0.2177 0.9513
7.0399 8.5976 -0.1940 0.9565
5.4371 8.5669 -0.1771 0.9602
4.1137 8.6274 -0.1668 0.9625
2.9140 8.6671 -0.1596 0.9641
1.7922 8.6740 -0.1546 0.9652
0.7235 8.6806 -0.1520 0.9658
-0.3243 8.6592 -0.1513 0.9659
-10.8370 25.6887 -0.4867 0.8945
-6.5014 8.7250 -0.1899 0.9574
-8.3196 8.7362 -0.2106 0.9529
-13.6291 8.7097 -0.2823 0.9373
-18.1196 8.7092 -0.3509 0.9227
-24.0475 8.1686 -0.4433 0.9034
-54.1969 11.3741 -0.9666 0.8013
-54.4436 4.7088 -0.9539 0.8036
-86.8665 -2.9821 -1.5171 0.7063
-56.8121 -16.0601 -1.0305 0.7896
-72.7813 -30.4364 -1.3770 0.7293
-61.8510 -35.1415 -1.2417 0.7523
-61.1460 -45.2670 -1.3279 0.7376
-57.5511 -54.4659 -1.3831 0.7283
-20.8560 -25.1495 -0.5703 0.8775
-9.6451 -19.9078 -0.3861 0.9153
-6.6846 -19.4795 -0.3595 0.9209
-1.9076 -21.2844 -0.3730 0.9181
30.5043 -54.0809 -1.0838 0.7800
26.1197 -35.5129 -0.7695 0.8383
34.6860 -28.9473 -0.7886 0.8347
37.5393 -24.3201 -0.7807 0.8362
72.9701 -25.2949 -1.3480 0.7342
60.7234 -13.1394 -1.0845 0.7799
52.2658 7.8285 -0.9225 0.8094
30.7754 8.4932 -0.5573 0.8801
9.2316 8.6283 -0.2206 0.9507
7.2197 8.5964 -0.1959 0.9561
32.2037 65.4273 -1.2729 0.7470
0.8325 8.6799 -0.1522 0.9657
-1.2683 8.6514 -0.1526 0.9656
-3.5112 8.6217 -0.1625 0.9634
-4.8442 8.7148 -0.1740 0.9609
-6.3331 8.7240 -0.1882 0.9578
-10.3512 8.7487 -0.2366 0.9472
-13.2730 8.7169 -0.2772 0.9384
-17.6060 8.7340 -0.3430 0.9244
-24.9930 8.8386 -0.4627 0.8994
-54.2338 5.3723 -0.9513 0.8041
-55.9394 -15.0632 -1.0112 0.7931
-62.6043 -34.5447 -1.2481 0.7512
-60.9094 -43.9276 -1.3108 0.7405
-58.1083 -53.6365 -1.3803 0.7288
-22.9207 -26.9487 -0.6175 0.8680
-11.2887 -31.6074 -0.5858 0.8744
-7.5881 -33.5485 -0.6004 0.8714
-2.1369 -20.9079 -0.3668 0.9194
0.4213 -22.4802 -0.3925 0.9140
34.9514 -87.3765 -1.6426 0.6863
29.5080 -53.8724 -1.0722 0.7821
36.5241 -24.3139 -0.7659 0.8390
48.3994 -24.3869 -0.9460 0.8051
45.5722 18.0647 -0.8557 0.8219
36.2466 19.7071 -0.7201 0.8478
15.1397 10.7759 -0.3244 0.9284
9.4638 8.6269 -0.2235 0.9501
3.1560 8.6656 -0.1610 0.9638
2.0185 8.6726 -0.1554 0.9650
0.9417 8.6792 -0.1524 0.9657
-2.2367 8.6268 -0.1556 0.9650
-3.3863 8.6211 -0.1617 0.9636
-7.9117 8.7337 -0.2057 0.9539
-10.0916 8.7471 -0.2331 0.9480
-12.9164 8.7151 -0.2720 0.9396
-17.0731 8.7364 -0.3348 0.9261
-24.0197 8.8327 -0.4467 0.9027
-21.2956 2.3778 -0.3740 0.9178
-86.8529 -0.8161 -1.5161 0.7065
-55.0403 -14.0879 -0.9917 0.7967
-72.9563 -28.3951 -1.3665 0.7311
-56.8821 -51.2068 -1.3359 0.7362
-14.4121 -21.2172 -0.4477 0.9025
-7.2301 -19.4745 -0.3626 0.9203
-4.7611 -19.8941 -0.3571 0.9214
-2.3941 -20.8527 -0.3664 0.9195
25.2033 -47.4059 -0.9371 0.8067
25.5737 -36.6501 -0.7801 0.8363
35.5467 -24.3079 -0.7517 0.8417
46.9171 -24.3778 -0.9229 0.8094
52.0978 -19.5269 -0.9711 0.8004
51.9401 -12.6016 -0.9329 0.8075
37.3354 19.7004 -0.7368 0.8446
9.7022 8.6254 -0.2266 0.9494
7.6075 8.6129 -0.2006 0.9551
5.9128 8.5891 -0.1820 0.9591
4.4878 8.5717 -0.1689 0.9620
3.2785 8.6649 -0.1617 0.9636
2.1326 8.6719 -0.1559 0.9649
1.0512 8.6786 -0.1526 0.9656
-0.0004 8.6744 -0.1514 0.9659
-1.0486 8.6501 -0.1521 0.9657
-2.1237 8.6322 -0.1552 0.9651
-12.5730 8.7133 -0.2670 0.9406
-16.5637 8.7379 -0.3269 0.9278
-86.7118 21.6108 -1.5598 0.6994
-21.0883 2.6211 -0.3709 0.9185
-72.5689 -27.2082 -1.3528 0.7334
-15.0104 -21.5162 -0.4579 0.9004
-7.5009 -19.4570 -0.3640 0.9200
-4.9546 -19.6193 -0.3532 0.9222
-4.2785 -33.5687 -0.5907 0.8734
-0.0998 -16.1549 -0.2820 0.9374
43.8326 -84.9852 -1.6691 0.6821
24.8657 -36.5988 -0.7723 0.8378
45.5055 -24.3691 -0.9010 0.8134
60.3827 14.2585 -1.0830 0.7802
54.0675 19.8879 -1.0056 0.7942
12.7531 8.6067 -0.2686 0.9403
9.9474 8.6239 -0.2298 0.9487
3.4023 8.6641 -0.1625 0.9634
2.2473 8.6712 -0.1564 0.9648
0.1077 8.6795 -0.1515 0.9659
-0.9394 8.6495 -0.1519 0.9658
-3.1402 8.6198 -0.1601 0.9640
-4.4250 8.7122 -0.1706 0.9617
-12.2606 8.7248 -0.2627 0.9416
-50.2608 13.1934 -0.9070 0.8123
-21.1560 2.8976 -0.3727 0.9181
-86.8393 1.3485 -1.5160 0.7065
-72.6720 -7.6635 -1.2755 0.7465
-72.8102 -26.2684 -1.3511 0.7337
-60.4393 -40.2429 -1.2674 0.7479
-15.6252 -21.8132 -0.4684 0.8982
-7.8616 -19.6595 -0.3696 0.9188
-0.4091 -21.9439 -0.3831 0.9159
34.6673 -31.9930 -0.8234 0.8280
44.1586 -24.3608 -0.8803 0.8173
50.0156 -13.4626 -0.9041 0.8128
61.0788 13.6215 -1.0923 0.7785
39.6731 19.6860 -0.7731 0.8376
13.0990 8.6045 -0.2736 0.9392
8.0162 8.6321 -0.2056 0.9540
6.2440 8.6031 -0.1855 0.9584
4.7625 8.5697 -0.1711 0.9615
3.5272 8.6633 -0.1633 0.9633
2.3628 8.6705 -0.1569 0.9647
0.2154 8.6574 -0.1512 0.9659
-0.8304 8.6488 -0.1517 0.9658
-1.8992 8.6429 -0.1545 0.9652
-4.2889 8.7114 -0.1695 0.9619
-11.9618 8.7389 -0.2586 0.9425
6.5025 8.5762 -0.5640 0.9578
3.3375 5.7205 -0.3471 0.9738
0.9869 5.8774 -0.3123 0.9764
0.3965 8.6553 -0.4541 0.9659
-1.7084 8.6314 -0.4611 0.9654
-2.8048 8.5787 -0.4730 0.9645
-5.4318 8.7184 -0.5383 0.9597
-11.4362 8.7272 -0.7539 0.9440
-23.9885 7.1604 -1.3120 0.9046
-37.7959 -7.3588 -2.0180 0.8571
-42.6521 -13.7983 -2.3494 0.8356
-40.5915 -25.1143 -2.5016 0.8260
-11.7419 -19.8409 -1.2083 0.9118
-8.5894 -19.5601 -1.1196 0.9180
-5.7098 -18.9137 -1.0354 0.9239
1.7820 -25.9419 -1.3628 0.9011
8.9761 -46.8811 -2.5016 0.8260
19.9138 -43.3802 -2.5016 0.8260
24.5010 -39.8773 -2.4528 0.8291
27.8919 -35.0947 -2.3494 0.8356
38.5076 -22.9512 -2.3494 0.8356
46.9976 -8.3442 -2.5016 0.8260
47.6601 -2.6298 -2.5016 0.8260
47.6304 3.1228 -2.5016 0.8260
30.8589 5.8088 -1.6456 0.8818
10.9131 8.6180 -0.7288 0.9458
8.5702 8.6324 -0.6375 0.9524
6.6713 8.5748 -0.5694 0.9574
2.6760 8.6686 -0.4755 0.9643
0.5062 8.6819 -0.4558 0.9658
-0.5400 8.6491 -0.4542 0.9659
-1.5972 8.6329 -0.4601 0.9654
-3.9325 8.7092 -0.5008 0.9624
-6.8477 8.7271 -0.5814 0.9565
-11.1793 8.7537 -0.7441 0.9447
-14.2908 8.6387 -0.8752 0.9353
-19.0916 8.5975 -1.0973 0.9196
-43.5628 -19.5068 -2.5015 0.8260
-40.9013 -24.6066 -2.5016 0.8260
-33.8402 -33.6637 -2.5016 0.8260
-18.2176 -23.1170 -1.5425 0.8888
-12.2429 -20.1115 -1.2339 0.9100
-3.7285 -19.9173 -1.0620 0.9220
-1.3573 -21.0249 -1.1042 0.9191
1.3623 -24.2483 -1.2728 0.9073
27.4524 -35.4395 -2.3494 0.8356
34.5904 -27.4346 -2.3138 0.8379
40.7596 -18.6614 -2.3494 0.8356
46.8900 -8.9291 -2.5016 0.8260
47.6237 -3.2234 -2.5016 0.8260
29.8649 13.1503 -1.7102 0.8775
14.4919 8.5960 -0.8830 0.9347
11.1949 8.6162 -0.7404 0.9450
8.7851 8.6310 -0.6454 0.9519
6.8465 8.5772 -0.5752 0.9570
5.2693 8.5356 -0.5257 0.9606
3.9978 8.6605 -0.4999 0.9625
2.7945 8.6679 -0.4773 0.9642
-5.1336 8.7166 -0.5302 0.9603
-10.8947 8.7520 -0.7324 0.9456
-13.9262 8.6571 -0.8594 0.9364
-22.0935 7.1991 -1.2178 0.9111
-45.2020 3.3426 -2.3754 0.8340
-45.1314 -2.1127 -2.3678 0.8345
-41.7336 -7.0508 -2.2182 0.8441
-42.9827 -12.7312 -2.3494 0.8356
-43.6760 -18.9077 -2.4942 0.8264
-38.0069 -28.8770 -2.5016 0.8260
-19.3888 -23.9822 -1.6162 0.8838
-12.5750 -20.0890 -1.2421 0.9094
-9.1606 -19.5243 -1.1302 0.9172
-6.2888 -19.0978 -1.0537 0.9226
-3.9595 -19.7848 -1.0574 0.9224
-1.6136 -20.9342 -1.1004 0.9193
1.0011 -22.9147 -1.2021 0.9122
31.1167 -32.2699 -2.3494 0.8356
31.7483 -25.8314 -2.1450 0.8488
37.9237 -23.9036 -2.3494 0.8356
43.2437 -14.3894 -2.3885 0.8331
47.5798 -3.8166 -2.5016 0.8260
47.6934 1.9350 -2.5016 0.8260
15.6164 9.0018 -0.9447 0.9303
11.4859 8.6144 -0.7524 0.9441
9.0055 8.6297 -0.6537 0.9513
-0.3243 8.6592 -0.4541 0.9659
-6.5014 8.7250 -0.5702 0.9574
-8.3196 8.7362 -0.6322 0.9528
-10.6188 8.7503 -0.7211 0.9464
-13.5744 8.6747 -0.8443 0.9375
-22.0456 7.4886 -1.2202 0.9110
-44.5438 9.3483 -2.3853 0.8333
-43.1380 -12.1946 -2.3494 0.8356
-43.1247 -18.0343 -2.4497 0.8293
-20.5737 -24.8091 -1.6891 0.8789
-13.1918 -20.5019 -1.2777 0.9070
-9.5326 -19.6758 -1.1458 0.9162
-1.8610 -20.7645 -1.0926 0.9199
0.6924 -22.1844 -1.1632 0.9149
18.2786 -44.0942 -2.5016 0.8260
23.4504 -41.5750 -2.5016 0.8260
26.1197 -35.5129 -2.3103 0.8381
30.7122 -32.6551 -2.3494 0.8356
34.4175 -28.7232 -2.3494 0.8356
37.3759 -24.2143 -2.3339 0.8366
46.6530 -10.0948 -2.5016 0.8260
47.5286 -4.4091 -2.5016 0.8260
30.6966 8.4714 -1.6689 0.8802
20.8833 8.5807 -1.1832 0.9135
11.7866 8.6126 -0.7650 0.9432
9.2316 8.6283 -0.6622 0.9506
9.2591 18.8115 -1.0988 0.9194
3.0345 8.6664 -0.4812 0.9639
1.9050 8.6733 -0.4654 0.9651
0.8325 8.6799 -0.4570 0.9657
-0.2164 8.6642 -0.4542 0.9659
-1.2653 8.6311 -0.4572 0.9657
-2.3448 8.6008 -0.4672 0.9649
-4.8442 8.7148 -0.5225 0.9608
-6.3331 8.7240 -0.5650 0.9577
-8.1132 8.7349 -0.6248 0.9534
-13.2167 8.6800 -0.8287 0.9386
-44.4530 9.9091 -2.3869 0.8332
-40.6093 -5.8241 -2.1500 0.8485
-43.2866 -11.6561 -2.3494 0.8356
-41.7924 -23.0608 -2.5016 0.8260
-35.0747 -32.3755 -2.5016 0.8260
-23.6727 -27.8328 -1.9149 0.8639
-9.9049 -19.8110 -1.1608 0.9151
-6.8538 -19.1903 -1.0679 0.9216
-4.4163 -19.5253 -1.0491 0.9229
-2.1237 -20.7797 -1.0947 0.9197
0.4133 -22.0529 -1.1559 0.9154
6.6292 -47.2700 -2.5016 0.8260
17.7278 -44.3185 -2.5016 0.8260
22.9305 -41.8640 -2.5016 0.8260
30.3029 -33.0352 -2.3494 0.8356
40.0337 -20.1717 -2.3494 0.8356
42.1696 -15.2092 -2.3494 0.8356
44.4132 6.0876 -2.3494 0.8356
21.6192 8.5698 -1.2188 0.9111
15.1397 10.7759 -0.9739 0.9283
9.4638 8.6269 -0.6711 0.9500
7.4106 8.6037 -0.5951 0.9555
-0.1085 8.6693 -0.4544 0.9659
-3.3693 8.5777 -0.4830 0.9638
-7.9117 8.7337 -0.6176 0.9539
-10.0916 8.7471 -0.6999 0.9479
-12.8873 8.6954 -0.8148 0.9396
-44.3551 10.4692 -2.3884 0.8331
-45.2382 -0.4250 -2.3709 0.8343
-37.7589 -9.6647 -2.0426 0.8555
-42.0766 -22.5381 -2.5016 0.8260
-29.4669 -33.7830 -2.3494 0.8356
-13.9894 -20.5948 -1.3048 0.9051
-4.6650 -19.4925 -1.0504 0.9229
4.9248 -38.6092 -2.0398 0.8556
11.6918 -46.2786 -2.5016 0.8260
17.1742 -44.5359 -2.5016 0.8260
25.6526 -36.7632 -2.3494 0.8356
33.6911 -29.5720 -2.3494 0.8356
39.7792 -20.6690 -2.3494 0.8356
46.3869 -11.2543 -2.5016 0.8260
47.4039 -5.5922 -2.5016 0.8260
47.7324 0.1511 -2.5016 0.8260
44.4856 5.5336 -2.3494 0.8356
33.9957 8.4761 -1.8362 0.8691
22.4242 8.5672 -1.2580 0.9083
16.6322 8.7762 -0.9856 0.9274
12.4196 8.6087 -0.7920 0.9413
9.7022 8.6254 -0.6804 0.9493
7.6075 8.6129 -0.6022 0.9550
5.8956 8.5641 -0.5449 0.9592
4.4642 8.5267 -0.5044 0.9622
3.2785 8.6649 -0.4855 0.9636
2.1326 8.6719 -0.4680 0.9649
1.0512 8.6786 -0.4581 0.9656
-0.0004 8.6744 -0.4546 0.9659
-1.0462 8.6298 -0.4556 0.9658
-2.1187 8.6117 -0.4648 0.9651
-3.2464 8.5773 -0.4806 0.9639
-4.5629 8.7131 -0.5155 0.9614
-7.6929 8.7079 -0.6089 0.9545
-9.8393 8.7455 -0.6899 0.9486
-16.5637 8.7379 -0.9814 0.9277
-22.0400 8.4178 -1.2364 0.9098
-44.2502 11.0282 -2.3900 0.8330
-21.0929 2.6217 -1.1139 0.9184
-45.2409 0.1386 -2.3710 0.8343
-39.9508 -4.7169 -2.1083 0.8512
-37.0468 -8.9921 -1.9979 0.8584
-41.9752 -15.7377 -2.3494 0.8356
-42.3541 -22.0121 -2.5016 0.8260
-14.7743 -21.1777 -1.3533 0.9017
-7.4101 -19.2217 -1.0796 0.9208
-4.8815 -19.3301 -1.0448 0.9232
-0.0998 -16.1548 -0.8467 0.9373
5.1176 -44.5354 -2.3494 0.8356
11.1143 -46.4206 -2.5016 0.8260
16.6180 -44.7465 -2.5016 0.8260
29.4703 -33.7800 -2.3494 0.8356
39.5186 -21.1630 -2.3494 0.8356
47.3306 -6.1824 -2.5016 0.8260
44.5511 4.9789 -2.3494 0.8356
43.6286 10.3022 -2.3494 0.8356
9.9474 8.6239 -0.6900 0.9486
7.8093 8.6224 -0.6097 0.9545
1.1610 8.6779 -0.4588 0.9655
0.1077 8.6795 -0.4549 0.9658
-0.9373 8.6304 -0.4550 0.9658
-3.1246 8.5768 -0.4784 0.9641
-4.4250 8.7122 -0.5121 0.9616
-5.8460 8.7210 -0.5502 0.9588
-7.4936 8.6983 -0.6017 0.9551
-16.1140 8.7590 -0.9612 0.9292
-22.2614 8.8219 -1.2549 0.9085
-27.4868 7.2153 -1.4893 0.8924
-21.1799 2.9008 -1.1204 0.9179
-42.0023 -4.4292 -2.2134 0.8444
-35.0163 -8.0386 -1.8829 0.8660
-42.1681 -15.2134 -2.3494 0.8356
-39.7311 -26.4545 -2.5016 0.8260
-36.2602 -31.0419 -2.5016 0.8260
-32.2625 -35.1785 -2.5016 0.8260
-15.2200 -21.2475 -1.3697 0.9006
-10.8575 -19.8270 -1.1847 0.9134
-7.7896 -19.4794 -1.0995 0.9194
-2.8472 -20.3167 -1.0752 0.9211
16.0590 -44.9501 -2.5016 0.8260
21.3499 -42.6918 -2.5016 0.8260
24.7287 -37.3910 -2.3494 0.8356
32.9437 -30.4024 -2.3494 0.8356
39.2518 -21.6539 -2.3494 0.8356
47.2498 -6.7718 -2.5016 0.8260
29.8925 14.8328 -1.7489 0.8749
13.0990 8.6045 -0.8213 0.9392
10.1997 8.6223 -0.7000 0.9479
1.2712 8.6772 -0.4596 0.9655
-1.8948 8.6225 -0.4627 0.9653
-7.3335 8.7301 -0.5975 0.9554
8.3604 8.6337 -1.0515 0.9529
3.3375 5.7204 -0.5794 0.9738
3.7396 8.6621 -0.8254 0.9628
-0.6479 8.6440 -0.7584 0.9658
-1.7044 8.6111 -0.7680 0.9654
-2.7980 8.5579 -0.7877 0.9645
-5.4318 8.7184 -0.8987 0.9596
-11.4362 8.7272 -1.2586 0.9439
-28.0660 -5.4643 -2.5016 0.8915
-27.2048 -8.8009 -2.5016 0.8915
-25.9485 -12.0097 -2.5016 0.8915
-16.3571 -21.2966 -2.3494 0.8978
-8.4706 -19.2895 -1.8432 0.9189
8.7162 -27.2320 -2.5016 0.8915
11.9288 -25.9858 -2.5016 0.8915
14.9683 -24.3620 -2.5016 0.8915
17.7903 -22.3844 -2.5016 0.8915
20.3539 -20.0817 -2.5016 0.8915
22.6219 -17.4873 -2.5016 0.8915
27.3469 -8.3488 -2.5016 0.8915
26.3898 4.9676 -2.3494 0.8978
25.6006 8.1062 -2.3494 0.8978
24.4558 11.1344 -2.3509 0.8977
10.9131 8.6180 -1.2166 0.9457
8.5702 8.6324 -1.0642 0.9523
6.6666 8.5688 -0.9498 0.9573
2.6760 8.6686 -0.7937 0.9642
1.5682 8.6754 -0.7713 0.9652
0.5062 8.6819 -0.7609 0.9657
-1.5934 8.6125 -0.7663 0.9654
-5.2816 8.7175 -0.8917 0.9599
-6.8477 8.7271 -0.9705 0.9564
-14.1176 8.5340 -1.4433 0.9359
-18.5440 8.3508 -1.7793 0.9216
-20.8021 3.8271 -1.8505 0.9186
-21.9545 1.3487 -1.9244 0.9155
-26.8062 -1.5898 -2.3494 0.8978
-26.0961 -11.6855 -2.5016 0.8915
-24.5008 -14.7399 -2.5016 0.8915
-20.2710 -20.1654 -2.5016 0.8915
-12.0639 -19.8174 -2.0298 0.9111
-6.0281 -19.1044 -1.7526 0.9227
4.7207 -26.4351 -2.3494 0.8978
11.6041 -26.1324 -2.5016 0.8915
22.4022 -17.7678 -2.5016 0.8915
24.3770 -14.9439 -2.5016 0.8915
25.9977 -11.9028 -2.5016 0.8915
27.2408 -8.6888 -2.5016 0.8915
28.5528 1.5150 -2.5016 0.8915
25.6996 7.7865 -2.3494 0.8978
24.5805 10.8235 -2.3498 0.8978
11.1949 8.6162 -1.2359 0.9449
5.2544 8.5116 -0.8751 0.9606
3.9978 8.6605 -0.8345 0.9624
2.7945 8.6679 -0.7968 0.9641
1.6799 8.6747 -0.7730 0.9651
0.6148 8.6813 -0.7614 0.9657
-0.4321 8.6541 -0.7581 0.9658
-1.4826 8.6119 -0.7645 0.9655
-2.5672 8.5692 -0.7826 0.9647
-5.1336 8.7166 -0.8850 0.9602
-6.6729 8.7261 -0.9611 0.9569
-8.5309 8.7375 -1.0684 0.9522
-10.8947 8.7520 -1.2226 0.9454
-13.7656 8.5572 -1.4181 0.9370
-26.3685 5.1917 -2.3512 0.8977
-21.3396 1.5780 -1.8721 0.9177
-26.8239 -1.2557 -2.3494 0.8978
-28.1934 -4.7632 -2.5016 0.8915
-27.4156 -8.1203 -2.5016 0.8915
-22.7670 -17.2980 -2.5016 0.8915
-12.5659 -20.0744 -2.0720 0.9093
-9.0870 -19.3672 -1.8716 0.9177
-6.3429 -19.2623 -1.7742 0.9218
-3.9782 -19.8783 -1.7736 0.9218
-1.5956 -20.6999 -1.8164 0.9200
4.3909 -26.4919 -2.3494 0.8978
11.2776 -26.2749 -2.5016 0.8915
14.3565 -24.7274 -2.5016 0.8915
22.1791 -18.0456 -2.5016 0.8915
25.8474 -12.2258 -2.5016 0.8915
27.1304 -9.0277 -2.5016 0.8915
28.5694 1.1591 -2.5016 0.8915
25.7946 7.4657 -2.3494 0.8978
24.7092 10.5145 -2.3494 0.8978
7.0303 8.5858 -0.9709 0.9564
5.4063 8.5183 -0.8827 0.9603
4.1137 8.6274 -0.8362 0.9623
1.7922 8.6740 -0.7749 0.9651
-0.3243 8.6592 -0.7581 0.9658
-1.3722 8.6113 -0.7629 0.9656
-2.4529 8.5748 -0.7803 0.9648
-9.2980 22.0407 -2.0929 0.9084
-4.9879 8.7157 -0.8786 0.9605
-6.5014 8.7250 -0.9520 0.9573
-8.3196 8.7362 -1.0554 0.9527
-13.4255 8.5796 -1.3939 0.9380
-17.7142 8.5143 -1.7195 0.9241
-26.3123 5.5221 -2.3522 0.8977
-26.8375 -0.9213 -2.3494 0.8978
-26.3792 -11.0315 -2.5016 0.8915
-24.8605 -14.1248 -2.5016 0.8915
-22.9808 -17.0129 -2.5016 0.8915
-20.7673 -19.6539 -2.5016 0.8915
-17.1416 -20.6704 -2.3494 0.8978
-13.0893 -20.3425 -2.1163 0.9074
-9.4024 -19.4070 -1.8867 0.9171
-6.6010 -19.2358 -1.7793 0.9216
-4.2347 -19.8697 -1.7774 0.9217
-1.8519 -20.6623 -1.8150 0.9201
0.6838 -21.9087 -1.9177 0.9157
7.6923 -27.5388 -2.5016 0.8915
10.9493 -26.4134 -2.5016 0.8915
14.0473 -24.9044 -2.5016 0.8915
16.9412 -23.0337 -2.5016 0.8915
25.6930 -12.5470 -2.5016 0.8915
27.0158 -9.3650 -2.5016 0.8915
27.9462 -6.0470 -2.5016 0.8915
28.4707 -2.6412 -2.5016 0.8915
28.5817 0.8030 -2.5016 0.8915
26.6279 3.9884 -2.3556 0.8975
9.2316 8.6283 -1.1055 0.9505
5.5608 8.5251 -0.8905 0.9600
8.9277 18.1381 -1.7687 0.9220
3.0345 8.6664 -0.8033 0.9638
0.8325 8.6799 -0.7629 0.9656
-0.2164 8.6642 -0.7583 0.9658
-3.4758 8.5348 -0.8062 0.9637
-6.3331 8.7240 -0.9432 0.9576
-8.1132 8.7349 -1.0430 0.9533
-10.3512 8.7487 -1.1857 0.9470
-13.0967 8.6011 -1.3708 0.9390
-17.2287 8.5468 -1.6826 0.9257
-22.0438 7.7957 -2.0456 0.9104
-26.2520 5.8519 -2.3531 0.8976
-28.2903 -4.0574 -2.5004 0.8916
-27.6095 -7.4346 -2.5016 0.8915
-26.5146 -10.7020 -2.5016 0.8915
-21.0105 -19.3937 -2.5016 0.8915
-17.3978 -20.4552 -2.3494 0.8978
-9.7230 -19.4474 -1.9022 0.9164
-6.8480 -19.1741 -1.7813 0.9215
-2.1092 -20.6376 -1.8150 0.9201
3.7294 -26.5930 -2.3494 0.8978
7.3486 -27.6325 -2.5016 0.8915
10.6194 -26.5478 -2.5016 0.8915
16.6529 -23.2430 -2.5016 0.8915
25.5347 -12.8661 -2.5016 0.8915
27.8687 -6.3947 -2.5016 0.8915
28.4356 -2.9957 -2.5016 0.8915
28.5895 0.4468 -2.5016 0.8915
25.9727 6.8206 -2.3494 0.8978
9.4638 8.6269 -1.1204 0.9499
7.4106 8.6037 -0.9935 0.9554
5.7181 8.5320 -0.8986 0.9596
9.0851 17.8918 -1.7556 0.9226
3.1560 8.6656 -0.8069 0.9636
0.9417 8.6792 -0.7638 0.9656
-0.1085 8.6693 -0.7585 0.9658
-3.3524 8.5346 -0.8022 0.9639
-4.7026 8.7139 -0.8663 0.9610
-6.1678 8.7229 -0.9347 0.9580
-12.7784 8.6220 -1.3487 0.9400
-16.7634 8.5779 -1.6475 0.9272
-21.6094 7.9463 -2.0144 0.9117
-19.1868 2.1423 -1.6891 0.9254
-23.3976 -16.4349 -2.5016 0.8915
-21.2506 -19.1303 -2.5016 0.8915
-17.6514 -20.2368 -2.3494 0.8978
-14.2067 -20.9147 -2.2120 0.9035
-2.3662 -20.6093 -1.8149 0.9201
7.0037 -27.7219 -2.5016 0.8915
16.3620 -23.4487 -2.5016 0.8915
19.0641 -21.3100 -2.5016 0.8915
21.4892 -18.8619 -2.5016 0.8915
23.6021 -16.1399 -2.5016 0.8915
25.3724 -13.1833 -2.5016 0.8915
26.7741 -10.0352 -2.5016 0.8915
27.7868 -6.7416 -2.5016 0.8915
28.3960 -3.3498 -2.5016 0.8915
26.0556 6.4964 -2.3494 0.8978
12.4196 8.6087 -1.3221 0.9411
9.7022 8.6254 -1.1358 0.9492
5.8784 8.5391 -0.9070 0.9592
4.4408 8.4820 -0.8376 0.9623
2.1326 8.6719 -0.7813 0.9648
1.0512 8.6786 -0.7648 0.9655
-0.0004 8.6744 -0.7589 0.9658
-3.2310 8.5367 -0.7986 0.9640
-4.5629 8.7131 -0.8605 0.9613
-6.0055 8.7220 -0.9265 0.9584
-16.3846 8.6434 -1.6207 0.9283
-22.0400 8.4178 -2.0641 0.9096
-26.1185 6.5093 -2.3550 0.8976
-19.1014 2.3741 -1.6840 0.9256
-25.3711 -13.1858 -2.5016 0.8915
-23.6006 -16.1422 -2.5016 0.8915
-21.4873 -18.8641 -2.5016 0.8915
-14.8042 -21.2207 -2.2637 0.9013
-10.3807 -19.5304 -1.9350 0.9150
-7.4621 -19.3566 -1.8150 0.9201
3.0656 -26.6777 -2.3494 0.8978
6.6577 -27.8070 -2.5016 0.8915
13.1067 -25.4120 -2.5016 0.8915
16.0686 -23.6507 -2.5016 0.8915
28.4160 3.1757 -2.5016 0.8915
26.1345 6.1713 -2.3494 0.8978
12.7531 8.6067 -1.3461 0.9401
9.9474 8.6239 -1.1518 0.9485
4.5761 8.4816 -0.8432 0.9620
3.4023 8.6641 -0.8144 0.9633
2.2473 8.6712 -0.7837 0.9647
0.1077 8.6795 -0.7594 0.9657
-2.0017 8.5967 -0.7722 0.9652
-5.8460 8.7210 -0.9186 0.9587
-7.4936 8.6983 -1.0045 0.9549
-12.1716 8.6615 -1.3070 0.9418
-15.2443 8.2863 -1.5180 0.9327
-21.0157 8.3282 -1.9777 0.9132
-26.0455 6.8369 -2.3559 0.8975
-21.2040 2.9042 -1.8724 0.9177
-26.8501 0.4170 -2.3494 0.8978
-25.5334 -12.8687 -2.5016 0.8915
-23.7998 -15.8469 -2.5016 0.8915
-21.7207 -18.5948 -2.5016 0.8915
-10.7183 -19.5729 -1.9524 0.9143
-7.7027 -19.2621 -1.8150 0.9201
9.6197 -26.9261 -2.5016 0.8915
12.7890 -25.5733 -2.5016 0.8915
15.7727 -23.8491 -2.5016 0.8915
18.5271 -21.7785 -2.5016 0.8915
27.6102 -7.4318 -2.5016 0.8915
28.3037 -4.0564 -2.5016 0.8915
28.4534 2.8214 -2.5016 0.8915
15.0518 3.3568 -1.3492 0.9400
25.3159 8.9556 -2.3494 0.8978
13.0990 8.6045 -1.3711 0.9390
8.0162 8.6321 -1.0306 0.9538
4.7170 8.4878 -0.8496 0.9618
3.5272 8.6633 -0.8184 0.9631
2.3628 8.6705 -0.7862 0.9646
1.2712 8.6772 -0.7673 0.9654
0.2154 8.6574 -0.7577 0.9658
-0.8291 8.6355 -0.7590 0.9658
-2.9941 8.5483 -0.7924 0.9643
-11.9057 8.6979 -1.2900 0.9425
8.3604 8.6337 -1.4756 0.9527
6.4359 8.4884 -1.3080 0.9580
3.3374 5.7204 -0.8132 0.9737
0.9864 5.8745 -0.7314 0.9763
0.3965 8.6553 -1.0638 0.9657
-0.6472 8.6349 -1.0632 0.9657
-2.7862 8.5218 -1.1008 0.9645
-4.0642 8.7100 -1.1802 0.9620
-7.0260 8.7282 -1.3758 0.9558
-8.9697 8.7402 -1.5377 0.9508
-11.4362 8.7272 -1.7663 0.9437
-14.1050 8.2882 -2.0087 0.9362
-17.5431 7.6387 -2.3494 0.9258
-18.3346 5.4728 -2.3494 0.9258
-18.8599 3.2274 -2.3494 0.9258
-20.3212 -1.4595 -2.5016 0.9212
-19.3844 -6.2710 -2.5016 0.9212
-18.4893 -8.5574 -2.5016 0.9212
-15.9102 -12.7258 -2.5016 0.9212
-7.6933 -17.5192 -2.3494 0.9258
1.3113 -19.0890 -2.3494 0.9258
3.5981 -18.7926 -2.3494 0.9258
6.2106 -19.4039 -2.5016 0.9212
8.4998 -18.5159 -2.5016 0.9212
10.6655 -17.3589 -2.5016 0.9212
14.5029 -14.3090 -2.5016 0.9212
16.1190 -12.4604 -2.5016 0.9212
19.4857 -5.9488 -2.5016 0.9212
20.0599 -3.5615 -2.5016 0.9212
20.3426 -1.1225 -2.5016 0.9212
19.9491 3.7552 -2.4925 0.9214
8.1414 2.5779 -1.0486 0.9662
10.9131 8.6180 -1.7074 0.9455
6.6081 8.4936 -1.3213 0.9576
3.4371 5.7261 -0.8200 0.9734
3.8680 8.6613 -1.1647 0.9625
-0.5395 8.6402 -1.0630 0.9657
-1.5887 8.5870 -1.0722 0.9654
-3.9325 8.7092 -1.1733 0.9622
-8.7475 8.7388 -1.5182 0.9514
-11.1793 8.7537 -1.7434 0.9444
-17.4466 7.8567 -2.3494 0.9258
-18.2650 5.7008 -2.3494 0.9258
-18.8182 3.4621 -2.3494 0.9258
-20.3378 -1.2062 -2.5016 0.9212
-17.4578 -10.5028 -2.5016 0.9212
-9.9494 -16.3438 -2.3494 0.9258
-5.7577 -18.2472 -2.3494 0.9258
1.0733 -19.1039 -2.3494 0.9258
10.4483 -17.4904 -2.5016 0.9212
14.3235 -14.4886 -2.5016 0.9212
18.5244 -8.4812 -2.5016 0.9212
19.4101 -6.1911 -2.5016 0.9212
20.3271 -1.3758 -2.5016 0.9212
20.0673 3.5191 -2.5016 0.9212
14.4919 8.5960 -2.0689 0.9344
3.9978 8.6605 -1.1712 0.9623
2.7945 8.6679 -1.1182 0.9640
0.6148 8.6813 -1.0686 0.9655
-1.4793 8.5927 -1.0706 0.9655
-2.5568 8.5346 -1.0939 0.9647
-3.8015 8.7068 -1.1665 0.9624
-10.8947 8.7520 -1.7159 0.9452
-13.5698 8.4355 -1.9619 0.9376
-17.3440 8.0719 -2.3489 0.9258
-18.1926 5.9279 -2.3494 0.9258
-18.7736 3.6963 -2.3494 0.9258
-19.0819 1.4111 -2.3494 0.9258
-19.5347 -5.7860 -2.5016 0.9212
-18.6968 -8.0940 -2.5016 0.9212
-17.5873 -10.2844 -2.5016 0.9212
0.8352 -19.1158 -2.3494 0.9258
8.0357 -18.7219 -2.5016 0.9212
14.1419 -14.6659 -2.5016 0.9212
15.8035 -12.8582 -2.5016 0.9212
18.4172 -8.7113 -2.5016 0.9212
19.3314 -6.4325 -2.5016 0.9212
19.9649 -4.0603 -2.5016 0.9212
20.3568 0.8259 -2.5016 0.9212
20.1096 3.2688 -2.5016 0.9212
6.9633 8.5040 -1.3495 0.9567
5.3663 8.4553 -1.2296 0.9604
4.1137 8.6274 -1.1736 0.9622
2.9140 8.6671 -1.1227 0.9638
-1.3702 8.5983 -1.0691 0.9655
-17.2468 8.2896 -2.3496 0.9258
-18.7261 3.9300 -2.3494 0.9258
-19.0628 1.6487 -2.3494 0.9258
-20.1296 -3.1434 -2.5016 0.9212
-18.7962 -7.8604 -2.5016 0.9212
-17.7141 -10.0645 -2.5016 0.9212
-14.7975 -14.0042 -2.5016 0.9212
-8.3426 -17.2195 -2.3494 0.9258
-1.7081 -19.0576 -2.3494 0.9258
2.8933 -18.9140 -2.3494 0.9258
5.4811 -19.6224 -2.5016 0.9212
7.8018 -18.8206 -2.5016 0.9212
15.6420 -13.0541 -2.5016 0.9212
17.0988 -11.0776 -2.5016 0.9212
18.3073 -8.9402 -2.5016 0.9212
19.9127 -4.3087 -2.5016 0.9212
20.2865 -1.8819 -2.5016 0.9212
20.3655 0.5722 -2.5016 0.9212
8.0244 3.2971 -1.0652 0.9656
11.7866 8.6126 -1.7924 0.9429
5.5185 8.4601 -1.2402 0.9601
3.0345 8.6664 -1.1274 0.9637
-0.2162 8.6559 -1.0631 0.9657
-2.3301 8.5471 -1.0878 0.9649
-4.8442 8.7148 -1.2242 0.9606
-6.3331 8.7240 -1.3237 0.9575
-8.1132 8.7349 -1.4638 0.9531
-12.9493 8.5043 -1.9022 0.9395
-18.0392 6.3795 -2.3494 0.9258
-20.3687 -0.4453 -2.5016 0.9212
-20.1672 -2.8924 -2.5016 0.9212
-19.6728 -5.2974 -2.5016 0.9212
-18.8927 -7.6256 -2.5016 0.9212
-16.5245 -11.9174 -2.5016 0.9212
-14.9708 -13.8187 -2.5016 0.9212
-13.1997 -15.5193 -2.5016 0.9212
-10.5727 -15.9900 -2.3537 0.9257
-4.2212 -18.6626 -2.3494 0.9258
2.6574 -18.9486 -2.3494 0.9258
5.2361 -19.6892 -2.5016 0.9212
7.5667 -18.9163 -2.5016 0.9212
11.8658 -16.5615 -2.5016 0.9212
13.7720 -15.0138 -2.5016 0.9212
16.9594 -11.2898 -2.5016 0.9212
19.1652 -6.9123 -2.5016 0.9212
19.8575 -4.5565 -2.5016 0.9212
20.3711 0.3183 -2.5016 0.9212
16.6344 9.0440 -2.3248 0.9265
15.0143 10.6867 -2.2628 0.9284
9.4638 8.6269 -1.5723 0.9497
5.6732 8.4650 -1.2512 0.9598
8.7527 17.2373 -2.3737 0.9250
3.1560 8.6656 -1.1324 0.9635
2.0185 8.6726 -1.0933 0.9648
-0.1084 8.6611 -1.0635 0.9657
-1.1527 8.6095 -1.0665 0.9656
-3.3350 8.4905 -1.1200 0.9639
-7.9117 8.7337 -1.4469 0.9536
-12.6785 8.5545 -1.8779 0.9402
-17.0440 8.7216 -2.3508 0.9257
-18.6223 4.3955 -2.3494 0.9258
-20.2017 -2.6408 -2.5016 0.9212
-19.7373 -5.0519 -2.5016 0.9212
-18.9862 -7.3896 -2.5016 0.9212
-16.6717 -11.7105 -2.5016 0.9212
-2.1825 -19.0091 -2.3494 0.9258
0.1202 -19.1336 -2.3494 0.9258
2.4210 -18.9802 -2.3494 0.9258
7.3304 -19.0091 -2.5016 0.9212
11.6586 -16.7081 -2.5016 0.9212
18.0788 -9.3936 -2.5016 0.9212
19.0775 -7.1505 -2.5016 0.9212
19.7992 -4.8036 -2.5016 0.9212
20.2333 -2.3869 -2.5016 0.9212
20.3735 0.0645 -2.5016 0.9212
20.2178 2.5149 -2.5016 0.9212
8.0228 3.0651 -1.0545 0.9660
16.6327 8.7764 -2.3091 0.9270
9.7022 8.6254 -1.5940 0.9490
7.5377 8.5339 -1.3980 0.9552
5.8308 8.4699 -1.2626 0.9594
4.3840 8.3735 -1.1605 0.9626
-1.0444 8.6150 -1.0655 0.9656
-2.1058 8.5594 -1.0823 0.9651
-6.0055 8.7220 -1.3002 0.9582
-7.6929 8.7079 -1.4267 0.9543
-9.8393 8.7455 -1.6164 0.9483
-12.4146 8.6035 -1.8546 0.9409
-17.8746 6.8270 -2.3494 0.9258
-18.9879 2.3600 -2.3494 0.9258
-20.3728 0.0624 -2.5015 0.9212
-19.0768 -7.1525 -2.5016 0.9212
-18.0779 -9.3954 -2.5016 0.9212
-16.8163 -11.5019 -2.5016 0.9212
-15.3105 -13.4414 -2.5016 0.9212
-13.5824 -15.1856 -2.5016 0.9212
-11.3266 -16.2358 -2.4307 0.9233
-8.9804 -16.8956 -2.3494 0.9258
-6.8827 -17.8533 -2.3494 0.9258
-4.6849 -18.5516 -2.3494 0.9258
-0.0991 -16.0376 -1.9692 0.9374
4.7106 -19.6745 -2.4840 0.9217
7.0930 -19.0990 -2.5016 0.9212
13.3936 -15.3523 -2.5016 0.9212
16.6729 -11.7089 -2.5016 0.9212
17.9603 -9.6181 -2.5016 0.9212
18.9869 -7.3877 -2.5016 0.9212
19.7378 -5.0499 -2.5016 0.9212
20.2020 -2.6388 -2.5016 0.9212
20.3727 -0.1894 -2.5016 0.9212
17.0326 8.7178 -2.3494 0.9258
9.9474 8.6239 -1.6165 0.9483
4.5356 8.4065 -1.1728 0.9622
3.4023 8.6641 -1.1429 0.9632
0.1076 8.6713 -1.0648 0.9657
-1.9944 8.5654 -1.0798 0.9652
-3.0981 8.5041 -1.1113 0.9642
-7.4936 8.6983 -1.4097 0.9548
-9.5941 8.7440 -1.5939 0.9490
-12.1572 8.6512 -1.8321 0.9416
-17.7882 7.0492 -2.3494 0.9258
-20.2612 -2.1366 -2.5016 0.9212
-19.8571 -4.5585 -2.5016 0.9212
-19.1645 -6.9141 -2.5016 0.9212
-16.9583 -11.2915 -2.5016 0.9212
-15.4768 -13.2495 -2.5016 0.9212
-11.7237 -16.3666 -2.4719 0.9221
-7.1045 -17.7661 -2.3494 0.9258
-0.2991 -16.0414 -1.9700 0.9374
9.1127 -18.2220 -2.5016 0.9212
11.2386 -16.9934 -2.5016 0.9212
19.6733 -5.2954 -2.5016 0.9212
20.1675 -2.8904 -2.5016 0.9212
20.3687 -0.4432 -2.5016 0.9212
20.2741 2.0104 -2.5016 0.9212
8.0565 2.8500 -1.0493 0.9661
10.1997 8.6223 -1.6399 0.9476
8.0055 8.6206 -1.4445 0.9537
4.6866 8.4331 -1.1846 0.9619
2.3628 8.6705 -1.1034 0.9644
1.2712 8.6772 -1.0768 0.9653
0.2154 8.6574 -1.0633 0.9657
-0.8282 8.6259 -1.0640 0.9657
-1.8835 8.5713 -1.0775 0.9653
-2.9809 8.5108 -1.1072 0.9643
-4.2889 8.7114 -1.1922 0.9616
-5.6892 8.7200 -1.2784 0.9589
-7.3335 8.7301 -1.3999 0.9551
-9.3557 8.7425 -1.5722 0.9497
-11.9057 8.6979 -1.8104 0.9423
8.3604 8.6337 -1.9035 0.9525
6.3673 8.3979 -1.6692 0.9582
3.3374 5.7203 -1.0489 0.9735
3.7396 8.6621 -1.4943 0.9625
0.9862 5.8731 -0.9432 0.9762
-1.6843 8.5095 -1.3739 0.9655
-5.4318 8.7184 -1.6269 0.9593
-7.0260 8.7282 -1.7747 0.9556
-8.9697 8.7402 -1.9836 0.9505
-11.4362 8.7272 -2.2785 0.9434
-12.7888 7.5148 -2.3494 0.9417
-14.2136 4.2427 -2.3494 0.9417
-14.7913 2.5312 -2.3768 0.9410
-15.7753 0.7719 -2.5016 0.9380
-15.5031 -3.0184 -2.5016 0.9380
-15.0274 -4.8615 -2.5016 0.9380
-13.4313 -8.3101 -2.5016 0.9380
-12.3341 -9.8655 -2.5016 0.9380
-11.0577 -11.2776 -2.5016 0.9380
-9.6207 -12.5259 -2.5016 0.9380
-6.3484 -14.4568 -2.5008 0.9381
-4.4115 -14.6129 -2.4176 0.9401
-2.5632 -14.7031 -2.3639 0.9413
-0.7867 -15.1137 -2.3970 0.9405
9.8270 -12.3648 -2.5016 0.9380
12.4959 -9.6597 -2.5016 0.9380
13.5672 -8.0863 -2.5016 0.9380
15.7702 -0.8702 -2.5016 0.9380
10.7364 2.0210 -1.7303 0.9567
12.6625 7.7257 -2.3494 0.9417
10.9131 8.6180 -2.2024 0.9452
3.4370 5.7260 -1.0577 0.9733
3.8680 8.6613 -1.5024 0.9623
-1.5755 8.5154 -1.3716 0.9655
-2.6484 8.4555 -1.4034 0.9648
-6.8477 8.7271 -1.7569 0.9561
-8.7475 8.7388 -1.9584 0.9512
-11.1617 8.7399 -2.2453 0.9442
-12.6942 7.6736 -2.3494 0.9417
-14.1596 4.4194 -2.3494 0.9417
-15.7665 -0.9351 -2.5016 0.9380
-15.5395 -2.8250 -2.5016 0.9380
-15.0868 -4.6739 -2.5016 0.9380
-13.5338 -8.1421 -2.5016 0.9380
-12.4560 -9.7110 -2.5016 0.9380
-9.7760 -12.4051 -2.5016 0.9380
-8.2127 -13.4910 -2.5016 0.9380
-6.5301 -14.3811 -2.5016 0.9380
-0.9718 -15.0526 -2.3891 0.9407
4.6268 -15.1013 -2.5016 0.9380
6.4099 -14.4350 -2.5016 0.9380
9.6722 -12.4862 -2.5016 0.9380
11.1040 -11.2320 -2.5016 0.9380
12.3746 -9.8146 -2.5016 0.9380
14.3606 -6.5749 -2.5016 0.9380
15.7720 0.8368 -2.5016 0.9380
7.5569 2.2896 -1.2506 0.9685
7.2024 3.1714 -1.2464 0.9686
12.7578 7.5674 -2.3494 0.9417
11.1889 8.6116 -2.2363 0.9444
3.9978 8.6605 -1.5108 0.9621
2.7945 8.6679 -1.4424 0.9638
1.6799 8.6747 -1.3995 0.9648
-1.4670 8.5212 -1.3695 0.9656
-3.8015 8.7068 -1.5047 0.9623
-5.1336 8.7166 -1.6022 0.9599
-6.6729 8.7261 -1.7399 0.9565
-8.5309 8.7375 -1.9341 0.9517
-10.8947 8.7520 -2.2134 0.9450
-13.4482 6.2588 -2.3494 0.9417
-14.5538 2.8655 -2.3494 0.9417
-15.7512 1.1648 -2.5016 0.9380
-15.7769 -0.7385 -2.5016 0.9380
-15.5735 -2.6311 -2.5016 0.9380
-15.1439 -4.4855 -2.5016 0.9380
-14.4943 -6.2747 -2.5016 0.9380
-13.6342 -7.9728 -2.5016 0.9380
-9.9299 -12.2823 -2.5016 0.9380
-8.3802 -13.3877 -2.5016 0.9380
-2.9343 -14.6620 -2.3683 0.9412
2.5826 -15.5816 -2.5016 0.9380
6.2295 -14.5138 -2.5016 0.9380
7.9303 -13.6590 -2.5016 0.9380
9.5158 -12.6058 -2.5016 0.9380
10.9632 -11.3695 -2.5016 0.9380
12.2513 -9.9681 -2.5016 0.9380
13.3615 -8.4218 -2.5016 0.9380
14.9863 -4.9867 -2.5016 0.9380
15.4774 -3.1476 -2.5016 0.9380
15.7812 0.6403 -2.5016 0.9380
15.5896 2.5341 -2.5016 0.9380
7.2078 3.0671 -1.2407 0.9688
11.8666 8.9000 -2.3494 0.9417
9.0055 8.6297 -1.9755 0.9507
6.8892 8.4136 -1.7223 0.9569
2.9140 8.6671 -1.4482 0.9636
1.7922 8.6740 -1.4028 0.9648
0.7235 8.6806 -1.3796 0.9653
-3.4866 8.2649 -1.4207 0.9643
-4.9879 8.7157 -1.5905 0.9601
-6.5014 8.7250 -1.7234 0.9569
-8.3196 8.7362 -1.9107 0.9523
-10.6188 8.7503 -2.1793 0.9458
-12.4990 7.9875 -2.3494 0.9417
-14.0451 4.7709 -2.3494 0.9417
-13.7325 -7.8023 -2.5016 0.9380
-12.6942 -9.3976 -2.5016 0.9380
-11.4714 -10.8565 -2.5016 0.9380
-10.0821 -12.1576 -2.5016 0.9380
-6.8864 -14.2139 -2.5016 0.9380
-5.0289 -14.6545 -2.4539 0.9392
0.4873 -15.6126 -2.4740 0.9387
9.3580 -12.7234 -2.5016 0.9380
10.8207 -11.5052 -2.5016 0.9380
14.1923 -6.9307 -2.5016 0.9380
15.7267 -1.4589 -2.5016 0.9380
7.9536 2.1950 -1.3068 0.9671
7.2123 2.9635 -1.2350 0.9689
12.9424 7.2471 -2.3494 0.9417
9.2316 8.6283 -2.0014 0.9501
6.5781 13.3645 -2.3592 0.9415
3.0345 8.6664 -1.4543 0.9635
1.9050 8.6733 -1.4065 0.9647
-0.2150 8.6068 -1.3636 0.9657
-2.3104 8.4749 -1.3913 0.9651
-3.3783 8.2953 -1.4186 0.9644
-8.1132 8.7349 -1.8882 0.9529
-13.2880 6.5919 -2.3494 0.9417
-13.9845 4.9456 -2.3494 0.9417
-15.7173 1.5569 -2.5016 0.9380
-15.7905 -0.3452 -2.5016 0.9380
-15.6343 -2.2422 -2.5016 0.9380
-15.2510 -4.1067 -2.5016 0.9380
-14.6462 -5.9116 -2.5016 0.9380
-12.8103 -9.2387 -2.5016 0.9380
-11.6058 -10.7127 -2.5016 0.9380
-10.2328 -12.0310 -2.5016 0.9380
-8.7112 -13.1747 -2.5016 0.9380
-7.0630 -14.1269 -2.5016 0.9380
-5.2413 -14.6752 -2.4681 0.9388
-3.3083 -14.6265 -2.3751 0.9411
4.0592 -15.2637 -2.5016 0.9380
7.5875 -13.8523 -2.5016 0.9380
11.9991 -10.2702 -2.5016 0.9380
14.1049 -7.1070 -2.5016 0.9380
14.8574 -5.3586 -2.5016 0.9380
15.7073 -1.6548 -2.5016 0.9380
15.6479 2.1448 -2.5016 0.9380
8.2283 2.1608 -1.3474 0.9661
13.0317 7.0853 -2.3494 0.9417
9.4638 8.6269 -2.0282 0.9495
5.6154 8.3786 -1.5975 0.9600
2.0185 8.6726 -1.4103 0.9646
-1.1432 8.5381 -1.3644 0.9657
-3.2702 8.3254 -1.4167 0.9644
-6.1678 8.7229 -1.6921 0.9577
-10.0916 8.7471 -2.1152 0.9474
-12.2961 8.2965 -2.3494 0.9417
-15.6967 1.7526 -2.5016 0.9380
-15.7935 -0.1484 -2.5016 0.9380
-13.9227 -7.4576 -2.5016 0.9380
-12.9244 -9.0783 -2.5016 0.9380
-11.7384 -10.5672 -2.5016 0.9380
-10.3819 -11.9026 -2.5016 0.9380
-8.8747 -13.0651 -2.5016 0.9380
-7.2385 -14.0378 -2.5016 0.9380
-3.4986 -14.6187 -2.3808 0.9409
-1.7060 -14.8589 -2.3689 0.9412
3.8687 -15.3131 -2.5016 0.9380
5.6828 -14.7365 -2.5016 0.9380
7.4143 -13.9458 -2.5016 0.9380
9.0381 -12.9526 -2.5016 0.9380
14.0152 -7.2822 -2.5016 0.9380
14.7895 -5.5433 -2.5016 0.9380
15.3489 -3.7239 -2.5016 0.9380
15.6734 1.9496 -2.5016 0.9380
8.5591 2.1340 -1.3971 0.9649
12.1909 8.4503 -2.3494 0.9417
5.7708 8.3827 -1.6119 0.9596
-0.0004 8.6466 -1.3695 0.9656
-1.0357 8.5437 -1.3631 0.9657
-2.0881 8.4873 -1.3843 0.9652
-3.1624 8.3553 -1.4150 0.9645
-4.5629 8.7131 -1.5578 0.9610
-7.6929 8.7079 -1.8403 0.9540
-9.8393 8.7455 -2.0850 0.9481
-13.8570 5.2925 -2.3494 0.9417
-14.3930 3.5871 -2.3494 0.9417
-15.7941 0.0484 -2.5016 0.9380
-15.6853 -1.8519 -2.5016 0.9380
-14.0145 -7.2836 -2.5016 0.9380
-13.0365 -8.9166 -2.5016 0.9380
-9.0368 -12.9535 -2.5016 0.9380
-3.6897 -14.6108 -2.3868 0.9408
-1.8890 -14.8207 -2.3664 0.9413
-0.0949 -15.3588 -2.4327 0.9397
1.8031 -15.6909 -2.5016 0.9380
3.6776 -15.3601 -2.5016 0.9380
5.4987 -14.8061 -2.5016 0.9380
8.8760 -13.0642 -2.5016 0.9380
11.7395 -10.5661 -2.5016 0.9380
14.7193 -5.7272 -2.5016 0.9380
15.6612 -2.0457 -2.5016 0.9380
15.7935 -0.1468 -2.5016 0.9380
15.6965 1.7542 -2.5016 0.9380
8.9456 2.1124 -1.4558 0.9635
12.2953 8.2977 -2.3494 0.9417
4.4183 8.1892 -1.4738 0.9630
1.1610 8.6779 -1.3867 0.9652
0.1076 8.6666 -1.3728 0.9655
-0.9285 8.5491 -1.3620 0.9658
-3.0547 8.3851 -1.4135 0.9645
-5.8460 8.7210 -1.6629 0.9584
-7.4936 8.6983 -1.8184 0.9546
-9.5941 8.7440 -2.0560 0.9488
-12.0856 8.6003 -2.3494 0.9417
-13.0324 7.0839 -2.3494 0.9417
-13.7899 5.4647 -2.3494 0.9417
-14.3472 3.7661 -2.3494 0.9417
-15.6132 2.1384 -2.4960 0.9382
-15.7923 0.2453 -2.5016 0.9380
-15.7071 -1.6564 -2.5016 0.9380
-14.8569 -5.3600 -2.5016 0.9380
-13.1466 -8.7535 -2.5016 0.9380
-9.1975 -12.8399 -2.5016 0.9380
-7.5861 -13.8531 -2.5016 0.9380
-5.8519 -14.6338 -2.4962 0.9382
-0.2849 -15.2834 -2.4211 0.9400
1.6074 -15.7122 -2.5016 0.9380
5.3137 -14.8735 -2.5016 0.9380
10.2340 -12.0300 -2.5016 0.9380
11.6069 -10.7115 -2.5016 0.9380
12.8112 -9.2374 -2.5016 0.9380
14.6468 -5.9101 -2.5016 0.9380
15.2514 -4.1052 -2.5016 0.9380
15.7905 -0.3436 -2.5016 0.9380
9.3751 2.0908 -1.5213 0.9618
8.0055 8.6206 -1.8633 0.9535
6.0900 8.3909 -1.6421 0.9589
3.5272 8.6633 -1.4815 0.9628
2.3628 8.6705 -1.4234 0.9643
-0.8214 8.5546 -1.3611 0.9658
-2.9473 8.4147 -1.4121 0.9645
-4.2889 8.7114 -1.5379 0.9614
-9.3557 8.7425 -2.0281 0.9495
-11.9774 8.7503 -2.3494 0.9417
2.5583 8.6693 -1.7570 0.9638
0.9860 5.8720 -1.1574 0.9760
0.3965 8.6553 -1.6842 0.9653
-0.6392 8.5281 -1.6623 0.9658
-1.6702 8.4382 -1.6720 0.9656
-2.7140 8.3008 -1.6976 0.9650
-5.4318 8.7184 -1.9967 0.9590
-8.6564 8.4349 -2.3494 0.9519
-9.6083 7.3323 -2.3494 0.9519
-10.4206 6.1232 -2.3494 0.9519
-11.0815 4.8251 -2.3494 0.9519
-12.6850 2.1707 -2.5016 0.9489
-12.8540 0.6290 -2.5016 0.9489
-12.8363 -0.9219 -2.5016 0.9489
-11.6792 -5.4054 -2.5016 0.9489
-9.0100 -9.1892 -2.5016 0.9489
-6.5544 -11.0753 -2.5016 0.9489
-3.7193 -12.3202 -2.5016 0.9489
-0.6690 -12.8520 -2.5016 0.9489
0.8819 -12.8391 -2.5016 0.9489
2.4201 -12.6398 -2.5016 0.9489
5.3690 -11.6959 -2.5016 0.9489
10.1819 -7.8709 -2.5016 0.9489
11.0548 -6.5888 -2.5016 0.9489
12.8499 -0.7090 -2.5016 0.9489
10.5715 1.9900 -2.0910 0.9571
9.4854 7.4906 -2.3494 0.9519
8.5154 8.5772 -2.3494 0.9519
3.4370 5.7259 -1.2981 0.9732
1.5682 8.6754 -1.7137 0.9647
0.5062 8.6819 -1.6905 0.9652
-1.5623 8.4442 -1.6692 0.9656
-3.9325 8.7092 -1.8575 0.9618
-5.2816 8.7175 -1.9812 0.9593
-6.8477 8.7271 -2.1562 0.9558
-8.5507 8.5421 -2.3494 0.9519
-12.6570 2.3286 -2.5016 0.9489
-12.8452 0.7891 -2.5016 0.9489
-12.8468 -0.7619 -2.5016 0.9489
-11.0276 -6.6343 -2.5016 0.9489
-7.9657 -10.1079 -2.5016 0.9489
-5.3209 -11.7179 -2.5016 0.9489
-2.3680 -12.6497 -2.5016 0.9489
0.7219 -12.8491 -2.5016 0.9489
3.7700 -12.3048 -2.5016 0.9489
5.2229 -11.7619 -2.5016 0.9489
6.5999 -11.0482 -2.5016 0.9489
9.0478 -9.1520 -2.5016 0.9489
10.9718 -6.7261 -2.5016 0.9489
11.7013 -5.3573 -2.5016 0.9489
12.2608 -3.9108 -2.5016 0.9489
12.6422 -2.4074 -2.5016 0.9489
12.8400 -0.8691 -2.5016 0.9489
12.6760 2.2229 -2.5016 0.9489
10.3953 6.1660 -2.3494 0.9519
8.6216 8.4705 -2.3494 0.9519
6.6857 8.3758 -2.0832 0.9573
5.0081 8.1127 -1.8532 0.9619
3.9978 8.6605 -1.8541 0.9619
2.7945 8.6679 -1.7703 0.9636
-0.4278 8.5673 -1.6674 0.9656
-1.4547 8.4500 -1.6667 0.9657
-2.5039 8.3580 -1.6960 0.9651
-3.5253 8.0743 -1.7126 0.9647
-6.6729 8.7261 -2.1353 0.9562
-8.4435 8.6480 -2.3494 0.9519
-9.4226 7.5694 -2.3494 0.9519
-10.9578 5.0998 -2.3494 0.9519
-12.6270 2.4862 -2.5016 0.9489
-12.8344 0.9491 -2.5016 0.9489
-12.8553 -0.6018 -2.5016 0.9489
