ply
format ascii 1.0
element vertex 951
property float32 x
property float32 y
property float32 z
property float32 I
end_header
-23.1653 2.9672 6.2578 0.9078
-49.6188 -25.6488 14.9665 0.7935
-7.3666 -29.1623 8.0595 0.8829
52.9661 19.8103 15.1524 0.7912
33.2453 22.7299 10.7911 0.8464
32.6821 28.6992 11.6543 0.8352
32.7309 36.6258 13.1616 0.8159
32.7952 47.0828 15.3746 0.7885
32.8872 62.0291 18.8122 0.7477
-10.5401 43.4707 11.9854 0.8309
-10.6331 28.3551 8.1144 0.8821
-25.4905 22.7404 9.1531 0.8681
-23.1492 2.8843 6.2508 0.9079
-39.8131 -9.6896 10.9793 0.8439
-52.0800 -27.1482 15.7369 0.7841
-27.5353 -39.6764 12.9406 0.8187
-17.7635 -33.6437 10.1942 0.8542
-11.7538 -30.7693 8.8257 0.8725
-7.2849 -29.2619 8.0800 0.8826
-5.0075 -40.4731 10.9274 0.8446
37.6309 19.6985 11.3811 0.8387
32.6833 28.8998 11.6901 0.8347
32.7974 47.4326 15.4519 0.7876
-10.5440 42.8431 11.8223 0.8330
-10.6349 28.0662 8.0421 0.8831
-39.6327 -9.7900 10.9387 0.8445
-52.0403 -27.3554 15.7533 0.7839
-17.6165 -33.6446 10.1761 0.8545
44.7776 -85.0067 25.7443 0.6717
-59.1939 -14.1910 14.0532 0.7789
-11.6986 -30.3120 7.5012 0.8751
44.5400 -85.9837 22.3561 0.6720
57.9563 -30.7916 15.1515 0.7638
33.1449 22.6613 9.2696 0.8480
32.6821 28.6992 10.0415 0.8365
32.8872 62.0292 16.2088 0.7496
-10.5401 43.4706 10.3268 0.8322
-13.2444 25.4609 6.6258 0.8889
-59.9381 53.4716 18.5440 0.7191
-59.2705 -14.4249 14.0831 0.7785
-11.5892 -30.3383 7.4978 0.8752
-8.3533 -33.5536 7.9829 0.8677
-5.0075 -40.4731 9.4152 0.8458
52.9289 20.0040 13.0632 0.7927
32.7325 36.8819 11.3846 0.8167
32.7974 47.4327 13.3136 0.7892
-13.3177 25.3885 6.6189 0.8890
-23.1819 2.8075 5.3911 0.9086
-53.4460 -28.0943 13.9399 0.7805
-16.5356 -31.5803 8.2299 0.8639
-11.4846 -30.3774 7.4976 0.8752
-8.2380 -33.5821 7.9829 0.8677
-4.8665 -40.4740 9.4115 0.8459
44.7776 -85.0066 22.1815 0.6741
29.6910 -42.8711 12.0395 0.8073
-23.2725 2.9809 4.5607 0.9088
-50.8843 -26.3029 11.1342 0.7918
-59.2871 -40.3854 13.9439 0.7465
-58.9685 -65.7579 17.1687 0.6977
-23.4014 -33.4736 7.9390 0.8467
-17.9112 -33.6428 7.4086 0.8562
-12.3998 -32.1287 6.6942 0.8691
-8.5097 -33.6872 6.7538 0.8680
-5.1487 -40.4723 7.9304 0.8468
32.6231 -87.4521 18.1432 0.6836
28.3372 -54.7045 11.9754 0.7780
28.6783 -42.0231 9.8893 0.8128
37.6472 -42.9463 11.1013 0.7924
49.4693 -44.2852 12.9060 0.7630
58.2181 14.0628 11.6419 0.7834
52.9661 19.8103 10.9921 0.7942
33.2359 29.1855 8.5977 0.8351
32.7309 36.6258 9.5479 0.8186
4.5830 8.6442 1.9018 0.9609
3.3269 8.6646 1.8041 0.9629
0.0340 8.6848 1.6882 0.9652
-2.1090 8.6980 1.7397 0.9642
-4.5238 8.6965 1.9055 0.9608
-15.5343 22.6791 5.3434 0.8940
-20.4160 23.2092 6.0085 0.8817
-59.9649 53.4955 15.6202 0.7208
-23.1773 2.8878 4.5400 0.9092
-58.7485 -14.2978 11.7529 0.7816
-80.9977 -30.4535 16.8204 0.7028
-17.7636 -33.6438 7.3953 0.8564
-5.0075 -40.4731 7.9272 0.8469
22.9997 -44.0295 9.6558 0.8168
28.9001 -42.0370 9.9159 0.8123
37.9364 -42.9773 11.1430 0.7917
49.8656 -44.3322 12.9696 0.7619
62.1790 -43.0730 14.7031 0.7347
58.2194 14.2750 11.6519 0.7833
52.9289 20.0040 10.9986 0.7941
37.6311 19.6986 8.2563 0.8411
33.1460 22.8295 7.8233 0.8487
32.7325 36.8819 9.5853 0.8180
4.5467 8.6472 1.8990 0.9610
3.2929 8.6648 1.8018 0.9629
-2.1407 8.6982 1.7412 0.9642
-3.2986 8.7053 1.8095 0.9628
-15.6496 22.6798 5.3562 0.8938
-60.4238 53.5332 15.6917 0.7197
-23.1906 2.8086 4.5407 0.9092
-59.2192 -40.9377 13.9938 0.7458
-4.8665 -40.4740 7.9240 0.8469
33.3553 -87.5720 18.2152 0.6826
23.0968 -43.8474 9.6332 0.8171
29.1231 -42.0512 9.9428 0.8119
-23.2990 2.9843 3.7204 0.9093
-59.8541 -14.3492 9.7486 0.7794
-65.2045 -33.7053 11.6255 0.7428
-58.2729 -39.6945 11.1674 0.7516
-16.8308 -31.6135 5.6725 0.8650
-4.0236 -31.6282 5.0498 0.8789
26.7635 -39.2173 7.5200 0.8251
36.9289 -42.1270 8.8730 0.7970
48.1485 -43.1028 10.2353 0.7697
58.3935 -31.0239 10.4729 0.7651
63.9194 -24.6061 10.8481 0.7578
58.3182 14.0870 9.5023 0.7843
52.9661 19.8103 8.9566 0.7953
37.9442 19.6966 6.7712 0.8410
33.1449 22.6612 6.3593 0.8499
3.3269 8.6646 1.4700 0.9631
2.1678 8.6442 1.4115 0.9646
1.0889 8.6783 1.3853 0.9652
-1.0213 8.6913 1.3860 0.9652
-2.1090 8.6980 1.4175 0.9644
-5.9741 8.7217 1.6744 0.9581
-7.6813 8.7322 1.8420 0.9540
-60.0042 53.5306 12.7360 0.7221
-80.0162 42.3356 14.3379 0.6931
-59.8900 -14.5756 9.7625 0.7791
-65.8358 -34.3188 11.7591 0.7403
-21.8939 -31.5475 6.0820 0.8560
-12.0854 -31.6374 5.3640 0.8718
48.1503 -42.8073 10.2043 0.7703
65.1486 -24.8225 11.0421 0.7540
52.9290 20.0040 8.9619 0.7952
37.6310 19.6985 6.7274 0.8420
33.4233 29.5541 7.0664 0.8347
7.6661 8.6379 1.8292 0.9543
33.8064 48.8919 9.4146 0.7861
3.2929 8.6648 1.4681 0.9632
1.0586 8.6785 1.3847 0.9652
0.0042 8.6850 1.3756 0.9654
-1.0517 8.6915 1.3866 0.9652
-2.1407 8.6982 1.4188 0.9644
-3.2986 8.7053 1.4745 0.9630
-4.5706 8.7131 1.5584 0.9609
-6.0184 8.7220 1.6784 0.9580
-7.7350 8.7326 1.8477 0.9539
-23.1959 2.8092 3.7007 0.9097
-81.9154 -31.1202 13.8789 0.7013
-65.8292 -34.6037 11.7791 0.7399
-24.2634 -21.5289 5.1376 0.8769
-16.5356 -31.5803 5.6460 0.8656
-7.7589 -31.6290 5.1581 0.8764
20.1838 -52.9911 8.9812 0.7948
27.6183 -39.8784 7.6830 0.8216
-23.3253 2.9877 2.8874 0.9096
-65.2743 -33.7414 9.0221 0.7437
-23.1817 -33.1594 4.9677 0.8495
-17.9112 -33.6429 4.6798 0.8576
-8.5097 -33.6872 4.2662 0.8693
-5.1058 -40.1356 4.9677 0.8495
19.7832 -53.0325 6.9499 0.7960
27.0187 -39.5912 5.8853 0.8243
36.9738 -42.1781 6.8869 0.7977
60.5634 -42.2625 9.0678 0.7426
57.9450 -30.7856 8.0565 0.7676
63.9194 -24.6061 8.4097 0.7588
64.8542 -16.3234 8.2114 0.7637
62.4743 7.2871 7.7229 0.7761
58.3182 14.0870 7.3665 0.7852
52.9661 19.8103 6.9434 0.7962
37.9442 19.6966 5.2493 0.8417
12.5898 8.6076 1.8726 0.9404
3.3269 8.6646 1.1396 0.9633
1.0889 8.6783 1.0739 0.9654
0.0340 8.6848 1.0664 0.9656
-1.0213 8.6913 1.0745 0.9653
-2.1090 8.6980 1.0989 0.9646
-4.5323 8.7129 1.2059 0.9612
-5.9741 8.7217 1.2980 0.9583
-7.6813 8.7322 1.4280 0.9542
-81.9112 43.3383 11.3784 0.6883
-23.2097 2.8919 2.8718 0.9100
-59.7911 -14.5516 7.5557 0.7804
-65.3623 -34.0719 9.0504 0.7430
-28.0928 -31.5447 5.1865 0.8435
-17.7636 -33.6438 4.6714 0.8579
-12.4018 -32.4657 4.2672 0.8693
-8.3868 -33.6880 4.2626 0.8694
-4.9679 -40.1529 4.9677 0.8495
19.5758 -51.9308 6.8143 0.7996
21.8184 -41.7680 5.7860 0.8270
37.2323 -42.1797 6.9081 0.7971
61.0132 -42.2654 9.1134 0.7415
64.5914 -24.6102 8.4870 0.7569
64.8557 -16.0870 8.2046 0.7639
62.3823 -7.6638 7.7172 0.7762
62.6371 -0.0841 7.6909 0.7769
58.2194 14.2750 7.3602 0.7854
52.9290 20.0040 6.9475 0.7961
12.4877 8.6010 1.8618 0.9407
33.8065 48.8920 7.2985 0.7870
2.1426 8.6698 1.0965 0.9646
1.0586 8.6785 1.0735 0.9654
-9.8503 8.7270 1.6159 0.9483
-12.6906 8.7588 1.8933 0.9397
-81.9697 43.0093 11.3659 0.6886
-23.2012 2.8099 2.8695 0.9101
-80.2073 -55.4467 11.9723 0.6751
-22.9533 -33.3179 4.9677 0.8495
-17.6165 -33.6447 4.6631 0.8581
-12.4039 -32.8090 4.3067 0.8682
19.7409 -51.8283 6.8097 0.7997
27.3239 -39.4532 5.8926 0.8241
-23.3515 2.9910 2.0597 0.9098
-65.3636 -33.7875 6.4374 0.7442
-17.9112 -33.6429 3.3345 0.8581
-12.2099 -31.6367 2.9668 0.8727
-7.9982 -31.6624 2.8571 0.8771
-4.0310 -31.6867 2.7946 0.8796
21.5790 -41.6579 4.1045 0.8283
26.8814 -39.3900 4.1722 0.8257
60.5634 -42.2625 6.4612 0.7434
62.2820 -23.9757 5.8388 0.7649
62.3329 -15.6889 5.6235 0.7725
62.4276 -0.2983 5.4618 0.7783
62.4743 7.2871 5.5028 0.7768
58.2181 14.0628 5.2399 0.7862
51.1084 19.1156 4.7739 0.8032
12.5898 8.6076 1.3343 0.9406
9.8037 8.6089 1.1415 0.9490
32.7953 47.0829 5.0200 0.7942
4.5898 8.6568 0.8572 0.9614
2.1678 8.6442 0.7797 0.9648
1.0889 8.6783 0.7652 0.9655
0.0340 8.6848 0.7598 0.9657
-2.1090 8.6980 0.7830 0.9647
-4.5323 8.7129 0.8592 0.9613
-5.9741 8.7217 0.9249 0.9584
-57.6449 51.4258 6.7585 0.7333
-59.6741 -14.5231 5.3732 0.7815
-23.3319 -33.6197 3.5803 0.8485
-17.7636 -33.6438 3.3285 0.8583
-12.0854 -31.6374 2.9630 0.8729
-3.9205 -31.6874 2.7934 0.8797
21.8035 -89.2549 8.0384 0.6915
20.2862 -53.8154 5.0317 0.7938
21.7158 -41.5717 4.1034 0.8283
57.9466 -30.5316 5.7303 0.7687
62.2835 -23.7309 5.8312 0.7652
62.3343 -15.4616 5.6188 0.7727
62.3823 -7.6638 5.4988 0.7770
62.4289 -0.0838 5.4618 0.7783
58.2194 14.2750 5.2444 0.7861
37.6310 19.6985 3.7161 0.8432
12.4877 8.6010 1.3266 0.9409
7.6661 8.6379 1.0104 0.9547
32.7975 47.4328 5.0452 0.7933
3.2929 8.6648 0.8110 0.9635
2.1426 8.6698 0.7813 0.9648
-1.0517 8.6915 0.7660 0.9655
-2.1407 8.6982 0.7837 0.9647
-3.2986 8.7053 0.8145 0.9633
-7.7350 8.7326 1.0206 0.9542
-16.7486 8.7880 1.6548 0.9269
-11.9613 -31.6382 2.9592 0.8730
-6.0606 -24.7060 2.2256 0.9029
21.8592 -88.1677 7.9472 0.6944
20.9017 -54.8759 5.1375 0.7900
-23.3775 2.9944 1.2352 0.9099
-28.2867 -31.5435 2.2205 0.8439
-16.2809 -30.5807 1.8156 0.8704
-4.6674 -36.6896 1.9383 0.8623
21.0707 -87.5594 4.7198 0.6972
23.5876 -45.5355 2.6876 0.8143
36.9735 -42.1778 2.9395 0.7988
34.8207 -24.2986 2.2253 0.8436
50.9613 -19.6178 2.8618 0.8035
12.5898 8.6076 0.7993 0.9407
9.8037 8.6089 0.6838 0.9491
7.7190 8.6376 0.6071 0.9547
32.7953 47.0829 3.0071 0.7947
4.5898 8.6568 0.5135 0.9615
3.3269 8.6646 0.4864 0.9635
1.0877 8.6695 0.4579 0.9656
0.0340 8.6790 0.4548 0.9658
-4.5323 8.7129 0.5147 0.9614
-7.6813 8.7322 0.6095 0.9545
-23.0472 8.8267 1.2934 0.9059
-23.2613 2.8983 1.2285 0.9104
-59.5493 -14.4927 3.2119 0.7823
-65.3374 -34.0591 3.8615 0.7444
-6.3034 -25.3194 1.3674 0.9008
21.6814 -88.7551 4.7882 0.6935
20.4552 -54.2637 3.0392 0.7927
23.8405 -45.6389 2.6985 0.8136
28.9285 -42.0784 2.6761 0.8150
37.2321 -42.1794 2.9485 0.7982
67.3862 -8.2785 3.5581 0.7619
67.3322 -0.0904 3.5287 0.7636
67.2788 8.0821 3.5513 0.7623
37.6310 19.6985 2.2260 0.8436
9.7543 8.6251 0.6824 0.9492
7.6661 8.6379 0.6053 0.9548
3.2926 8.6641 0.4857 0.9636
1.0575 8.6698 0.4577 0.9656
0.0042 8.6792 0.4549 0.9658
-3.2986 8.7053 0.4879 0.9634
-6.0184 8.7220 0.5554 0.9584
-21.7356 -31.5504 2.0079 0.8577
-5.9684 -24.3301 1.3129 0.9045
20.7815 -54.5603 3.0598 0.7915
22.4986 -42.7118 2.5300 0.8242
29.1429 -42.0797 2.6825 0.8146
-21.8037 -31.1882 0.6642 0.8588
28.3371 -54.7043 1.0754 0.7816
34.3575 -39.1936 0.9098 0.8118
34.8276 -24.3035 0.7413 0.8437
45.8721 -24.3713 0.9067 0.8124
48.7037 -18.7487 0.9109 0.8116
58.2181 14.0628 1.0454 0.7869
32.8096 12.2714 0.6114 0.8692
37.9442 19.6966 0.7462 0.8428
7.7190 8.6376 0.2022 0.9547
31.8561 45.7346 0.9729 0.8001
4.5793 8.6371 0.1706 0.9616
2.1678 8.6442 0.1556 0.9650
1.0889 8.6783 0.1527 0.9656
0.0340 8.6848 0.1516 0.9659
-1.0213 8.6913 0.1528 0.9656
-2.1071 8.6903 0.1561 0.9649
-3.2567 8.6846 0.1619 0.9636
-5.9741 8.7217 0.1845 0.9586
-7.6813 8.7322 0.2030 0.9545
-57.2026 51.0313 1.3380 0.7359
-16.5719 8.7680 0.3273 0.9277
-23.2871 2.9015 0.4096 0.9104
-57.4277 -13.9764 1.0317 0.7894
-63.8907 -33.3049 1.2576 0.7496
-12.4019 -32.4659 0.6066 0.8702
-5.0075 -40.4732 0.7118 0.8495
28.3083 -54.1918 1.0672 0.7830
29.3756 -42.7287 0.9051 0.8127
32.5228 -28.9139 0.7596 0.8402
35.0862 -24.3051 0.7450 0.8430
48.7920 -18.5904 0.9114 0.8115
9.7543 8.6251 0.2273 0.9492
7.6661 8.6379 0.2016 0.9548
31.7885 45.9735 0.9756 0.7996
4.5414 8.6373 0.1703 0.9617
3.2772 8.6236 0.1610 0.9638
2.1426 8.6698 0.1559 0.9649
0.0042 8.6850 0.1516 0.9659
-1.0517 8.6915 0.1528 0.9656
-2.1384 8.6889 0.1562 0.9648
-3.2909 8.6849 0.1621 0.9635
-4.5495 8.6731 0.1710 0.9616
-6.0184 8.7220 0.1850 0.9585
-7.7350 8.7326 0.2036 0.9544
-9.8503 8.7270 0.2297 0.9487
-57.4389 -14.1884 1.0327 0.7892
-64.5772 -33.9456 1.2735 0.7469
-18.5054 -35.3424 0.6963 0.8525
-7.6574 -31.2156 0.5610 0.8793
28.4661 -54.0406 1.0661 0.7832
-22.8084 8.8252 -0.4269 0.9068
-51.9889 13.1804 -0.9362 0.8069
-57.2205 -13.7179 -1.0271 0.7903
-64.8245 -33.5089 -1.2737 0.7468
-60.1818 -52.6646 -1.3959 0.7262
-13.9695 -19.9822 -0.4256 0.9071
-10.4902 -19.7041 -0.3896 0.9146
-5.2261 -20.6886 -0.3725 0.9182
34.1345 -38.9392 -0.9039 0.8129
32.5216 -29.1134 -0.7619 0.8398
34.8276 -24.3035 -0.7413 0.8437
45.8721 -24.3713 -0.9067 0.8124
47.8029 -18.4020 -0.8941 0.8147
58.3183 14.0870 -1.0473 0.7866
37.9442 19.6966 -0.7462 0.8428
13.3659 9.1383 -0.2826 0.9373
9.8037 8.6089 -0.2277 0.9491
7.7190 8.6376 -0.2022 0.9547
3.2953 8.5823 -0.1605 0.9639
2.1678 8.6442 -0.1556 0.9650
1.0889 8.6783 -0.1527 0.9656
0.0340 8.6848 -0.1516 0.9659
-2.1071 8.6903 -0.1561 0.9649
-5.9741 8.7217 -0.1845 0.9586
-29.4233 26.2489 -0.6882 0.8541
-12.6030 8.7625 -0.2679 0.9404
-23.0472 8.8267 -0.4308 0.9060
-52.7684 13.1851 -0.9494 0.8045
-23.3129 2.9047 -0.4101 0.9103
-57.2335 -13.9291 -1.0282 0.7901
-74.9458 -28.1781 -1.3976 0.7259
-65.3441 -34.0625 -1.2862 0.7447
-62.7805 -43.0816 -1.3290 0.7374
-60.2192 -53.0639 -1.4010 0.7254
-13.9037 -20.0343 -0.4257 0.9070
-10.2614 -19.4349 -0.3836 0.9158
-5.1185 -20.5599 -0.3698 0.9187
22.6869 -92.8711 -1.6687 0.6822
28.3399 -54.2523 -1.0684 0.7828
24.0007 -34.9105 -0.7395 0.8441
34.3318 -38.8938 -0.9055 0.8126
32.5228 -28.9139 -0.7596 0.8402
46.2594 -24.3737 -0.9127 0.8112
58.2194 14.2750 -1.0463 0.7868
12.4877 8.6010 -0.2647 0.9411
9.7543 8.6251 -0.2273 0.9492
7.6661 8.6379 -0.2016 0.9548
25.0001 36.1560 -0.7673 0.8387
4.5295 8.6147 -0.1699 0.9618
3.2609 8.5807 -0.1602 0.9639
1.0586 8.6785 -0.1526 0.9656
0.0042 8.6850 -0.1516 0.9659
-2.1384 8.6889 -0.1562 0.9648
-3.2827 8.6632 -0.1617 0.9636
-9.8503 8.7270 -0.2297 0.9487
-12.6967 8.7631 -0.2693 0.9401
-16.5507 8.6841 -0.3262 0.9280
-89.0114 -0.0334 -1.5537 0.7004
-75.0064 -9.1410 -1.3189 0.7391
-75.0363 -28.5068 -1.4011 0.7253
-59.4790 -31.2656 -1.1729 0.7643
-13.8775 -20.1440 -0.4270 0.9068
-18.5054 -35.3424 -0.6963 0.8525
-7.4005 -19.5746 -0.3653 0.9197
-5.0687 -20.6626 -0.3714 0.9184
-2.6165 -21.7608 -0.3826 0.9161
0.0346 -28.0873 -0.4903 0.8937
23.1210 -33.3846 -0.7088 0.8500
-42.1800 -4.8465 -2.2251 0.8436
-39.8080 -9.5435 -2.1454 0.8488
-44.1538 -16.4279 -2.4690 0.8280
-35.9233 -31.4362 -2.5017 0.8260
-20.9325 -23.3426 -1.6432 0.8820
-13.9188 -19.9097 -1.2731 0.9073
-7.4570 -19.3217 -1.0854 0.9204
-5.1373 -20.3369 -1.0993 0.9194
-2.7305 -21.4634 -1.1339 0.9170
-0.1507 -26.7297 -1.4009 0.8985
5.4898 -47.4192 -2.5017 0.8260
16.6843 -44.7253 -2.5017 0.8260
21.9438 -42.3621 -2.5003 0.8261
25.2712 -37.0305 -2.3495 0.8356
30.7451 -27.5232 -2.1626 0.8477
34.6761 -24.1977 -2.2160 0.8442
39.5910 -21.0343 -2.3495 0.8356
41.8388 -16.1060 -2.3495 0.8356
47.7354 -0.2281 -2.5017 0.8260
44.5299 5.1941 -2.3495 0.8356
43.5784 10.5266 -2.3495 0.8356
27.6105 10.3269 -1.5449 0.8886
27.6751 14.3660 -1.6342 0.8826
13.3659 9.1383 -0.8485 0.9372
9.8037 8.6089 -0.6838 0.9491
3.2870 8.5606 -0.4806 0.9639
1.0889 8.6783 -0.4584 0.9656
0.0340 8.6848 -0.4552 0.9658
-1.0213 8.6913 -0.4586 0.9656
-2.1071 8.6903 -0.4686 0.9648
-3.2405 8.6415 -0.4837 0.9637
-5.9741 8.7217 -0.5540 0.9585
-29.4176 26.2439 -2.0660 0.8539
-12.6030 8.7625 -0.8044 0.9404
-16.3501 8.6507 -0.9694 0.9286
-21.5163 8.2404 -1.2075 0.9118
-28.9113 7.2240 -1.5618 0.8875
-23.3387 2.9079 -1.2326 0.9101
-45.1403 0.1382 -2.3657 0.8346
-42.0389 -4.9767 -2.2185 0.8440
-40.0145 -9.7385 -2.1583 0.8479
-44.3250 -16.6653 -2.4817 0.8272
-42.3300 -22.0657 -2.5017 0.8260
-39.3598 -27.0097 -2.5017 0.8260
-35.8151 -31.5595 -2.5017 0.8260
-13.8458 -19.9509 -1.2727 0.9073
-10.1479 -19.2200 -1.1391 0.9166
-7.3023 -19.1162 -1.0724 0.9213
-2.6731 -21.6053 -1.1409 0.9165
3.0759 -25.7929 -1.3613 0.9012
11.3280 -46.3724 -2.5017 0.8260
16.8379 -44.6677 -2.5017 0.8260
22.0704 -42.2504 -2.4981 0.8262
25.3983 -36.9434 -2.3495 0.8356
29.6684 -33.6111 -2.3495 0.8356
33.7492 -23.3789 -2.1516 0.8484
46.3319 -11.4923 -2.5017 0.8260
47.3797 -5.8207 -2.5017 0.8260
44.5118 5.3471 -2.3495 0.8356
43.5420 10.6762 -2.3495 0.8356
22.6660 8.5664 -1.2699 0.9075
9.7543 8.6251 -0.6824 0.9492
4.5177 8.5921 -0.5087 0.9619
3.2527 8.5590 -0.4799 0.9640
2.1426 8.6698 -0.4680 0.9649
-1.0517 8.6915 -0.4588 0.9655
-9.8503 8.7270 -0.6897 0.9487
-12.6967 8.7631 -0.8085 0.9401
-16.4749 8.6444 -0.9750 0.9282
-21.7433 8.2417 -1.2186 0.9111
-29.3505 7.2267 -1.5841 0.8860
-23.2271 2.8130 -1.2262 0.9105
-42.1925 -5.1419 -2.2276 0.8435
-44.4897 -16.9020 -2.4942 0.8264
-42.2539 -22.2111 -2.5017 0.8260
-39.2668 -27.1448 -2.5017 0.8260
-35.7064 -31.6824 -2.5017 0.8260
-13.6465 -19.8088 -1.2606 0.9081
-10.0940 -19.2781 -1.1404 0.9165
-7.2854 -19.2702 -1.0797 0.9208
-4.9741 -20.2767 -1.0942 0.9198
-2.5840 -21.4910 -1.1344 0.9170
11.4873 -46.3332 -2.5017 0.8260
22.1966 -42.1385 -2.4960 0.8263
-22.6374 2.8996 -1.9967 0.9124
-26.8547 0.1745 -2.3495 0.8978
-23.6329 -16.0983 -2.5017 0.8915
-21.5189 -18.8310 -2.5017 0.8915
-13.7507 -19.6692 -2.0997 0.9081
-10.2357 -19.2260 -1.9056 0.9163
-7.3519 -19.0493 -1.7864 0.9213
-5.0813 -20.1152 -1.8151 0.9201
-2.7029 -21.2467 -1.8738 0.9176
2.9789 -25.7306 -2.2662 0.9012
9.9943 -26.7915 -2.5017 0.8915
16.1186 -23.6190 -2.5017 0.8915
18.8495 -21.5027 -2.5017 0.8915
23.4499 -16.3638 -2.5017 0.8915
26.6859 -10.2729 -2.5017 0.8915
27.7301 -6.9795 -2.5017 0.8915
28.3694 -3.5842 -2.5017 0.8915
28.5946 -0.1367 -2.5017 0.8915
25.1535 9.4079 -2.3495 0.8978
23.8986 12.4056 -2.3558 0.8975
13.3659 9.1383 -1.4165 0.9371
9.8037 8.6089 -1.1415 0.9490
15.6344 22.4457 -2.3932 0.8960
4.5513 8.5843 -0.8501 0.9617
1.0889 8.6783 -0.7652 0.9655
-1.0213 8.6913 -0.7656 0.9655
-2.1071 8.6903 -0.7823 0.9647
-3.2389 8.6372 -0.8070 0.9636
-4.4687 8.5906 -0.8472 0.9619
-7.6813 8.7322 -1.0175 0.9544
-20.3371 18.1429 -2.3844 0.8963
-21.5748 8.2627 -2.0212 0.9114
-26.0806 6.5167 -2.3519 0.8977
-26.8552 0.0822 -2.3495 0.8978
-28.3966 -3.3617 -2.5017 0.8915
-27.7839 -6.7619 -2.5017 0.8915
-25.3566 -13.2179 -2.5017 0.8915
-23.5774 -16.1795 -2.5017 0.8915
-21.4541 -18.9049 -2.5017 0.8915
-17.8605 -20.0551 -2.3495 0.8978
-13.6407 -19.6554 -2.0932 0.9084
-7.3424 -19.2211 -1.8001 0.9207
-5.0121 -20.1326 -1.8151 0.9201
3.0764 -25.7973 -2.2730 0.9009
10.0863 -26.7570 -2.5017 0.8915
13.2396 -25.3453 -2.5017 0.8915
18.9233 -21.4378 -2.5017 0.8915
21.3706 -18.9992 -2.5017 0.8915
23.5059 -16.2832 -2.5017 0.8915
25.2982 -13.3294 -2.5017 0.8915
28.3816 -3.4867 -2.5017 0.8915
26.0827 6.3953 -2.3495 0.8978
23.8590 12.4893 -2.3561 0.8975
9.7543 8.6251 -1.1392 0.9491
15.5585 22.5013 -2.3934 0.8960
4.5126 8.5825 -0.8483 0.9618
2.1426 8.6698 -0.7813 0.9648
1.0586 8.6785 -0.7649 0.9655
0.0042 8.6850 -0.7598 0.9657
-1.0517 8.6915 -0.7660 0.9655
-4.5053 8.5888 -0.8485 0.9618
-7.7350 8.7326 -1.0206 0.9542
-9.8503 8.7270 -1.1514 0.9485
-12.6967 8.7631 -1.3497 0.9399
-16.2221 8.5117 -1.6028 0.9291
-22.5757 2.7341 -1.9895 0.9127
-26.8553 -0.0101 -2.3495 0.8978
-27.7605 -6.8573 -2.5017 0.8915
-26.7309 -10.1553 -2.5017 0.8915
-17.7915 -20.1164 -2.3495 0.8978
6.8811 -27.7546 -2.5017 0.8915
16.2806 -23.5077 -2.5017 0.8915
-17.8461 6.9052 -2.3495 0.9258
-20.3745 0.1324 -2.5017 0.9212
-20.2418 -2.3258 -2.5017 0.9212
-19.8136 -4.7500 -2.5017 0.9212
-18.0998 -9.3561 -2.5017 0.9212
-10.9640 -15.6830 -2.3495 0.9258
-8.9925 -16.8908 -2.3495 0.9258
-6.8898 -17.8520 -2.3495 0.9258
-2.4148 -18.9825 -2.3495 0.9258
-0.1079 -19.1351 -2.3495 0.9258
2.2139 -19.1226 -2.3636 0.9254
4.7671 -19.8095 -2.5017 0.9212
9.3716 -18.0918 -2.5017 0.9212
11.4852 -16.8295 -2.5017 0.9212
13.4310 -15.3215 -2.5017 0.9212
15.1808 -13.5899 -2.5017 0.9212
16.7089 -11.6598 -2.5017 0.9212
17.9932 -9.5596 -2.5017 0.9212
19.7587 -4.9732 -2.5017 0.9212
20.3748 -0.0974 -2.5017 0.9212
7.8834 2.9485 -1.0334 0.9666
16.9836 8.8161 -2.3495 0.9258
13.3659 9.1383 -1.9880 0.9368
7.7190 8.6376 -1.4223 0.9544
11.0255 15.8289 -2.3685 0.9252
3.2632 8.4986 -1.1178 0.9640
1.0889 8.6783 -1.0739 0.9654
0.0340 8.6848 -1.0664 0.9656
-4.4425 8.5402 -1.1820 0.9619
-5.9741 8.7217 -1.2980 0.9583
-7.6813 8.7322 -1.4280 0.9542
-14.3500 12.8019 -2.3612 0.9254
-12.6030 8.7625 -1.8847 0.9400
-18.9886 2.3659 -2.3495 0.9258
-20.3749 0.0624 -2.5017 0.9212
-20.2337 -2.3953 -2.5017 0.9212
-18.0676 -9.4182 -2.5017 0.9212
-16.7998 -11.5285 -2.5017 0.9212
-13.5507 -15.2157 -2.5017 0.9212
-6.8284 -17.8756 -2.3495 0.9258
-4.6228 -18.5687 -2.3495 0.9258
-2.3496 -18.9906 -2.3495 0.9258
-0.0421 -19.1354 -2.3495 0.9258
4.8351 -19.7930 -2.5017 0.9212
9.4338 -18.0595 -2.5017 0.9212
11.5429 -16.7899 -2.5017 0.9212
19.0398 -7.2544 -2.5017 0.9212
19.7757 -4.9052 -2.5017 0.9212
20.2230 -2.4844 -2.5017 0.9212
20.3750 -0.0274 -2.5017 0.9212
20.2295 2.4301 -2.5017 0.9212
18.6354 4.5693 -2.3559 0.9256
7.8758 2.9766 -1.0338 0.9666
12.4877 8.6010 -1.8618 0.9407
10.9717 15.8676 -2.3687 0.9252
2.1426 8.6698 -1.0965 0.9646
1.0586 8.6785 -1.0735 0.9654
0.0042 8.6850 -1.0664 0.9656
-2.1345 8.6731 -1.0967 0.9646
-3.2625 8.6100 -1.1305 0.9636
-4.4787 8.5380 -1.1838 0.9619
-7.7350 8.7326 -1.4324 0.9541
-12.6967 8.7631 -1.8942 0.9397
-16.9435 8.8902 -2.3494 0.9258
-18.9966 2.3007 -2.3495 0.9258
-20.3750 -0.0076 -2.5017 0.9212
-18.0351 -9.4803 -2.5017 0.9212
-16.7601 -11.5861 -2.5017 0.9212
-10.8559 -15.7580 -2.3495 0.9258
-8.8762 -16.9522 -2.3495 0.9258
-6.7670 -17.8990 -2.3495 0.9258
-4.5589 -18.5844 -2.3495 0.9258
-2.2843 -18.9986 -2.3495 0.9258
4.9031 -19.7762 -2.5017 0.9212
7.2524 -19.0406 -2.5017 0.9212
9.4958 -18.0269 -2.5017 0.9212
11.6005 -16.7501 -2.5017 0.9212
-13.8348 5.3531 -2.3495 0.9417
-14.3794 3.6455 -2.3495 0.9417
-15.7950 0.1026 -2.5017 0.9380
-15.3601 -3.6824 -2.5017 0.9380
-14.8039 -5.5080 -2.5017 0.9380
-14.0315 -7.2531 -2.5017 0.9380
-13.0544 -8.8924 -2.5017 0.9380
-10.5454 -11.7595 -2.5017 0.9380
-9.0502 -12.9455 -2.5017 0.9380
-7.4229 -13.9425 -2.5017 0.9380
-3.7548 -14.8640 -2.4282 0.9398
-1.9676 -15.4668 -2.4694 0.9388
3.6956 -15.3569 -2.5017 0.9380
5.5207 -14.7991 -2.5017 0.9380
7.2652 -14.0253 -2.5017 0.9380
8.9036 -13.0467 -2.5017 0.9380
10.4121 -11.8777 -2.5017 0.9380
11.7686 -10.5353 -2.5017 0.9380
12.9533 -9.0391 -2.5017 0.9380
14.7408 -5.6745 -2.5017 0.9380
15.3176 -3.8553 -2.5017 0.9380
15.6707 -1.9799 -2.5017 0.9380
15.7951 -0.0755 -2.5017 0.9380
15.6889 1.8300 -2.5017 0.9380
7.0677 2.6434 -1.1951 0.9699
7.7190 8.6376 -1.8347 0.9542
8.4985 12.2010 -2.3550 0.9416
4.4863 8.4617 -1.5169 0.9620
3.2338 8.4221 -1.4289 0.9641
0.0340 8.6848 -1.3756 0.9654
-3.2015 8.5373 -1.4441 0.9637
-7.6813 8.7322 -1.8420 0.9540
-15.7952 0.0483 -2.5017 0.9380
-15.6858 -1.8570 -2.5017 0.9380
-15.3473 -3.7351 -2.5017 0.9380
-14.7848 -5.5588 -2.5017 0.9380
-13.0237 -8.9372 -2.5017 0.9380
-11.8508 -10.4427 -2.5017 0.9380
-10.5049 -11.7957 -2.5017 0.9380
-5.5739 -14.5913 -2.4739 0.9387
-3.7037 -14.8772 -2.4282 0.9398
-1.9164 -15.4890 -2.4719 0.9387
-0.0348 -15.7953 -2.5017 0.9380
1.8704 -15.6842 -2.5017 0.9380
5.5715 -14.7801 -2.5017 0.9380
7.3133 -14.0002 -2.5017 0.9380
11.8047 -10.4948 -2.5017 0.9380
12.9842 -8.9945 -2.5017 0.9380
13.9742 -7.3629 -2.5017 0.9380
14.7602 -5.6238 -2.5017 0.9380
15.3307 -3.8027 -2.5017 0.9380
15.6774 -1.9260 -2.5017 0.9380
15.7953 -0.0212 -2.5017 0.9380
15.6826 1.8839 -2.5017 0.9380
8.6930 2.1315 -1.4176 0.9644
7.0590 2.6679 -1.1952 0.9699
13.1426 6.8797 -2.3495 0.9417
9.7543 8.6251 -2.0623 0.9486
3.2002 8.4209 -1.4268 0.9642
2.1426 8.6698 -1.4145 0.9645
-3.2342 8.5354 -1.4457 0.9637
-5.6471 8.1839 -1.5748 0.9605
-7.7350 8.7326 -1.8477 0.9539
-12.2088 8.4263 -2.3495 0.9417
-13.1359 6.8924 -2.3495 0.9417
-13.8713 5.2579 -2.3495 0.9417
-14.4042 3.5466 -2.3495 0.9417
-15.6793 -1.9108 -2.5017 0.9380
-15.3344 -3.7879 -2.5017 0.9380
-14.7656 -5.6096 -2.5017 0.9380
-13.9813 -7.3494 -2.5017 0.9380
-12.9929 -8.9819 -2.5017 0.9380
-8.9610 -13.0074 -2.5017 0.9380
-3.6527 -14.8904 -2.4283 0.9398
0.0195 -15.7953 -2.5017 0.9380
1.9243 -15.6777 -2.5017 0.9380
3.8010 -15.3311 -2.5017 0.9380
5.6223 -14.7608 -2.5017 0.9380
8.9931 -12.9852 -2.5017 0.9380
-11.2729 4.3618 -2.3495 0.9519
-12.8700 0.0836 -2.5017 0.9489
-12.0624 -4.4880 -2.5017 0.9489
-10.6369 -7.2457 -2.5017 0.9489
-9.6854 -8.4757 -2.5017 0.9489
-8.5926 -9.5819 -2.5017 0.9489
-7.3743 -10.5482 -2.5017 0.9489
-6.0483 -11.3606 -2.5017 0.9489
-4.6340 -12.0071 -2.5017 0.9489
-3.1521 -12.4783 -2.5017 0.9489
4.4983 -12.0586 -2.5017 0.9489
5.9198 -11.4281 -2.5017 0.9489
9.5892 -8.5843 -2.5017 0.9489
11.3658 -6.0385 -2.5017 0.9489
12.4810 -3.1414 -2.5017 0.9489
6.6283 2.4791 -1.3756 0.9716
9.9781 6.8220 -2.3495 0.9519
9.0825 7.9756 -2.3495 0.9519
3.1850 8.2950 -1.7272 0.9644
0.0340 8.6848 -1.6882 0.9652
-2.1025 8.6712 -1.7344 0.9643
-10.6840 5.6528 -2.3495 0.9519
-12.4864 3.1199 -2.5017 0.9489
-12.8702 0.0394 -2.5017 0.9489
-12.7811 -1.5131 -2.5017 0.9489
-12.5053 -3.0435 -2.5017 0.9489
-9.6563 -8.5089 -2.5017 0.9489
-8.5596 -9.6113 -2.5017 0.9489
-6.0092 -11.3813 -2.5017 0.9489
-4.5927 -12.0229 -2.5017 0.9489
-1.5803 -12.7729 -2.5017 0.9489
1.5240 -12.7797 -2.5017 0.9489
4.5397 -12.0431 -2.5017 0.9489
7.2913 -10.6057 -2.5017 0.9489
10.5798 -7.3289 -2.5017 0.9489
12.0269 -4.5824 -2.5017 0.9489
12.4917 -3.0985 -2.5017 0.9489
12.7743 -1.5693 -2.5017 0.9489
6.6164 2.5006 -1.3749 0.9716
6.4737 3.3887 -1.4203 0.9707
9.9546 6.8563 -2.3495 0.9519
6.8745 9.9421 -2.3495 0.9519
4.4061 8.3798 -1.8403 0.9622
3.1497 8.2879 -1.7234 0.9645
2.1426 8.6698 -1.7359 0.9643
0.0042 8.6850 -1.6882 0.9652
-1.0517 8.6915 -1.7018 0.9650
-3.2080 8.4662 -1.7598 0.9638
-4.3857 8.3608 -1.8352 0.9623
-7.7331 8.7304 -2.2670 0.9536
-9.9480 6.8659 -2.3495 0.9519
-10.7034 5.6161 -2.3495 0.9519
-12.4971 3.0770 -2.5017 0.9489
-12.7769 1.5474 -2.5017 0.9489
-12.0313 -4.5708 -2.5017 0.9489
-9.6270 -8.5420 -2.5017 0.9489
-8.5265 -9.6407 -2.5017 0.9489
-1.5364 -12.7783 -2.5017 0.9489
1.5679 -12.7744 -2.5017 0.9489
5.9982 -11.3871 -2.5017 0.9489
7.3277 -10.5806 -2.5017 0.9489
-10.0822 3.9011 -2.4958 0.9566
-10.7484 1.3767 -2.5017 0.9565
-9.6262 -4.9759 -2.5017 0.9565
-8.9558 -6.1006 -2.5017 0.9565
-7.2345 -8.0675 -2.5017 0.9565
-5.0924 -9.5651 -2.5017 0.9565
-1.3675 -10.7496 -2.5017 0.9565
-0.0611 -10.8360 -2.5017 0.9565
2.5353 -10.5354 -2.5017 0.9565
3.7874 -10.1528 -2.5017 0.9565
7.1431 -8.1486 -2.5017 0.9565
8.8864 -6.2011 -2.5017 0.9565
10.7507 -1.3583 -2.5017 0.9565
8.2450 1.9916 -1.9582 0.9658
6.4717 2.4205 -1.5952 0.9720
7.6471 6.7151 -2.3495 0.9591
6.7814 7.5883 -2.3495 0.9591
5.8167 8.3508 -2.3495 0.9591
4.5847 8.6473 -2.2596 0.9606
3.1118 8.1043 -2.0042 0.9650
2.1678 8.6442 -2.0575 0.9641
1.0889 8.6783 -2.0193 0.9647
0.0340 8.6848 -2.0051 0.9650
-1.0213 8.6913 -2.0204 0.9647
-4.5311 8.7105 -2.2668 0.9605
-5.7511 8.3962 -2.3495 0.9591
-7.5942 6.7749 -2.3495 0.9591
-8.3558 5.8095 -2.3495 0.9591
-10.7611 -1.2739 -2.5017 0.9565
-10.1430 -3.8136 -2.5017 0.9565
-9.6090 -5.0090 -2.5017 0.9565
-8.1301 -7.1641 -2.5017 0.9565
-6.1782 -8.9024 -2.5017 0.9565
-5.0595 -9.5825 -2.5017 0.9565
-3.8669 -10.1228 -2.5017 0.9565
-2.6178 -10.5152 -2.5017 0.9565
-1.3306 -10.7542 -2.5017 0.9565
-0.0239 -10.8362 -2.5017 0.9565
2.5715 -10.5267 -2.5017 0.9565
3.8223 -10.1397 -2.5017 0.9565
5.0172 -9.6047 -2.5017 0.9565
7.1711 -8.1240 -2.5017 0.9565
8.0985 -7.1998 -2.5017 0.9565
9.5869 -5.0512 -2.5017 0.9565
10.7553 -1.3213 -2.5017 0.9565
8.1334 1.9942 -1.9334 0.9662
6.4641 2.4430 -1.5954 0.9720
8.3813 5.7727 -2.3495 0.9591
6.7553 7.6116 -2.3495 0.9591
5.7880 8.3708 -2.3495 0.9591
1.0586 8.6785 -2.0184 0.9647
-1.0517 8.6915 -2.0212 0.9647
-2.1327 8.6657 -2.0603 0.9640
-3.2080 8.4662 -2.0902 0.9635
-4.7275 9.0123 -2.3495 0.9591
-5.7799 8.3764 -2.3495 0.9591
-9.0118 4.7285 -2.3495 0.9591
-10.7576 1.3028 -2.5017 0.9565
-10.8362 -0.0041 -2.5017 0.9565
-10.7566 -1.3109 -2.5017 0.9565
-10.1298 -3.8484 -2.5017 0.9565
-9.5918 -5.0420 -2.5017 0.9565
-8.9137 -6.1620 -2.5017 0.9565
-8.1055 -7.1920 -2.5017 0.9565
-7.1789 -8.1170 -2.5017 0.9565
-5.0265 -9.5999 -2.5017 0.9565
-3.8321 -10.1360 -2.5017 0.9565
-1.2936 -10.7587 -2.5017 0.9565
1.3201 -10.7555 -2.5017 0.9565
5.0502 -9.5874 -2.5017 0.9565
-8.7075 3.3692 -2.5017 0.9621
-9.2609 1.1862 -2.5017 0.9621
-9.3364 0.0607 -2.5017 0.9621
-8.7506 -3.2558 -2.5017 0.9621
-8.2940 -4.2873 -2.5017 0.9621
-7.7164 -5.2563 -2.5017 0.9621
-6.2334 -6.9511 -2.5017 0.9621
-4.3877 -8.2414 -2.5017 0.9621
-3.3617 -8.7104 -2.5017 0.9621
-1.1783 -9.2619 -2.5017 0.9621
3.2633 -8.7477 -2.5017 0.9621
7.6567 -5.3430 -2.5017 0.9621
8.2452 -4.3806 -2.5017 0.9621
9.3365 -0.0446 -2.5017 0.9621
9.2737 1.0817 -2.5017 0.9621
9.0756 2.1922 -2.5017 0.9621
6.4160 2.3997 -1.8355 0.9720
5.8429 6.5382 -2.3495 0.9643
2.1329 8.5052 -2.3495 0.9643
1.0916 8.7004 -2.3495 0.9643
0.0344 8.7685 -2.3495 0.9643
-1.0234 8.7087 -2.3495 0.9643
-2.0662 8.5217 -2.3495 0.9643
-3.0788 8.2103 -2.3495 0.9643
-5.7915 6.5838 -2.3495 0.9643
-6.5432 5.8373 -2.3495 0.9643
-7.1995 5.0056 -2.3495 0.9643
-8.0665 4.2679 -2.4453 0.9629
-8.7190 3.3392 -2.5017 0.9621
-9.0581 2.2633 -2.5017 0.9621
-9.2650 1.1544 -2.5017 0.9621
-9.2719 -1.0976 -2.5017 0.9621
-9.0718 -2.2079 -2.5017 0.9621
-8.7393 -3.2858 -2.5017 0.9621
-8.2792 -4.3158 -2.5017 0.9621
-7.6983 -5.2828 -2.5017 0.9621
-1.1464 -9.2659 -2.5017 0.9621
1.1056 -9.2709 -2.5017 0.9621
2.2156 -9.0699 -2.5017 0.9621
4.3229 -8.2755 -2.5017 0.9621
5.2894 -7.6938 -2.5017 0.9621
7.6750 -5.3166 -2.5017 0.9621
8.7248 -3.3242 -2.5017 0.9621
9.0620 -2.2478 -2.5017 0.9621
9.2699 1.1136 -2.5017 0.9621
6.3396 3.3185 -1.9173 0.9708
6.5689 5.8084 -2.3495 0.9643
4.9870 7.2124 -2.3495 0.9643
4.0808 7.7611 -2.3495 0.9643
3.1150 8.1966 -2.3495 0.9643
2.1037 8.5125 -2.3495 0.9643
1.0617 8.7041 -2.3495 0.9643
-1.0533 8.7051 -2.3495 0.9643
-2.0955 8.5145 -2.3495 0.9643
-3.1070 8.1996 -2.3495 0.9643
-4.0733 7.7651 -2.3495 0.9643
-7.2166 4.9808 -2.3495 0.9643
-8.1204 4.2607 -2.4572 0.9627
-9.2689 1.1225 -2.5017 0.9621
-9.3366 -0.0035 -2.5017 0.9621
-9.2680 -1.1295 -2.5017 0.9621
-9.0642 -2.2390 -2.5017 0.9621
-8.7280 -3.3158 -2.5017 0.9621
-8.2644 -4.3442 -2.5017 0.9621
-7.6801 -5.3092 -2.5017 0.9621
-6.1855 -6.9937 -2.5017 0.9621
-4.3309 -8.2714 -2.5017 0.9621
-1.1146 -9.2698 -2.5017 0.9621
1.1375 -9.2671 -2.5017 0.9621
2.2468 -9.0622 -2.5017 0.9621
