ply
format ascii 1.0
element vertex 891
property float32 x
property float32 y
property float32 z
property float32 I
end_header
-13.2890 24.3320 7.4287 0.8915
-16.5753 23.1856 7.6368 0.8887
-21.6712 23.6662 8.5983 0.8756
-37.9292 -9.9907 10.5097 0.8501
-26.4146 -39.5681 12.7476 0.8212
-17.0018 -33.6484 10.1016 0.8555
-4.3761 -41.3050 11.1296 0.8420
48.3601 19.1324 13.9353 0.8062
2.9006 5.7179 1.7179 0.9738
-10.6211 26.9089 7.7515 0.8871
-16.4636 23.1849 7.6193 0.8889
-21.5957 23.7350 8.5983 0.8756
-38.0061 -9.8817 10.5223 0.8499
-49.1517 -26.5912 14.9740 0.7934
-26.5963 -39.5670 12.7745 0.8208
-17.1360 -33.6476 10.1177 0.8552
-6.3895 -27.3500 7.5257 0.8902
35.4091 32.0636 12.7997 0.8205
34.4564 39.7508 14.0957 0.8042
35.5360 52.6855 17.0281 0.7686
2.9213 5.7136 1.7195 0.9738
-8.8888 34.5257 9.5528 0.8627
-16.3524 23.1842 7.6020 0.8892
-21.5201 23.8036 8.5983 0.8756
-13.2890 24.3320 6.4007 0.8924
-16.5753 23.1856 6.5800 0.8896
-48.9286 53.4328 16.7265 0.7427
-62.4729 53.5458 18.9958 0.7134
-57.5191 -15.1506 13.7323 0.7833
-26.7659 -40.0943 11.1296 0.8204
-15.9586 -31.5839 8.1697 0.8648
-4.4338 -41.8496 9.7158 0.8413
59.6890 -30.2192 15.4457 0.7598
48.3601 19.1324 12.0068 0.8078
36.2885 19.7068 9.5335 0.8441
34.7482 24.7163 9.8447 0.8394
35.3098 32.1787 11.0292 0.8219
35.5383 53.0521 14.7422 0.7694
-9.4004 36.0375 8.5983 0.8582
-10.6211 26.9089 6.6788 0.8880
-16.4636 23.1849 6.5649 0.8898
-48.6151 53.4309 16.6774 0.7434
-52.2289 -28.2559 13.7095 0.7837
-26.8934 -40.0090 11.1296 0.8204
-16.0846 -31.5831 8.1827 0.8646
30.5074 -43.1074 12.1923 0.8051
59.6784 -30.4527 15.4680 0.7595
48.8064 19.1297 12.1024 0.8064
2.9209 5.7129 1.4813 0.9740
-9.2857 36.0672 8.5983 0.8582
-10.5397 26.9535 6.6815 0.8880
-19.6013 2.1871 4.5534 0.9222
-1.2035 8.6924 1.7058 0.9649
-2.2988 8.6992 1.7490 0.9640
-3.4685 8.7063 1.8217 0.9625
-4.7593 8.7143 1.9300 0.9603
-16.5753 23.1856 5.5400 0.8904
-48.9285 53.4328 14.0829 0.7444
-62.4729 53.5457 15.9936 0.7151
-78.6361 8.2680 15.3696 0.7246
-78.6831 -31.2738 16.4583 0.7082
-57.3451 -40.9269 13.6945 0.7505
-22.4472 -33.6251 7.8587 0.8481
-7.7581 -33.6918 6.7204 0.8686
-3.7431 -35.3303 6.9059 0.8652
30.0403 -55.2122 12.2179 0.7740
29.2897 -41.1087 9.8115 0.8141
39.3705 -43.1323 11.3516 0.7882
51.8299 -44.5669 13.2871 0.7569
59.5866 -30.1673 12.9823 0.7617
59.9344 15.6848 12.0424 0.7769
48.3602 19.1325 10.1092 0.8090
34.8644 24.7990 8.3165 0.8400
35.3098 32.1787 9.2861 0.8231
2.8998 5.7164 1.2459 0.9742
3.1503 8.6657 1.7923 0.9631
-2.2691 8.6990 1.7475 0.9640
-4.7232 8.7139 1.9266 0.9604
-78.4451 8.5003 15.3375 0.7250
-60.0574 -32.4912 13.2729 0.7571
-57.3925 -40.6858 13.6748 0.7508
-56.9119 -65.8683 16.9207 0.7014
-17.1360 -33.6476 7.3398 0.8574
-7.8709 -33.6911 6.7252 0.8685
34.3613 -87.4628 18.2660 0.6819
29.7215 -41.9969 10.0009 0.8109
60.1609 -30.6989 13.1286 0.7594
59.8830 15.4680 12.0221 0.7772
48.8065 19.1297 10.1897 0.8077
34.8634 24.6316 8.2975 0.8403
35.4091 32.0636 9.2854 0.8231
35.4636 40.9128 10.5244 0.8020
-2.2395 8.6988 1.7460 0.9641
-16.3524 23.1842 5.5147 0.8908
-24.4043 26.9938 7.0735 0.8622
-61.6686 53.5408 15.8746 0.7169
-1.2035 8.6924 1.3899 0.9651
-2.2988 8.6992 1.4251 0.9642
-4.7593 8.7143 1.5726 0.9606
-77.3885 8.1368 12.3247 0.7297
-82.3565 -11.3356 13.1670 0.7141
-80.0100 -31.8012 13.6366 0.7056
-11.4332 -31.6065 5.3234 0.8727
-7.2838 -31.6319 5.1411 0.8768
30.5535 -77.0493 13.1279 0.7149
29.1139 -40.8618 7.9466 0.8161
59.7546 -30.2523 10.6080 0.7624
60.3851 15.8028 9.8861 0.7766
48.3603 19.1325 8.2372 0.8101
35.3098 32.1787 7.5665 0.8241
3.1503 8.6657 1.4604 0.9633
2.0116 8.6727 1.4101 0.9646
-2.2691 8.6990 1.4239 0.9642
-4.7233 8.7141 1.5699 0.9607
-7.9329 8.7187 1.8670 0.9534
-79.5515 28.9914 13.4104 0.7097
-64.1726 -34.7175 11.5560 0.7442
-7.3897 -31.6313 5.1448 0.8767
22.2314 -41.1714 7.4108 0.8274
38.2151 -42.1349 9.0095 0.7942
49.8546 -43.1449 10.4425 0.7657
62.7862 -42.2763 11.9886 0.7360
60.3838 15.5974 9.8778 0.7768
36.5623 19.7051 6.5784 0.8452
35.4092 32.0636 7.5659 0.8241
7.4884 8.6390 1.8108 0.9548
5.8338 8.6492 1.6524 0.9586
2.9203 5.7116 1.0160 0.9744
2.0406 8.6725 1.4111 0.9646
0.9614 8.6791 1.3830 0.9653
-0.0904 8.6597 1.3716 0.9655
-2.2395 8.6988 1.4227 0.9643
-3.4043 8.7060 1.4806 0.9628
-4.6873 8.7138 1.5671 0.9607
-6.1524 8.7228 1.6906 0.9577
-7.8958 8.7336 1.8648 0.9534
-61.6685 53.5408 12.9349 0.7184
-77.6937 28.5949 13.1125 0.7151
-1.1100 66.0375 8.1095 0.7663
-1.2035 8.6924 1.0775 0.9653
-2.2988 8.6992 1.1048 0.9644
-3.4685 8.7063 1.1507 0.9629
-4.7593 8.7143 1.2192 0.9608
-10.2062 8.7478 1.6505 0.9473
-13.1536 8.7659 1.9408 0.9383
-63.9948 -34.8848 8.9492 0.7455
-27.0559 -31.5159 5.1000 0.8459
-11.4332 -31.6066 4.1269 0.8733
-3.7431 -35.3303 4.3622 0.8666
30.1997 -76.1570 10.0593 0.7188
23.4812 -43.1570 6.0326 0.8204
38.7128 -42.4119 7.0507 0.7934
49.0459 -42.1730 7.9422 0.7705
63.2233 -42.2790 9.3386 0.7360
59.6549 -30.2019 8.2099 0.7638
64.1799 -14.8323 8.0880 0.7668
64.2909 -6.8631 7.9388 0.7706
66.6668 0.9615 8.1865 0.7644
48.3603 19.1325 6.3857 0.8109
9.4663 8.6268 1.5726 0.9497
2.8995 5.7158 0.7869 0.9745
3.1503 8.6657 1.1321 0.9635
0.9335 8.6793 1.0718 0.9654
-1.1753 8.6922 1.0770 0.9653
-2.2691 8.6990 1.1038 0.9644
-3.4364 8.7062 1.1492 0.9630
-4.7233 8.7141 1.2170 0.9608
-6.1943 8.7231 1.3136 0.9578
-10.1402 8.7473 1.6443 0.9475
-13.0625 8.7653 1.9315 0.9386
-64.4166 -34.8494 8.9926 0.7444
-27.2297 -31.5149 5.1139 0.8455
-3.8389 -35.1666 4.3436 0.8671
25.2893 -46.8346 6.5353 0.8069
62.7862 -42.2763 9.2939 0.7371
59.6534 -30.4399 8.2230 0.7635
66.5649 -15.6068 8.3948 0.7592
60.2644 15.5666 7.6424 0.7781
48.8066 19.1298 6.4366 0.8096
2.9202 5.7116 0.7876 0.9745
2.0406 8.6725 1.0939 0.9647
0.9614 8.6791 1.0722 0.9654
-0.0904 8.6597 1.0633 0.9657
-1.1471 8.6921 1.0765 0.9653
-2.2395 8.6988 1.1029 0.9644
-3.4043 8.7060 1.1478 0.9630
-4.6873 8.7138 1.2149 0.9609
-6.1524 8.7228 1.3106 0.9579
-7.8958 8.7336 1.4456 0.9537
-10.0748 8.7469 1.6382 0.9477
-12.9636 8.7589 1.9210 0.9389
-3.4685 8.7063 0.8199 0.9631
-4.7593 8.7143 0.8687 0.9609
-17.4352 8.7922 1.7084 0.9246
-22.4473 -33.6252 3.5371 0.8502
-17.0018 -33.6485 3.2983 0.8595
23.4383 -89.2716 8.0750 0.6903
21.2235 -53.5211 5.0372 0.7936
28.1824 -39.5546 4.2491 0.8228
38.6853 -42.3817 5.0203 0.7942
59.7546 -30.2524 5.8597 0.7642
63.9931 -23.2062 5.9554 0.7608
64.0447 -14.8011 5.7509 0.7680
64.0937 -6.8420 5.6393 0.7720
64.1414 0.9251 5.6122 0.7729
58.9535 8.0189 5.2053 0.7875
36.4707 19.8057 3.6309 0.8465
9.4663 8.6268 1.1205 0.9499
5.7940 8.6494 0.9108 0.9591
3.1503 8.6657 0.8067 0.9637
0.9335 8.6793 0.7637 0.9656
-1.1753 8.6922 0.7674 0.9654
-4.7233 8.7141 0.8672 0.9610
-7.9329 8.7187 1.0313 0.9538
-64.8910 -35.1061 6.4548 0.7436
-32.3324 -37.4206 4.3267 0.8199
-22.6016 -33.6242 3.5446 0.8499
-11.5469 -31.6059 2.9439 0.8736
-7.3978 -31.6662 2.8450 0.8776
-3.4594 -31.6903 2.7890 0.8799
21.7538 -55.3720 5.2049 0.7875
22.7715 -42.1717 4.1931 0.8249
28.0188 -39.5909 4.2434 0.8230
38.2482 -42.1714 4.9810 0.7956
47.4305 -41.0470 5.4878 0.7774
62.7861 -42.2763 6.6223 0.7379
59.6534 -30.4399 5.8592 0.7642
63.9916 -23.4363 5.9622 0.7606
64.0924 -7.0483 5.6412 0.7719
59.0587 7.8419 5.2123 0.7872
59.9331 15.4810 5.4156 0.7799
48.8066 19.1298 4.5863 0.8102
36.7459 19.8040 3.6520 0.8457
9.5266 8.6265 1.1244 0.9497
7.4884 8.6390 1.0002 0.9551
5.8338 8.6492 0.9127 0.9590
3.1815 8.6655 0.8076 0.9636
-0.0904 8.6597 0.7577 0.9658
-2.2395 8.6988 0.7859 0.9646
-7.8958 8.7336 1.0301 0.9538
-10.0748 8.7469 1.1673 0.9478
-17.1593 8.7905 1.6868 0.9255
-21.8200 2.4347 1.9209 0.9156
-2.2945 8.6831 0.4707 0.9647
-7.9612 8.6941 0.6178 0.9539
-10.2062 8.7478 0.7045 0.9476
-17.4352 8.7922 1.0233 0.9248
-24.4862 8.8355 1.3643 0.9010
-27.0860 -31.5509 2.1792 0.8466
-21.0650 -31.5545 1.9883 0.8590
-15.4543 -30.5858 1.7959 0.8717
-3.5886 -33.8715 1.7851 0.8725
22.6350 -86.2122 4.6713 0.6998
22.2588 -56.1319 3.1646 0.7852
63.5603 -42.5043 4.0072 0.7362
53.0237 -19.2283 2.9559 0.7978
67.8411 -15.6784 3.6491 0.7566
69.0873 -7.3751 3.6413 0.7571
69.0322 0.9956 3.6182 0.7584
32.4255 8.4857 1.7566 0.8744
48.3603 19.1325 2.7256 0.8120
36.2886 19.7068 2.1641 0.8476
7.4406 8.6393 0.5975 0.9554
5.7940 8.6494 0.5456 0.9592
2.8995 5.7157 0.3359 0.9747
3.1490 8.6620 0.4830 0.9638
0.9327 8.6715 0.4571 0.9657
-0.8862 65.0362 3.4087 0.7706
-1.1739 8.6823 0.4592 0.9655
-2.2648 8.6825 0.4703 0.9647
-3.4364 8.7062 0.4905 0.9632
-6.1943 8.7231 0.5607 0.9581
-10.1402 8.7473 0.7018 0.9478
-13.0625 8.7653 0.8244 0.9389
-17.2963 8.7913 1.0168 0.9252
-24.2402 8.8340 1.3521 0.9018
-21.2098 -31.5537 1.9925 0.8587
-15.5763 -30.5850 1.7988 0.8716
-11.5468 -31.6058 1.7635 0.8739
-7.8005 -33.3898 1.7970 0.8717
22.0598 -56.1507 3.1617 0.7853
38.2612 -42.1858 2.9847 0.7960
59.6534 -30.4399 3.5098 0.7647
52.9338 -19.3865 2.9543 0.7979
12.1867 8.6101 0.7820 0.9420
9.5266 8.6265 0.6735 0.9498
7.4884 8.6390 0.5992 0.9552
2.9202 5.7115 0.3362 0.9746
3.1803 8.6624 0.4836 0.9637
2.0367 8.6558 0.4660 0.9650
0.9606 8.6712 0.4572 0.9657
-1.1458 8.6824 0.4590 0.9655
-3.4043 8.7060 0.4899 0.9632
-7.8958 8.7336 0.6170 0.9539
-10.0748 8.7469 0.6992 0.9480
-12.9723 8.7647 0.8205 0.9392
-21.7650 2.4285 1.1477 0.9160
-1.2006 8.6714 0.1528 0.9656
-2.2909 8.6696 0.1565 0.9648
-3.4521 8.6652 0.1628 0.9634
-4.7593 8.7143 0.1733 0.9611
-6.2363 8.7234 0.1872 0.9580
-17.4181 8.7836 0.3405 0.9249
-55.7726 -14.6905 1.0067 0.7940
-63.5200 -34.6261 1.2628 0.7487
-17.6507 -34.9326 0.6832 0.8551
-11.4332 -31.6065 0.5867 0.8742
24.4050 -92.9535 1.6767 0.6808
34.6837 -87.4648 1.6423 0.6863
30.1199 -42.2738 0.9060 0.8125
35.7824 -39.2015 0.9265 0.8087
34.2188 -29.4236 0.7877 0.8348
36.3571 -24.3129 0.7634 0.8395
50.6660 -18.3733 0.9407 0.8060
90.1087 -20.8246 1.6143 0.6907
54.5106 7.4146 0.9602 0.8025
49.7194 19.6702 0.9333 0.8074
36.2887 19.7068 0.7208 0.8477
12.1055 8.6106 0.2593 0.9423
7.4317 8.6289 0.1988 0.9555
2.8995 5.7157 0.1119 0.9747
3.1503 8.6657 0.1609 0.9638
0.9335 8.6793 0.1524 0.9657
-2.2618 8.6709 0.1564 0.9648
-3.4201 8.6650 0.1626 0.9634
-7.9329 8.7187 0.2058 0.9539
-10.1402 8.7473 0.2338 0.9478
-13.0430 8.7523 0.2742 0.9391
-24.2373 8.8330 0.4503 0.9019
-21.8558 2.3683 0.3837 0.9158
-55.7625 -14.4983 1.0057 0.7941
-63.0729 -34.1226 1.2517 0.7506
-32.3265 -37.4138 0.8631 0.8205
-20.9677 -31.1934 0.6561 0.8604
-17.7900 -34.9318 0.6843 0.8549
34.3613 -87.4628 1.6403 0.6866
30.2368 -55.9970 1.1108 0.7752
30.1182 -42.5573 0.9100 0.8117
34.2156 -29.6107 0.7898 0.8344
47.7838 -24.3831 0.9364 0.8069
50.5813 -18.5249 0.9402 0.8061
32.8418 8.4832 0.5921 0.8731
51.3186 20.1143 0.9621 0.8021
9.5266 8.6265 0.2243 0.9499
7.4817 8.6313 0.1994 0.9553
5.8210 8.6302 0.1817 0.9592
2.0406 8.6725 0.1555 0.9650
-1.1443 8.6710 0.1527 0.9656
-3.3882 8.6647 0.1624 0.9635
-10.0748 8.7469 0.2329 0.9480
-23.9755 8.8241 0.4459 0.9028
-21.7104 2.4224 0.3813 0.9163
-1.0881 64.7373 -1.1301 0.7718
-1.1977 8.6510 -0.1524 0.9657
-3.4346 8.6213 -0.1620 0.9636
-6.2363 8.7234 -0.1872 0.9580
-7.9612 8.6941 -0.2058 0.9539
-24.4862 8.8355 -0.4544 0.9011
-80.0064 18.3559 -1.4328 0.7201
-58.5561 -53.5344 -1.3849 0.7280
-13.8814 -20.7939 -0.4364 0.9048
-4.6202 -20.0645 -0.3594 0.9209
34.6480 -87.3746 -1.6407 0.6866
29.3580 -41.2045 -0.8831 0.8168
34.2259 -29.4298 -0.7879 0.8348
48.1663 -24.3854 -0.9423 0.8057
36.2886 19.7068 -0.7208 0.8477
12.1055 8.6106 -0.2593 0.9423
9.4663 8.6268 -0.2236 0.9501
7.4317 8.6289 -0.1988 0.9555
5.7652 8.6063 -0.1808 0.9594
2.8994 5.7156 -0.1119 0.9747
2.0116 8.6727 -0.1554 0.9650
0.9335 8.6793 -0.1524 0.9657
-3.4028 8.6212 -0.1618 0.9636
-6.1943 8.7231 -0.1867 0.9581
-17.1894 8.7370 -0.3366 0.9258
-87.1772 20.2933 -1.5624 0.6990
-73.1514 -9.8316 -1.2883 0.7443
-55.5275 -14.4372 -1.0015 0.7949
-73.2791 -28.8563 -1.3747 0.7297
-7.1140 -19.4724 -0.3619 0.9204
34.3258 -87.3726 -1.6386 0.6869
29.0513 -53.8015 -1.0673 0.7830
29.3497 -41.4714 -0.8868 0.8161
50.8872 19.9452 -0.9540 0.8036
12.1867 8.6101 -0.2605 0.9421
9.5266 8.6265 -0.2243 0.9499
2.9202 5.7114 -0.1120 0.9747
2.0406 8.6725 -0.1555 0.9650
0.9614 8.6791 -0.1524 0.9657
-2.2274 8.6517 -0.1559 0.9649
-4.6873 8.7138 -0.1727 0.9612
-21.6562 2.4164 -0.3804 0.9165
-73.3089 -9.6154 -1.2906 0.7439
-0.7974 47.4401 -2.4866 0.8269
-2.2801 8.6283 -0.4677 0.9649
-6.2363 8.7234 -0.5620 0.9580
-13.0713 8.7110 -0.8232 0.9390
-22.4989 8.1184 -1.2535 0.9086
-34.0381 7.8094 -1.8302 0.8695
-45.2040 -0.7239 -2.3693 0.8344
-40.7846 -5.6136 -2.1576 0.8480
-43.3487 -11.4181 -2.3493 0.8356
-41.9090 -22.8455 -2.5015 0.8260
-35.2279 -32.2068 -2.5015 0.8260
-22.2118 -25.8732 -1.7871 0.8723
-4.5563 -19.7869 -1.0641 0.9219
0.3380 -22.2109 -1.1642 0.9149
6.4708 -47.2907 -2.5015 0.8260
30.2209 -33.1085 -2.3493 0.8356
33.9896 -29.2265 -2.3493 0.8356
36.1988 -24.2070 -2.2822 0.8399
42.1419 -15.2821 -2.3493 0.8356
47.4617 -5.0666 -2.5015 0.8260
44.4182 6.0418 -2.3493 0.8356
32.4255 8.4857 -1.7566 0.8744
21.6612 8.5697 -1.2208 0.9109
7.4317 8.6289 -0.5968 0.9554
5.7487 8.5818 -0.5413 0.9595
2.8994 5.7156 -0.3359 0.9747
3.1503 8.6657 -0.4832 0.9637
-0.6465 47.4424 -2.4866 0.8269
-1.1687 8.6438 -0.4571 0.9657
-2.2511 8.6297 -0.4674 0.9649
-4.7233 8.7141 -0.5195 0.9611
-6.1943 8.7231 -0.5607 0.9581
-7.9329 8.7187 -0.6178 0.9539
-10.1402 8.7473 -0.7018 0.9478
-12.9875 8.7150 -0.8197 0.9393
-17.1818 8.7331 -1.0101 0.9257
-34.0283 7.9211 -1.8310 0.8694
-21.7461 2.3564 -1.1463 0.9161
-45.2063 -0.5801 -2.3694 0.8344
-38.6168 -10.0405 -2.0911 0.8523
-41.9815 -22.7120 -2.5015 0.8260
-38.9395 -27.6044 -2.5015 0.8260
-13.8223 -20.5633 -1.2985 0.9055
-9.9944 -19.6246 -1.1542 0.9156
-6.9644 -19.0629 -1.0636 0.9219
-2.2842 -20.9243 -1.1031 0.9191
17.4535 -44.4259 -2.5015 0.8260
25.8957 -36.5909 -2.3493 0.8356
30.1155 -33.2045 -2.3493 0.8356
31.8179 -27.5357 -2.2052 0.8449
35.9485 -24.2055 -2.2713 0.8406
42.0930 -15.4161 -2.3493 0.8356
46.4712 -10.8956 -2.5015 0.8260
47.7283 0.5364 -2.5015 0.8260
44.4372 5.9005 -2.3493 0.8356
21.8625 8.5690 -1.2306 0.9102
9.5266 8.6265 -0.6735 0.9498
7.4817 8.6313 -0.5986 0.9553
0.9614 8.6791 -0.4576 0.9656
-0.0904 8.6597 -0.4539 0.9659
-1.1409 8.6451 -0.4570 0.9657
-2.2221 8.6311 -0.4671 0.9649
-3.3541 8.5776 -0.4827 0.9638
-4.6873 8.7138 -0.5186 0.9611
-7.8958 8.7336 -0.6170 0.9539
-10.0748 8.7469 -0.6992 0.9480
-12.9044 8.7189 -0.8162 0.9395
-17.0586 8.7389 -1.0045 0.9261
-22.4979 8.2803 -1.2564 0.9084
-34.0198 8.0334 -1.8319 0.8693
-21.6021 2.4104 -1.1391 0.9166
-45.2081 -0.4363 -2.3694 0.8344
-2.2746 8.6078 -0.7789 0.9649
-4.7593 8.7143 -0.8687 0.9609
-7.9611 8.6940 -1.0314 0.9538
-12.9572 8.6350 -1.3623 0.9394
-22.0489 7.9561 -2.0508 0.9102
-26.8491 -0.4299 -2.3493 0.8978
-27.6491 -7.2828 -2.5015 0.8915
-25.1045 -13.6850 -2.5015 0.8915
-21.1023 -19.2926 -2.5015 0.8915
-17.4911 -20.3745 -2.3493 0.8978
-13.5948 -20.3645 -2.1422 0.9064
-6.9240 -19.1412 -1.7808 0.9215
-4.5830 -19.9031 -1.7869 0.9213
7.2608 -27.6549 -2.5015 0.8915
13.6650 -25.1154 -2.5015 0.8915
19.2758 -21.1176 -2.5015 0.8915
23.7675 -15.8939 -2.5015 0.8915
25.5093 -12.9147 -2.5015 0.8915
27.8579 -6.4381 -2.5015 0.8915
25.9777 6.7984 -2.3493 0.8978
9.4663 8.6268 -1.1205 0.9499
7.4317 8.6289 -0.9963 0.9553
5.7321 8.5570 -0.9011 0.9595
2.8994 5.7155 -0.5607 0.9746
3.1503 8.6657 -0.8067 0.9637
2.0116 8.6727 -0.7789 0.9649
0.9335 8.6793 -0.7637 0.9656
-1.1687 8.6438 -0.7631 0.9656
-2.2457 8.6092 -0.7784 0.9649
-4.7233 8.7141 -0.8672 0.9610
-6.1943 8.7231 -0.9360 0.9580
-7.9329 8.7187 -1.0313 0.9538
-10.1402 8.7473 -1.1716 0.9476
-22.0362 8.0308 -2.0520 0.9101
-26.1948 6.0977 -2.3530 0.8976
-19.6530 2.1296 -1.7295 0.9237
-26.8503 -0.3445 -2.3493 0.8978
-27.6722 -7.1948 -2.5015 0.8915
-23.3256 -16.5357 -2.5015 0.8915
-17.5559 -20.3187 -2.3493 0.8978
-13.7379 -20.4378 -2.1545 0.9059
-7.1552 -19.5852 -1.8243 0.9197
-4.7568 -20.3613 -1.8293 0.9195
-2.2512 -20.6218 -1.8149 0.9201
7.1728 -27.6779 -2.5015 0.8915
10.4550 -26.6121 -2.5015 0.8915
13.5850 -25.1587 -2.5015 0.8915
16.5171 -23.3388 -2.5015 0.8915
19.2086 -21.1788 -2.5015 0.8915
23.7169 -15.9695 -2.5015 0.8915
25.4681 -12.9958 -2.5015 0.8915
27.8373 -6.5267 -2.5015 0.8915
25.9992 6.7157 -2.3493 0.8978
16.2102 8.7364 -1.6111 0.9287
12.1867 8.6101 -1.3055 0.9418
9.5266 8.6265 -1.1244 0.9497
7.4817 8.6313 -0.9993 0.9552
2.9201 5.7113 -0.5612 0.9746
2.0406 8.6725 -0.7795 0.9649
0.9614 8.6791 -0.7640 0.9655
-2.2168 8.6106 -0.7779 0.9649
-6.1524 8.7228 -0.9339 0.9580
-7.8958 8.7336 -1.0301 0.9538
-10.0748 8.7469 -1.1673 0.9478
-12.7958 8.6456 -1.3511 0.9399
-16.8680 8.6413 -1.6581 0.9267
-22.0234 8.1056 -2.0532 0.9101
-19.5377 2.1800 -1.7199 0.9241
-26.8513 -0.2591 -2.3493 0.8978
-0.3260 19.3948 -2.3817 0.9248
-1.1951 8.6317 -1.0699 0.9655
-6.2363 8.7234 -1.3167 0.9577
-7.9612 8.6940 -1.4474 0.9536
-10.2062 8.7478 -1.6505 0.9473
-18.6489 4.2786 -2.3493 0.9258
-19.0286 2.0007 -2.3493 0.9258
-20.1828 -2.7780 -2.5015 0.9212
-19.7011 -5.1893 -2.5015 0.9212
-15.0362 -13.7467 -2.5015 0.9212
-13.2705 -15.4581 -2.5015 0.9212
-10.6233 -15.9133 -2.3493 0.9258
-8.6288 -17.0773 -2.3493 0.9258
-6.5085 -17.9925 -2.3493 0.9258
-4.2935 -18.6455 -2.3493 0.9258
0.2911 -19.1312 -2.3493 0.9258
7.5099 -18.9384 -2.5015 0.9212
16.9353 -11.3250 -2.5015 0.9212
18.1763 -9.2022 -2.5015 0.9212
19.1526 -6.9454 -2.5015 0.9212
20.3709 0.2938 -2.5015 0.9212
20.1871 2.7459 -2.5015 0.9212
18.5101 4.8441 -2.3493 0.9258
16.1757 8.7843 -2.2601 0.9285
12.1055 8.6106 -1.8240 0.9419
9.4663 8.6268 -1.5726 0.9497
7.4038 8.5966 -1.3930 0.9553
5.6872 8.4899 -1.2547 0.9597
3.1503 8.6657 -1.1321 0.9635
2.0116 8.6727 -1.0931 0.9648
0.9335 8.6793 -1.0718 0.9654
-1.1673 8.6331 -1.0697 0.9655
-2.2372 8.5766 -1.0883 0.9649
-3.3603 8.5134 -1.1238 0.9638
-4.7233 8.7141 -1.2170 0.9608
-10.1402 8.7473 -1.6443 0.9475
-12.8355 8.6130 -1.8979 0.9396
-17.0628 8.6726 -2.3501 0.9258
-17.9769 6.5514 -2.3493 0.9258
-18.6352 4.3379 -2.3493 0.9258
-19.0221 2.0612 -2.3493 0.9258
-20.3714 -0.2614 -2.5015 0.9212
-17.9188 -9.6941 -2.5015 0.9212
-15.0799 -13.6988 -2.5015 0.9212
-13.3197 -15.4158 -2.5015 0.9212
-10.6773 -15.8844 -2.3500 0.9258
-8.6831 -17.0497 -2.3493 0.9258
-6.5657 -17.9717 -2.3493 0.9258
-2.0764 -19.0204 -2.3493 0.9258
2.5335 -18.9650 -2.3493 0.9258
5.1109 -19.7215 -2.5015 0.9212
7.4496 -18.9622 -2.5015 0.9212
9.6798 -17.9265 -2.5015 0.9212
11.7690 -16.6298 -2.5015 0.9212
13.6868 -15.0907 -2.5015 0.9212
15.4052 -13.3319 -2.5015 0.9212
16.8992 -11.3788 -2.5015 0.9212
18.1470 -9.2600 -2.5015 0.9212
19.1304 -7.0063 -2.5015 0.9212
19.8351 -4.6505 -2.5015 0.9212
20.2509 -2.2270 -2.5015 0.9212
20.3717 0.2290 -2.5015 0.9212
18.5254 4.7852 -2.3493 0.9258
17.8140 6.9822 -2.3493 0.9258
16.2102 8.7364 -2.2610 0.9285
9.5266 8.6265 -1.5780 0.9495
5.7272 8.4911 -1.2576 0.9596
2.9201 5.7112 -0.7876 0.9745
3.1815 8.6655 -1.1334 0.9635
2.0406 8.6725 -1.0939 0.9647
0.9614 8.6791 -1.0722 0.9654
-0.0904 8.6597 -1.0633 0.9657
-2.2085 8.5781 -1.0876 0.9649
-6.1524 8.7228 -1.3106 0.9579
-7.8958 8.7336 -1.4456 0.9537
-12.7666 8.6258 -1.8918 0.9398
-17.0363 8.7275 -2.3503 0.9258
-17.9559 6.6086 -2.3493 0.9258
-20.3721 -0.1966 -2.5015 0.9212
-1.1852 8.5601 -1.3687 0.9656
-2.2468 8.5026 -1.3929 0.9650
-3.3532 8.4170 -1.4350 0.9640
-7.9612 8.6941 -1.8671 0.9534
-15.7072 1.6515 -2.5015 0.9380
-15.7918 -0.2529 -2.5015 0.9380
-15.6463 -2.1536 -2.5015 0.9380
-15.2729 -4.0229 -2.5015 0.9380
-14.6770 -5.8336 -2.5015 0.9380
-13.8672 -7.5593 -2.5015 0.9380
-11.6565 -10.6569 -2.5015 0.9380
-8.7691 -13.1357 -2.5015 0.9380
-7.1227 -14.0965 -2.5015 0.9380
-5.2916 -14.6285 -2.4638 0.9389
-3.3753 -14.6583 -2.3824 0.9409
0.2392 -15.7155 -2.4894 0.9383
2.1411 -15.6480 -2.5015 0.9380
4.0107 -15.2760 -2.5015 0.9380
5.8219 -14.6816 -2.5015 0.9380
7.5483 -13.8733 -2.5015 0.9380
11.9754 -10.2972 -2.5015 0.9380
14.0908 -7.1338 -2.5015 0.9380
15.7921 0.2278 -2.5015 0.9380
15.6497 2.1287 -2.5015 0.9380
9.4663 8.6268 -2.0285 0.9495
7.4038 8.5966 -1.7969 0.9551
2.8993 5.7154 -1.0150 0.9744
3.1503 8.6657 -1.4604 0.9633
2.0116 8.6727 -1.4101 0.9646
0.9335 8.6793 -1.3826 0.9653
-0.2035 14.9309 -2.3650 0.9413
-2.2183 8.5042 -1.3920 0.9650
-4.7233 8.7141 -1.5699 0.9607
-7.9329 8.7187 -1.8670 0.9534
-10.1402 8.7473 -2.1211 0.9472
-13.2228 6.7208 -2.3493 0.9417
-14.4466 3.3629 -2.3493 0.9417
-15.7019 1.7015 -2.5015 0.9380
-15.7925 -0.2026 -2.5015 0.9380
-15.6531 -2.1038 -2.5015 0.9380
-13.8912 -7.5152 -2.5015 0.9380
-12.8846 -9.1340 -2.5015 0.9380
-11.6904 -10.6197 -2.5015 0.9380
-10.3258 -11.9508 -2.5015 0.9380
-7.1675 -14.0738 -2.5015 0.9380
-5.3463 -14.6338 -2.4676 0.9389
0.1888 -15.6902 -2.4853 0.9384
3.9621 -15.2887 -2.5015 0.9380
5.7752 -14.7000 -2.5015 0.9380
7.5041 -13.8972 -2.5015 0.9380
9.1237 -12.8919 -2.5015 0.9380
11.9426 -10.3353 -2.5015 0.9380
13.1008 -8.8212 -2.5015 0.9380
15.3768 -3.6052 -2.5015 0.9380
15.6992 -1.7265 -2.5015 0.9380
15.6564 2.0789 -2.5015 0.9380
8.4194 2.1748 -1.3773 0.9654
6.6234 2.5961 -1.1267 0.9716
12.1143 8.5590 -2.3493 0.9417
9.5266 8.6265 -2.0355 0.9493
7.4608 8.6072 -1.8041 0.9549
5.6686 8.4043 -1.6056 0.9598
2.9200 5.7112 -1.0159 0.9744
2.0406 8.6725 -1.4111 0.9646
0.9614 8.6791 -1.3830 0.9653
-2.1898 8.5058 -1.3911 0.9651
-4.6873 8.7138 -1.5671 0.9607
-6.1524 8.7228 -1.6906 0.9577
-10.0748 8.7469 -2.1132 0.9474
-12.2905 8.3041 -2.3493 0.9417
-13.2014 6.7629 -2.3493 0.9417
-13.9200 5.1232 -2.3493 0.9417
-15.7931 -0.1524 -2.5015 0.9380
-1.1790 8.5156 -1.6710 0.9656
-3.2883 8.2540 -1.7270 0.9644
-6.2363 8.7234 -2.0844 0.9572
-9.1766 7.8653 -2.3493 0.9519
-10.0573 6.7025 -2.3493 0.9519
-11.3686 4.1022 -2.3493 0.9519
-12.5331 2.8755 -2.4995 0.9490
-12.7985 1.3457 -2.5015 0.9489
-12.8674 -0.2060 -2.5015 0.9489
-11.9590 -4.7533 -2.5015 0.9489
-10.4749 -7.4759 -2.5015 0.9489
-9.4979 -8.6834 -2.5015 0.9489
-8.3826 -9.7645 -2.5015 0.9489
-7.1452 -10.7032 -2.5015 0.9489
-2.8877 -12.5409 -2.5015 0.9489
-1.3558 -12.7974 -2.5015 0.9489
1.7446 -12.7503 -2.5015 0.9489
3.2680 -12.4472 -2.5015 0.9489
8.6759 -9.5048 -2.5015 0.9489
12.7516 1.7345 -2.5015 0.9489
5.9444 3.2282 -1.3149 0.9728
9.8487 7.0054 -2.3493 0.9519
5.5716 8.3174 -1.9460 0.9600
2.8988 5.7145 -1.2455 0.9742
3.1503 8.6657 -1.7923 0.9631
0.9335 8.6793 -1.6968 0.9651
-3.2609 8.2617 -1.7265 0.9645
-4.7233 8.7141 -1.9267 0.9604
-6.1943 8.7231 -2.0796 0.9573
-9.1515 7.8945 -2.3493 0.9519
-10.0360 6.7344 -2.3493 0.9519
-10.7742 5.4763 -2.3493 0.9519
-11.3555 4.1384 -2.3493 0.9519
-12.7942 1.3864 -2.5015 0.9489
-12.8680 -0.1651 -2.5015 0.9489
-12.7544 -1.7142 -2.5015 0.9489
-12.4550 -3.2383 -2.5015 0.9489
-11.9741 -4.7152 -2.5015 0.9489
-11.3188 -6.1235 -2.5015 0.9489
-9.5255 -8.6532 -2.5015 0.9489
-7.1792 -10.6804 -2.5015 0.9489
-2.9276 -12.5316 -2.5015 0.9489
-1.3965 -12.7931 -2.5015 0.9489
0.1549 -12.8681 -2.5015 0.9489
3.2284 -12.4575 -2.5015 0.9489
4.7057 -11.9779 -2.5015 0.9489
7.4342 -10.5046 -2.5015 0.9489
9.7310 -8.4214 -2.5015 0.9489
10.6747 -7.1877 -2.5015 0.9489
12.7919 -1.4067 -2.5015 0.9489
12.8682 0.1446 -2.5015 0.9489
12.7571 1.6939 -2.5015 0.9489
7.9985 2.0661 -1.6058 0.9669
6.1663 2.4169 -1.2874 0.9734
7.4608 8.6072 -2.2141 0.9546
5.6106 8.3183 -1.9503 0.9599
2.9071 5.6859 -1.2413 0.9743
0.9614 8.6791 -1.6974 0.9650
-0.0904 8.6597 -1.6834 0.9653
-2.1713 8.4339 -1.6928 0.9651
-6.1524 8.7228 -2.0749 0.9574
-8.1053 8.9653 -2.3493 0.9519
-9.1264 7.9235 -2.3493 0.9519
-10.0145 6.7663 -2.3493 0.9519
-11.3422 4.1745 -2.3493 0.9519
-12.7897 1.4271 -2.5015 0.9489
-12.8685 -0.1242 -2.5015 0.9489
-3.7661 9.4533 -2.3493 0.9591
-4.8776 8.9308 -2.3493 0.9591
-5.9180 8.2781 -2.3493 0.9591
-6.8722 7.5048 -2.3493 0.9591
-7.7263 6.6222 -2.3493 0.9591
-8.4678 5.6432 -2.3493 0.9591
-9.0860 4.5819 -2.3493 0.9591
-10.5608 2.4230 -2.5015 0.9565
-10.7340 -1.4774 -2.5015 0.9565
-9.5135 -5.1860 -2.5015 0.9565
-8.8194 -6.2943 -2.5015 0.9565
-7.9968 -7.3110 -2.5015 0.9565
-6.0159 -9.0116 -2.5015 0.9565
-4.8864 -9.6708 -2.5015 0.9565
-3.6857 -10.1890 -2.5015 0.9565
-1.1416 -10.7748 -2.5015 0.9565
1.4689 -10.7351 -2.5015 0.9565
2.7515 -10.4800 -2.5015 0.9565
6.2873 -8.8244 -2.5015 0.9565
7.3047 -8.0026 -2.5015 0.9565
10.1861 -3.6938 -2.5015 0.9565
10.5569 -2.4397 -2.5015 0.9565
10.7363 1.4604 -2.5015 0.9565
7.6527 2.0027 -1.8263 0.9680
5.8170 2.3013 -1.4442 0.9746
5.6299 3.0574 -1.4791 0.9740
8.2922 5.8982 -2.3493 0.9591
5.6633 8.4543 -2.3493 0.9591
2.8993 5.7153 -1.4795 0.9740
3.1503 8.6657 -2.1287 0.9629
2.0116 8.6727 -2.0554 0.9641
0.9335 8.6793 -2.0153 0.9648
-0.1387 10.1750 -2.3493 0.9591
-2.1809 8.3605 -1.9948 0.9652
-4.8491 8.9462 -2.3493 0.9591
-5.8916 8.2969 -2.3493 0.9591
-6.8483 7.5267 -2.3493 0.9591
-7.7052 6.6468 -2.3493 0.9591
-9.0714 4.6108 -2.3493 0.9591
-10.1495 3.6988 -2.4939 0.9566
-10.5530 2.4565 -2.5015 0.9565
-10.8343 -0.1390 -2.5015 0.9565
-10.7386 -1.4433 -2.5015 0.9565
-9.5299 -5.1557 -2.5015 0.9565
-8.8394 -6.2663 -2.5015 0.9565
-8.0200 -7.2856 -2.5015 0.9565
-7.0839 -8.1987 -2.5015 0.9565
-6.0446 -8.9924 -2.5015 0.9565
-4.9172 -9.6552 -2.5015 0.9565
-3.7181 -10.1772 -2.5015 0.9565
-1.1758 -10.7712 -2.5015 0.9565
0.1304 -10.8344 -2.5015 0.9565
1.4347 -10.7397 -2.5015 0.9565
2.7182 -10.4887 -2.5015 0.9565
3.9620 -10.0848 -2.5015 0.9565
6.2592 -8.8443 -2.5015 0.9565
9.6512 -4.9248 -2.5015 0.9565
10.1743 -3.7262 -2.5015 0.9565
10.5491 -2.4733 -2.5015 0.9565
10.7702 -1.1844 -2.5015 0.9565
7.7365 1.9984 -1.8447 0.9677
8.3109 5.8718 -2.3493 0.9591
5.6902 8.4363 -2.3493 0.9591
-2.1529 8.3622 -1.9935 0.9652
-3.1714 8.1102 -2.0104 0.9649
-4.8206 8.9616 -2.3493 0.9591
-5.8652 8.3156 -2.3493 0.9591
-7.6840 6.6712 -2.3493 0.9591
-8.4317 5.6969 -2.3493 0.9591
-9.0567 4.6396 -2.3493 0.9591
-10.7683 1.2015 -2.5015 0.9565
-10.8347 -0.1045 -2.5015 0.9565
-10.7431 -1.4091 -2.5015 0.9565
-0.1474 8.7664 -2.3493 0.9643
-1.2024 8.6848 -2.3493 0.9643
-3.2449 8.1451 -2.3493 0.9643
-4.2026 7.6948 -2.3493 0.9643
-6.6570 5.7058 -2.3493 0.9643
-7.2960 4.8622 -2.3493 0.9643
-8.0480 4.0585 -2.4151 0.9634
-8.7815 3.1687 -2.5015 0.9621
-9.0993 2.0876 -2.5015 0.9621
-9.2845 0.9762 -2.5015 0.9621
-9.3345 -0.1495 -2.5015 0.9621
-9.2485 -1.2730 -2.5015 0.9621
-9.0278 -2.3779 -2.5015 0.9621
-8.6755 -3.4482 -2.5015 0.9621
-8.1969 -4.4683 -2.5015 0.9621
-6.8902 -6.2993 -2.5015 0.9621
-3.1757 -8.7790 -2.5015 0.9621
-2.0949 -9.0976 -2.5015 0.9621
3.4413 -8.6783 -2.5015 0.9621
5.4173 -7.6032 -2.5015 0.9621
6.2938 -6.8952 -2.5015 0.9621
7.7604 -5.1896 -2.5015 0.9621
8.3291 -4.2168 -2.5015 0.9621
8.7764 -3.1826 -2.5015 0.9621
9.0959 -2.1021 -2.5015 0.9621
9.2505 1.2583 -2.5015 0.9621
7.6318 1.9972 -2.1138 0.9679
5.7660 2.2812 -1.6615 0.9746
5.6119 3.0476 -1.7111 0.9739
7.1446 5.0820 -2.3493 0.9643
4.8796 7.2844 -2.3493 0.9643
1.9810 8.5409 -2.3493 0.9643
-0.1195 8.7669 -2.3493 0.9643
-1.1748 8.6886 -2.3493 0.9643
-2.2130 8.4838 -2.3493 0.9643
-3.2190 8.1554 -2.3493 0.9643
-5.0763 7.1487 -2.3493 0.9643
-5.9005 6.4850 -2.3493 0.9643
-8.0019 4.0672 -2.4052 0.9635
-9.2814 1.0057 -2.5015 0.9621
-9.2525 -1.2435 -2.5015 0.9621
-9.0353 -2.3492 -2.5015 0.9621
-8.6865 -3.4206 -2.5015 0.9621
-8.2111 -4.4422 -2.5015 0.9621
-7.6161 -5.3991 -2.5015 0.9621
-6.9102 -6.2773 -2.5015 0.9621
-6.1036 -7.0641 -2.5015 0.9621
-1.0131 -9.2806 -2.5015 0.9621
0.1124 -9.3350 -2.5015 0.9621
3.4137 -8.6892 -2.5015 0.9621
5.3930 -7.6204 -2.5015 0.9621
7.0593 -6.1092 -2.5015 0.9621
9.2798 -1.0205 -2.5015 0.9621
9.2545 1.2288 -2.5015 0.9621
7.7645 2.0056 -2.1488 0.9673
6.4991 5.8851 -2.3493 0.9643
2.8835 5.6399 -1.6973 0.9741
2.0082 8.5346 -2.3493 0.9643
-5.0535 7.1648 -2.3493 0.9643
-6.6206 5.7480 -2.3493 0.9643
-7.9545 4.0750 -2.3948 0.9637
-8.7612 3.2245 -2.5015 0.9621
-9.0858 2.1455 -2.5015 0.9621
