ply
format ascii 1.0
element vertex 1558
property float32 x
property float32 y
property float32 z
property float32 I
end_header
-14.0597 8.7001 -0.8665 0.9359
-45.0535 -2.2313 -2.3640 0.8347
-43.0301 -7.3956 -2.2882 0.8396
-41.1254 -24.2273 -2.5015 0.8260
-37.9085 -29.0037 -2.5015 0.8260
-34.1398 -33.3579 -2.5015 0.8260
-17.7111 -22.0701 -1.4830 0.8928
-8.9446 -19.2580 -1.1128 0.9185
-3.9782 -20.3161 -1.0849 0.9204
-1.1784 -16.1908 -0.8508 0.9370
13.6267 -45.7448 -2.5015 0.8260
19.0365 -43.7708 -2.5015 0.8260
23.3827 -39.8201 -2.4201 0.8311
27.1887 -35.6404 -2.3493 0.8356
31.2829 -32.1068 -2.3493 0.8356
33.4686 -26.9362 -2.2515 0.8419
36.5661 -22.7701 -2.2575 0.8415
40.6291 -18.9405 -2.3493 0.8356
40.4107 -13.1904 -2.2278 0.8434
47.6004 -3.5318 -2.5015 0.8260
44.2006 7.4682 -2.3493 0.8356
28.0057 8.2994 -1.5308 0.8896
11.3267 8.6154 -0.7458 0.9446
6.9500 8.6106 -0.5799 0.9566
5.3631 8.5854 -0.5305 0.9603
3.9947 8.5376 -0.4940 0.9629
2.8427 8.6675 -0.4781 0.9641
1.7241 8.6744 -0.4635 0.9652
0.6564 8.6810 -0.4563 0.9657
-3.7092 8.5948 -0.4906 0.9632
-6.6176 8.7257 -0.5739 0.9571
-13.8960 8.7078 -0.8594 0.9364
-18.5115 8.6934 -1.0718 0.9213
-45.1394 3.4775 -2.3727 0.8342
-43.0719 -7.1524 -2.2882 0.8396
-43.0153 -12.6154 -2.3493 0.8356
-38.0718 -28.7891 -2.5015 0.8260
-34.3276 -33.1645 -2.5015 0.8260
-18.3377 -22.5883 -1.5248 0.8900
-9.0840 -19.2724 -1.1166 0.9182
1.1734 -27.6426 -1.4500 0.8951
7.7525 -47.0974 -2.5015 0.8260
13.3680 -45.8210 -2.5015 0.8260
23.3739 -40.3254 -2.4427 0.8297
25.1023 -33.2940 -2.1852 0.8462
33.4667 -27.2475 -2.2617 0.8413
40.5214 -19.1697 -2.3493 0.8356
47.5797 -3.8007 -2.5015 0.8260
29.3461 12.5173 -1.6720 0.8800
15.5126 8.9624 -0.9389 0.9308
2.8970 8.6672 -0.4789 0.9641
1.7750 8.6741 -0.4640 0.9652
0.7058 8.6807 -0.4564 0.9657
-0.3442 8.6871 -0.4556 0.9658
-2.4936 8.6377 -0.4712 0.9646
-6.5399 8.7252 -0.5715 0.9573
-8.3692 8.7365 -0.6340 0.9527
-13.7351 8.7153 -0.8525 0.9369
-23.1687 7.7803 -1.2809 0.9067
-34.9675 7.2070 -1.8711 0.8667
-45.1252 3.7330 -2.3730 0.8341
-45.1011 -1.7231 -2.3654 0.8346
-42.6996 -6.8430 -2.2663 0.8410
-43.0859 -12.3723 -2.3493 0.8356
-43.9568 -18.6029 -2.5015 0.8260
-41.3966 -23.7611 -2.5015 0.8260
-38.2338 -28.5735 -2.5015 0.8260
-34.5145 -32.9700 -2.5015 0.8260
-18.7242 -22.7999 -1.5462 0.8885
-12.6178 -19.8233 -1.2315 0.9102
-9.2477 -19.3358 -1.1233 0.9177
-6.4193 -19.0268 -1.0524 0.9227
-4.2306 -20.3806 -1.0909 0.9200
1.0146 -27.5799 -1.4464 0.8953
18.5408 -43.9831 -2.5015 0.8260
30.9182 -32.4582 -2.3493 0.8356
33.4648 -27.5618 -2.2721 0.8406
26.2777 -16.7783 -1.6339 0.8826
40.4125 -19.3983 -2.3493 0.8356
40.5538 -13.7460 -2.2441 0.8424
47.5574 -4.0695 -2.5015 0.8260
47.7014 1.6874 -2.5015 0.8260
44.2822 6.9683 -2.3493 0.8356
29.8048 12.5145 -1.6941 0.8786
15.5122 8.8457 -0.9358 0.9310
9.0847 8.6292 -0.6567 0.9511
7.1146 8.6135 -0.5855 0.9562
5.4982 8.5844 -0.5343 0.9600
4.1156 8.5431 -0.4970 0.9627
1.8260 8.6738 -0.4645 0.9651
0.7551 8.6804 -0.4566 0.9657
-0.2002 5.8938 -0.3091 0.9767
-1.3519 8.6707 -0.4599 0.9655
-10.5630 8.7499 -0.7188 0.9465
-18.0390 8.7217 -1.0501 0.9229
-23.1678 7.9260 -1.2833 0.9066
-42.4750 -6.5611 -2.2524 0.8419
-44.0309 -18.3416 -2.4998 0.8261
-34.7002 -32.7745 -2.5015 0.8260
-18.9372 -22.7954 -1.5531 0.8881
-6.5576 -19.0801 -1.0574 0.9224
-4.3152 -20.2138 -1.0832 0.9205
18.2920 -44.0871 -2.5015 0.8260
23.3559 -41.3645 -2.4895 0.8267
33.4628 -27.8790 -2.2826 0.8399
37.4562 -24.2148 -2.3375 0.8364
40.3023 -19.6263 -2.3493 0.8356
42.3725 -14.6299 -2.3493 0.8356
47.5337 -4.3380 -2.5015 0.8260
30.5652 8.4972 -1.6626 0.8807
20.8163 8.6023 -1.1804 0.9137
15.5389 8.7449 -0.9345 0.9311
9.1874 8.6286 -0.6605 0.9508
7.2195 8.6407 -0.5901 0.9559
4.1766 8.5459 -0.4985 0.9626
2.9933 8.6298 -0.4787 0.9641
1.8772 8.6735 -0.4651 0.9651
-1.3021 8.6730 -0.4596 0.9655
-4.8728 8.6872 -0.5220 0.9609
-6.3865 8.7243 -0.5666 0.9576
-10.4414 8.7492 -0.7139 0.9469
-13.4206 8.7301 -0.8391 0.9379
-17.8099 8.7353 -1.0396 0.9236
-34.5889 7.5373 -1.8553 0.8678
-43.2230 -11.8845 -2.3493 0.8356
-41.6625 -23.2918 -2.5015 0.8260
-38.5542 -28.1397 -2.5015 0.8260
-34.8848 -32.5779 -2.5015 0.8260
-19.4115 -23.0999 -1.5813 0.8862
-4.4297 -20.1907 -1.0833 0.9205
-2.0359 -21.3104 -1.1219 0.9178
0.6608 -25.9355 -1.3597 0.9013
18.0425 -44.1898 -2.5015 0.8260
24.2244 -33.2886 -2.1576 0.8480
30.5495 -32.8054 -2.3493 0.8356
30.6271 -25.8110 -2.0991 0.8518
36.9918 -24.2119 -2.3170 0.8377
40.1907 -19.8538 -2.3493 0.8356
46.6079 -10.2944 -2.5015 0.8260
47.7174 1.1484 -2.5015 0.8260
44.3581 6.4675 -2.3493 0.8356
31.2330 8.4931 -1.6963 0.8784
21.0814 8.5727 -1.1927 0.9129
15.7163 8.7282 -0.9421 0.9305
11.8697 8.6121 -0.7686 0.9430
9.2914 8.6279 -0.6645 0.9505
4.2380 8.5487 -0.5000 0.9625
9.0210 25.5413 -1.4196 0.8972
-0.1334 5.8876 -0.3086 0.9767
-3.4854 8.6057 -0.4866 0.9635
-6.3108 8.7238 -0.5643 0.9578
-8.0881 8.7347 -0.6239 0.9534
-10.3215 8.7485 -0.7091 0.9472
-13.2672 8.7373 -0.8325 0.9384
-17.5852 8.7487 -1.0294 0.9243
-23.1660 8.2189 -1.2882 0.9062
-34.7389 3.4674 -1.8296 0.8695
-45.1573 -0.9592 -2.3671 0.8345
-43.2894 -11.6403 -2.3493 0.8356
-44.0653 -17.7743 -2.4902 0.8267
-38.7126 -27.9215 -2.5015 0.8260
-19.6842 -23.1574 -1.5928 0.8854
-13.2405 -20.0433 -1.2589 0.9083
-9.7847 -19.5983 -1.1480 0.9160
-2.1631 -21.3656 -1.1254 0.9176
0.4964 -25.0415 -1.3126 0.9045
3.6443 -25.7584 -1.3634 0.9010
26.1713 -36.3941 -2.3493 0.8356
30.3637 -32.9775 -2.3493 0.8356
33.4589 -28.5224 -2.3042 0.8385
36.5354 -24.2091 -2.2969 0.8390
40.0779 -20.0805 -2.3493 0.8356
42.2046 -15.1077 -2.3493 0.8356
47.4816 -4.8748 -2.5015 0.8260
9.3965 8.6273 -0.6685 0.9502
7.3860 8.6396 -0.5957 0.9555
5.7050 8.5833 -0.5401 0.9596
4.2997 8.5515 -0.5016 0.9624
1.9799 8.6729 -0.4662 0.9650
0.9035 8.6795 -0.4573 0.9657
-2.2831 8.6366 -0.4682 0.9649
-10.2033 8.7477 -0.7044 0.9476
-13.1160 8.7444 -0.8261 0.9388
-34.5870 7.9474 -1.8599 0.8675
-41.5470 -5.6987 -2.1978 0.8454
-41.9229 -22.8197 -2.5015 0.8260
-38.8697 -27.7023 -2.5015 0.8260
-35.2506 -32.1818 -2.5015 0.8260
-13.4712 -20.1443 -1.2700 0.9075
-4.6350 -20.0420 -1.0781 0.9209
-2.2624 -21.1534 -1.1149 0.9183
0.3512 -24.7715 -1.2983 0.9055
12.0685 -46.1803 -2.5015 0.8260
22.7604 -41.9552 -2.5015 0.8260
25.9652 -36.5414 -2.3493 0.8356
36.0867 -24.2064 -2.2773 0.8403
46.4886 -10.8204 -2.5015 0.8260
47.4534 -5.1430 -2.5015 0.8260
44.4283 5.9660 -2.3493 0.8356
32.6538 8.4843 -1.7681 0.8736
21.7749 8.5693 -1.2264 0.9105
29.4892 15.9439 -1.7569 0.8743
12.1539 8.6103 -0.7806 0.9421
7.4705 8.6391 -0.5986 0.9553
5.7774 8.5867 -0.5424 0.9594
4.3619 8.5544 -0.5032 0.9623
9.3454 25.5371 -1.4251 0.8968
2.0315 8.6725 -0.4668 0.9650
0.9531 8.6792 -0.4576 0.9656
-0.0986 8.6856 -0.4552 0.9658
-4.6241 8.5816 -0.5109 0.9617
-7.9057 8.7336 -0.6174 0.9539
-17.1406 8.7705 -1.0091 0.9258
-34.5861 8.1531 -1.8623 0.8673
-20.2617 2.2539 -1.0684 0.9216
-41.2049 -5.4147 -2.1780 0.8467
-43.5254 -16.9874 -2.4486 0.8293
-42.0512 -22.5825 -2.5015 0.8260
-35.4319 -31.9821 -2.5015 0.8260
-2.6467 8.6174 -0.7887 0.9645
-5.2186 8.7171 -0.8889 0.9600
-11.0665 8.7530 -1.2344 0.9449
-23.1714 7.3467 -2.1267 0.9070
-22.7139 1.4919 -1.9915 0.9127
-28.1511 -5.0022 -2.5015 0.8915
-26.1385 -11.5882 -2.5015 0.8915
-24.5527 -14.6517 -2.5015 0.8915
-12.0055 -19.5865 -2.0099 0.9119
-8.7767 -19.1793 -1.8453 0.9188
1.4419 -26.8137 -2.3493 0.8978
4.9603 -28.1462 -2.5004 0.8916
8.3174 -27.3556 -2.5015 0.8915
11.5512 -26.1549 -2.5015 0.8915
14.6170 -24.5734 -2.5015 0.8915
17.4699 -22.6343 -2.5015 0.8915
22.3752 -17.8006 -2.5015 0.8915
24.3560 -14.9764 -2.5015 0.8915
28.0822 -5.3756 -2.5015 0.8915
28.5252 -1.9546 -2.5015 0.8915
28.5530 1.4949 -2.5015 0.8915
26.4515 4.6231 -2.3493 0.8978
11.1960 8.6162 -1.2360 0.9449
8.7836 8.6310 -1.0774 0.9518
6.8928 8.6391 -0.9669 0.9566
2.7887 8.6679 -0.7966 0.9641
1.6732 8.6747 -0.7729 0.9651
-1.5016 8.6636 -0.7693 0.9653
-5.1517 8.7167 -0.8858 0.9602
-18.4279 8.5274 -1.7765 0.9217
-23.1705 7.4907 -2.1305 0.9069
-26.3581 5.1228 -2.3492 0.8978
-22.4237 1.6001 -1.9668 0.9137
-26.8196 -1.3283 -2.3493 0.8978
-27.3906 -8.2014 -2.5015 0.8915
-26.2036 -11.4403 -2.5015 0.8915
-20.4300 -19.9621 -2.4990 0.8916
-16.8064 -20.9427 -2.3493 0.8978
-8.9162 -19.1969 -1.8518 0.9185
-6.1942 -19.0680 -1.7540 0.9227
1.2903 -26.8214 -2.3493 0.8978
4.5110 -26.4708 -2.3493 0.8978
14.4779 -24.6556 -2.5015 0.8915
22.2742 -17.9267 -2.5015 0.8915
24.2710 -15.1138 -2.5015 0.8915
25.9145 -12.0808 -2.5015 0.8915
27.1808 -8.8721 -2.5015 0.8915
28.0514 -5.5341 -2.5015 0.8915
28.5137 -2.1157 -2.5015 0.8915
26.9596 4.5552 -2.3921 0.8960
24.6395 10.6747 -2.3493 0.8978
8.8828 8.6304 -1.0835 0.9515
5.3514 8.5667 -0.8837 0.9603
3.9842 8.5151 -0.8225 0.9630
2.8427 8.6675 -0.7981 0.9640
1.7241 8.6744 -0.7738 0.9651
-1.4516 8.6660 -0.7687 0.9653
-6.6176 8.7257 -0.9581 0.9570
-13.7542 8.6189 -1.4201 0.9369
-18.1918 8.5433 -1.7583 0.9225
-23.1696 7.6353 -2.1343 0.9067
-22.1407 1.7057 -1.9428 0.9147
-28.2059 -4.6838 -2.5015 0.8915
-27.4365 -8.0465 -2.5015 0.8915
-26.2678 -11.2921 -2.5015 0.8915
-24.7167 -14.3733 -2.5015 0.8915
-22.8059 -17.2453 -2.5015 0.8915
-20.5631 -19.8663 -2.5015 0.8915
-16.9245 -20.8475 -2.3493 0.8978
-12.3385 -19.6285 -2.0284 0.9111
-9.0568 -19.2146 -1.8584 0.9182
-6.3732 -19.2482 -1.7739 0.9218
-1.2665 -16.1414 -1.4165 0.9371
4.3614 -26.4959 -2.3493 0.8978
14.3384 -24.7370 -2.5015 0.8915
17.2131 -22.8302 -2.5015 0.8915
19.8372 -20.5911 -2.5015 0.8915
25.8458 -12.2271 -2.5015 0.8915
27.1302 -9.0255 -2.5015 0.8915
28.5013 -2.2767 -2.5015 0.8915
25.7884 7.4841 -2.3493 0.8978
24.6994 10.5353 -2.3493 0.8978
15.5090 8.9603 -1.5670 0.9306
8.9831 8.6298 -1.0898 0.9512
17.2637 21.1431 -2.3881 0.8962
4.0443 8.5178 -0.8249 0.9628
1.7750 8.6741 -0.7746 0.9651
-3.6438 8.5762 -0.8152 0.9633
-5.0192 8.7159 -0.8799 0.9604
-8.3692 8.7365 -1.0585 0.9526
-10.6863 8.7507 -1.2084 0.9461
-23.1687 7.7803 -2.1382 0.9065
-21.8645 1.8087 -1.9194 0.9157
-26.8329 -1.0251 -2.3493 0.8978
-26.3312 -11.1436 -2.5015 0.8915
-24.7975 -14.2334 -2.5015 0.8915
-9.1983 -19.2325 -1.8652 0.9180
-6.4274 -19.0507 -1.7590 0.9224
-4.2174 -20.3174 -1.8154 0.9201
-1.7831 -21.1901 -1.8604 0.9182
0.9612 -26.1267 -2.2873 0.9003
4.0942 -25.7804 -2.2838 0.9005
11.1064 -26.3469 -2.5015 0.8915
17.0838 -22.9271 -2.5015 0.8915
19.7206 -20.7029 -2.5015 0.8915
22.0703 -18.1772 -2.5015 0.8915
24.0987 -15.3871 -2.5015 0.8915
27.0788 -9.1786 -2.5015 0.8915
27.9871 -5.8507 -2.5015 0.8915
28.4880 -2.4377 -2.5015 0.8915
25.8303 7.3383 -2.3493 0.8978
11.5941 8.6138 -1.2637 0.9437
7.1146 8.6135 -0.9774 0.9561
4.1047 8.5205 -0.8274 0.9627
1.8260 8.6738 -0.7755 0.9650
0.7551 8.6804 -0.7623 0.9656
-0.2001 5.8926 -0.5158 0.9766
-2.4357 8.6198 -0.7837 0.9647
-8.2745 8.7359 -1.0527 0.9528
-10.5630 8.7499 -1.2000 0.9464
-26.2821 5.5718 -2.3505 0.8977
-26.8382 -0.8735 -2.3493 0.8978
-24.8775 -14.0932 -2.5015 0.8915
-22.9993 -16.9866 -2.5015 0.8915
-17.1589 -20.6549 -2.3493 0.8978
-6.5972 -19.1954 -1.7758 0.9217
-4.3409 -20.3343 -1.8191 0.9199
0.7967 -25.5905 -2.2400 0.9023
7.6971 -27.5366 -2.5015 0.8915
10.9573 -26.4092 -2.5015 0.8915
14.0580 -24.8974 -2.5015 0.8915
16.9541 -23.0232 -2.5015 0.8915
27.0265 -9.3314 -2.5015 0.8915
27.9536 -6.0087 -2.5015 0.8915
28.4738 -2.5986 -2.5015 0.8915
24.8169 10.2556 -2.3493 0.8978
9.1874 8.6286 -1.1027 0.9507
5.5618 8.5766 -0.8943 0.9598
2.9933 8.6298 -0.7991 0.9640
0.8045 8.6801 -0.7627 0.9656
-1.3021 8.6730 -0.7673 0.9654
-2.3839 8.6222 -0.7826 0.9647
-3.5322 8.5817 -0.8119 0.9634
-6.3865 8.7243 -0.9459 0.9575
-10.4414 8.7492 -1.1918 0.9468
-13.3038 8.6541 -1.3885 0.9383
-17.6016 8.6332 -1.7152 0.9243
-22.7179 7.9157 -2.1048 0.9079
-26.2549 5.7213 -2.3509 0.8977
-26.8427 -0.7219 -2.3493 0.8978
-26.4554 -10.8453 -2.5015 0.8915
-23.0949 -16.8563 -2.5015 0.8915
-20.8968 -19.5149 -2.5015 0.8915
-17.2753 -20.5577 -2.3493 0.8978
-12.8498 -19.6930 -2.0572 0.9099
-9.4846 -19.2686 -1.8789 0.9174
-2.0128 -21.0683 -1.8516 0.9185
0.6389 -25.0760 -2.1946 0.9042
3.7864 -25.7144 -2.2740 0.9009
7.5414 -27.5796 -2.5015 0.8915
13.9171 -24.9764 -2.5015 0.8915
16.8237 -23.1187 -2.5015 0.8915
19.4854 -20.9243 -2.5015 0.8915
23.9233 -15.6583 -2.5015 0.8915
26.9733 -9.4841 -2.5015 0.8915
27.9192 -6.1666 -2.5015 0.8915
28.4586 -2.7595 -2.5015 0.8915
28.5838 0.6879 -2.5015 0.8915
28.2858 4.1241 -2.5008 0.8916
25.9115 7.0460 -2.3493 0.8978
15.7181 8.7292 -1.5730 0.9304
11.8697 8.6121 -1.2830 0.9428
4.2267 8.5259 -0.8326 0.9625
9.1586 25.9308 -2.4060 0.8955
1.9285 8.6732 -0.7773 0.9650
0.8540 8.6798 -0.7630 0.9656
-0.1333 5.8864 -0.5151 0.9766
-1.2524 8.6753 -0.7669 0.9654
-2.3322 8.6246 -0.7817 0.9648
-3.4768 8.5845 -0.8103 0.9635
-12.2097 22.0586 -2.2058 0.9037
-13.1767 8.6777 -1.3803 0.9386
-17.4204 8.6668 -1.7023 0.9248
-26.2270 5.8706 -2.3513 0.8977
-21.3132 2.1273 -1.8739 0.9176
-26.8464 -0.5702 -2.3493 0.8978
-25.0352 -13.8112 -2.5015 0.8915
-17.3912 -20.4597 -2.3493 0.8978
-13.0345 -19.7315 -2.0689 0.9094
-9.6293 -19.2868 -1.8860 0.9171
-4.5579 -20.2288 -1.8142 0.9201
0.4873 -24.5820 -2.1511 0.9060
3.6449 -25.7627 -2.2764 0.9008
7.3855 -27.6218 -2.5015 0.8915
10.6582 -26.5313 -2.5015 0.8915
13.7758 -25.0547 -2.5015 0.8915
16.6929 -23.2133 -2.5015 0.8915
21.7590 -18.5487 -2.5015 0.8915
25.5630 -12.8080 -2.5015 0.8915
26.9194 -9.6362 -2.5015 0.8915
28.4426 -2.9201 -2.5015 0.8915
28.3158 3.9652 -2.5015 0.8915
25.9509 6.8995 -2.3493 0.8978
24.9312 9.9745 -2.3493 0.8978
15.9271 8.7279 -1.5890 0.9297
12.0107 8.6112 -1.2930 0.9424
9.3965 8.6273 -1.1160 0.9501
7.3860 8.6396 -0.9944 0.9554
5.7050 8.5833 -0.9017 0.9595
9.3042 25.8764 -2.4058 0.8955
0.9035 8.6795 -0.7635 0.9656
-0.1477 8.6859 -0.7600 0.9657
-3.4215 8.5872 -0.8087 0.9636
-6.2357 8.7233 -0.9381 0.9579
-7.9964 8.7342 -1.0360 0.9536
-22.6721 8.1882 -2.1090 0.9077
-26.1981 6.0198 -2.3518 0.8977
-26.8492 -0.4185 -2.3493 0.8978
-26.5763 -10.5457 -2.5015 0.8915
-17.5065 -20.3612 -2.3493 0.8978
-13.2788 -19.8566 -2.0899 0.9085
-4.6427 -20.0754 -1.8027 0.9206
0.3417 -24.1075 -2.1093 0.9077
3.6113 -26.6085 -2.3493 0.8978
7.2293 -27.6631 -2.5015 0.8915
23.7449 -15.9277 -2.5015 0.8915
25.4902 -12.9522 -2.5015 0.8915
27.8477 -6.4817 -2.5015 0.8915
28.4256 -3.0808 -2.5015 0.8915
25.9895 6.7528 -2.3493 0.8978
7.4705 8.6391 -0.9992 0.9552
4.3502 8.5315 -0.8378 0.9623
9.4494 25.8212 -2.4056 0.8955
2.0315 8.6725 -0.7793 0.9649
0.9531 8.6792 -0.7639 0.9655
-2.2292 8.6295 -0.7798 0.9648
-3.3665 8.5899 -0.8072 0.9636
-4.5996 8.5360 -0.8483 0.9618
-7.9057 8.7336 -1.0306 0.9538
-12.9267 8.7241 -1.3644 0.9393
-16.2041 8.2913 -1.5925 0.9295
-24.0124 8.8259 -2.2382 0.9024
-26.1684 6.1688 -2.3522 0.8977
-26.8511 -0.2668 -2.3493 0.8978
-28.3484 -3.7253 -2.5015 0.8915
-27.6935 -7.1121 -2.5015 0.8915
-26.6354 -10.3955 -2.5015 0.8915
-23.3772 -16.4625 -2.5015 0.8915
-21.2245 -19.1580 -2.5015 0.8915
-1.5494 8.6489 -1.0789 0.9652
-3.7933 8.5236 -1.1455 0.9631
-6.7750 8.7267 -1.3565 0.9565
-11.0665 8.7530 -1.7325 0.9447
-13.9634 8.5318 -2.0092 0.9362
-18.2386 5.7827 -2.3493 0.9258
-18.8023 3.5442 -2.3493 0.9258
-20.0588 -3.5643 -2.5015 0.9212
-19.4835 -5.9540 -2.5015 0.9212
-18.6247 -8.2570 -2.5015 0.9212
-17.4948 -10.4399 -2.5015 0.9212
-12.6499 -15.9471 -2.4993 0.9212
-7.9617 -17.3983 -2.3493 0.9258
-5.8085 -18.2304 -2.3493 0.9258
-3.5707 -18.7973 -2.3493 0.9258
3.4175 -19.3919 -2.4177 0.9237
8.2307 -18.6364 -2.5015 0.9212
12.4480 -16.1278 -2.5015 0.9212
15.9432 -12.6836 -2.5015 0.9212
17.3546 -10.6713 -2.5015 0.9212
20.3451 1.0652 -2.5015 0.9212
20.0688 3.5076 -2.5015 0.9212
7.9234 3.4860 -1.0629 0.9657
5.2504 8.5117 -1.2279 0.9605
-0.4426 8.6878 -1.0681 0.9656
-1.4995 8.6515 -1.0781 0.9652
-3.7372 8.5269 -1.1431 0.9632
-6.6959 8.7262 -1.3505 0.9566
-17.3644 8.0353 -2.3493 0.9258
-18.2057 5.8856 -2.3493 0.9258
-18.7820 3.6503 -2.3493 0.9258
-19.4242 1.3861 -2.3911 0.9245
-18.6711 -8.1517 -2.5015 0.9212
-16.1804 -12.3796 -2.5015 0.9212
-8.0598 -17.3530 -2.3493 0.9258
-5.9113 -18.1973 -2.3493 0.9258
-3.6768 -18.7768 -2.3493 0.9258
0.9194 -19.1113 -2.3493 0.9258
3.2612 -19.1367 -2.3836 0.9247
5.8162 -19.5251 -2.5015 0.9212
8.1253 -18.6826 -2.5015 0.9212
12.3567 -16.1978 -2.5015 0.9212
18.4651 -8.6081 -2.5015 0.9212
19.9877 -3.9433 -2.5015 0.9212
20.3171 -1.5075 -2.5015 0.9212
20.3508 0.9502 -2.5015 0.9212
8.2441 2.4431 -1.0558 0.9659
15.5097 9.0780 -2.2066 0.9301
5.3184 8.5139 -1.2326 0.9604
3.9623 8.4683 -1.1480 0.9630
2.8427 8.6675 -1.1200 0.9639
1.7241 8.6744 -1.0859 0.9650
0.6564 8.6810 -1.0689 0.9655
-1.4496 8.6541 -1.0774 0.9653
-5.0852 8.7163 -1.2390 0.9601
-6.6176 8.7257 -1.3446 0.9568
-13.6947 8.5816 -1.9844 0.9369
-20.0978 -3.3374 -2.5015 0.9212
-19.5496 -5.7335 -2.5015 0.9212
-18.7168 -8.0460 -2.5015 0.9212
-17.6116 -10.2416 -2.5015 0.9212
-16.2501 -12.2880 -2.5015 0.9212
-12.8406 -15.8170 -2.5015 0.9212
-10.1826 -16.1988 -2.3493 0.9258
-3.7829 -18.7557 -2.3493 0.9258
-1.2577 -16.0298 -1.9743 0.9373
3.1129 -18.9114 -2.3533 0.9257
5.7058 -19.5577 -2.5015 0.9212
12.2650 -16.2674 -2.5015 0.9212
18.4161 -8.7122 -2.5015 0.9212
20.3083 -1.6223 -2.5015 0.9212
20.1071 3.2806 -2.5015 0.9212
11.4594 8.6146 -1.7603 0.9439
12.1818 14.9192 -2.3649 0.9253
5.3868 8.5161 -1.2373 0.9602
-0.3442 8.6871 -1.0675 0.9656
-1.3999 8.6567 -1.0767 0.9653
-2.4823 8.5987 -1.0989 0.9646
-5.0192 8.7159 -1.2349 0.9603
-8.3692 8.7365 -1.4855 0.9524
-10.6863 8.7507 -1.6959 0.9459
-13.5629 8.6061 -1.9723 0.9373
-17.2725 8.2310 -2.3493 0.9258
-18.1380 6.0910 -2.3493 0.9258
-18.7395 3.8623 -2.3493 0.9258
-19.0683 1.5774 -2.3493 0.9258
-20.3581 -0.7778 -2.5015 0.9212
-19.5816 -5.6230 -2.5015 0.9212
-18.7620 -7.9402 -2.5015 0.9212
-14.7317 -14.0725 -2.5015 0.9212
-10.2740 -16.1410 -2.3493 0.9258
-8.2553 -17.2608 -2.3493 0.9258
-1.3488 -16.0291 -1.9751 0.9372
5.5953 -19.5895 -2.5015 0.9212
10.1169 -17.6835 -2.5015 0.9212
12.1729 -16.3364 -2.5015 0.9212
19.2947 -6.5401 -2.5015 0.9212
20.2988 -1.7370 -2.5015 0.9212
20.3602 0.7202 -2.5015 0.9212
20.1253 3.1670 -2.5015 0.9212
7.8910 3.3133 -1.0508 0.9661
15.5083 8.8434 -2.1920 0.9306
9.0847 8.6292 -1.5385 0.9508
5.4559 8.5183 -1.2420 0.9601
2.9514 8.6669 -1.1242 0.9638
-2.4306 8.6015 -1.0975 0.9646
-6.4629 8.7247 -1.3332 0.9572
-8.2745 8.7359 -1.4774 0.9527
-10.5630 8.7499 -1.6842 0.9462
-17.2257 8.3284 -2.3493 0.9258
-18.7174 3.9681 -2.3493 0.9258
-19.0591 1.6851 -2.3493 0.9258
-19.6131 -5.5122 -2.5015 0.9212
-18.8065 -7.8341 -2.5015 0.9212
-16.3878 -12.1036 -2.5015 0.9212
-10.3650 -16.0827 -2.3493 0.9258
-8.3527 -17.2139 -2.3493 0.9258
-3.9945 -18.7118 -2.3493 0.9258
-1.4411 -16.0410 -1.9775 0.9372
0.5954 -19.1241 -2.3493 0.9258
2.8942 -18.9133 -2.3493 0.9258
10.0169 -17.7404 -2.5015 0.9212
13.9681 -14.8307 -2.5015 0.9212
17.1090 -11.0607 -2.5015 0.9212
8.3710 2.3272 -1.0668 0.9656
7.8766 3.2550 -1.0465 0.9662
11.7308 8.6129 -1.7869 0.9430
9.1874 8.6286 -1.5476 0.9505
7.2195 8.6407 -1.3825 0.9556
2.9933 8.6298 -1.1215 0.9639
-2.3789 8.6044 -1.0961 0.9647
-6.3865 8.7243 -1.3276 0.9574
-8.1808 8.7353 -1.4695 0.9529
-10.4414 8.7492 -1.6726 0.9466
-13.3038 8.6541 -1.9487 0.9380
-17.1784 8.4256 -2.3493 0.9258
-18.6947 4.0738 -2.3493 0.9258
-20.1514 -2.9963 -2.5015 0.9212
-19.6439 -5.4013 -2.5015 0.9212
-18.8505 -7.7277 -2.5015 0.9212
-17.7827 -9.9416 -2.5015 0.9212
-14.8898 -13.9051 -2.5015 0.9212
-13.1068 -15.5971 -2.5015 0.9212
-8.4499 -17.1664 -2.3493 0.9258
-4.1002 -18.6889 -2.3493 0.9258
2.7873 -18.9293 -2.3493 0.9258
7.7010 -18.8614 -2.5015 0.9212
13.8841 -14.9094 -2.5015 0.9212
19.2195 -6.7578 -2.5015 0.9212
20.3671 0.4902 -2.5015 0.9212
20.1598 2.9393 -2.5015 0.9212
15.7181 8.7292 -2.2076 0.9301
11.8697 8.6121 -1.8006 0.9426
9.2914 8.6279 -1.5569 0.9502
5.5955 8.5227 -1.2518 0.9597
4.2023 8.4767 -1.1617 0.9626
6.4483 18.2571 -2.3774 0.9249
0.8540 8.6798 -1.0709 0.9655
-1.2508 8.6644 -1.0749 0.9653
-2.3275 8.6072 -1.0948 0.9647
-4.6545 8.4090 -1.1801 0.9620
-8.0881 8.7347 -1.4617 0.9532
-10.3215 8.7485 -1.6613 0.9469
-17.1285 8.5215 -2.3490 0.9258
-18.0322 6.3975 -2.3493 0.9258
-18.6714 4.1793 -2.3493 0.9258
-20.3684 -0.4326 -2.5015 0.9212
-19.6741 -5.2903 -2.5015 0.9212
-17.8385 -9.8410 -2.5015 0.9212
-16.5236 -11.9176 -2.5015 0.9212
-14.9681 -13.8208 -2.5015 0.9212
-13.1947 -15.5228 -2.5015 0.9212
-8.5467 -17.1185 -2.3493 0.9258
-5.4047 -15.1658 -1.9768 0.9372
-4.2057 -18.6655 -2.3493 0.9258
-1.9273 -19.0361 -2.3493 0.9258
5.2624 -19.6816 -2.5015 0.9212
7.5944 -18.9046 -2.5015 0.9212
9.8158 -17.8524 -2.5015 0.9212
13.7997 -14.9876 -2.5015 0.9212
15.5041 -13.2167 -2.5015 0.9212
16.9830 -11.2533 -2.5015 0.9212
18.2146 -9.1262 -2.5015 0.9212
19.1811 -6.8662 -2.5015 0.9212
19.8684 -4.5063 -2.5015 0.9212
20.2664 -2.0807 -2.5015 0.9212
20.3695 0.3751 -2.5015 0.9212
15.9271 8.7279 -2.2300 0.9294
12.0107 8.6112 -1.8146 0.9422
9.3965 8.6273 -1.5663 0.9499
7.3860 8.6396 -1.3956 0.9552
4.2631 8.4788 -1.1652 0.9625
6.5509 18.2193 -2.3773 0.9249
0.9035 8.6795 -1.0715 0.9654
-0.1477 8.6859 -1.0667 0.9656
-2.2761 8.6100 -1.0935 0.9647
-6.2357 8.7233 -1.3166 0.9577
-7.9964 8.7342 -1.4540 0.9534
-10.2033 8.7477 -1.6502 0.9473
-17.0821 8.6192 -2.3493 0.9258
-17.9957 6.4992 -2.3493 0.9258
-19.0278 2.0079 -2.3493 0.9258
-20.1840 -2.7685 -2.5015 0.9212
-19.7037 -5.1790 -2.5015 0.9212
-18.9366 -7.5142 -2.5015 0.9212
-13.2822 -15.4480 -2.5015 0.9212
-10.6360 -15.9048 -2.3493 0.9258
-8.6433 -17.0699 -2.3493 0.9258
-5.4473 -15.0166 -1.9614 0.9377
5.1512 -19.7110 -2.5015 0.9212
7.4875 -18.9472 -2.5015 0.9212
9.7147 -17.9076 -2.5015 0.9212
18.1627 -9.2289 -2.5015 0.9212
19.1420 -6.9744 -2.5015 0.9212
19.8426 -4.6185 -2.5015 0.9212
20.2544 -2.1952 -2.5015 0.9212
20.3713 0.2600 -2.5015 0.9212
7.8860 3.1035 -1.0406 0.9664
16.8309 9.0999 -2.3493 0.9258
9.5030 8.6266 -1.5759 0.9496
7.4705 8.6391 -1.4023 0.9550
6.6534 18.1808 -2.3771 0.9249
2.0315 8.6725 -1.0937 0.9647
0.9531 8.6792 -1.0721 0.9654
-0.0986 8.6856 -1.0665 0.9656
-2.2249 8.6128 -1.0922 0.9648
-6.1612 8.7229 -1.3113 0.9579
-10.0866 8.7470 -1.6393 0.9476
-12.9267 8.7241 -1.9148 0.9391
-17.0353 8.7166 -2.3496 0.9258
-19.7327 -5.0676 -2.5015 0.9212
-17.9486 -9.6388 -2.5015 0.9212
-15.1233 -13.6508 -2.5015 0.9212
-1.5366 8.5772 -1.3801 0.9653
-2.6158 8.5168 -1.4111 0.9646
-5.2186 8.7171 -1.6092 0.9597
-13.4964 6.1531 -2.3493 0.9417
-14.1391 4.4829 -2.3493 0.9417
-15.7598 1.0351 -2.5015 0.9380
-12.4891 -9.6677 -2.5015 0.9380
-11.2339 -11.1014 -2.5015 0.9380
-9.8152 -12.3735 -2.5015 0.9380
0.8480 -15.7710 -2.5015 0.9380
6.3807 -14.4475 -2.5015 0.9380
8.0742 -13.5739 -2.5015 0.9380
9.6501 -12.5028 -2.5015 0.9380
14.3522 -6.5922 -2.5015 0.9380
15.0416 -4.8159 -2.5015 0.9380
15.5121 -2.9694 -2.5015 0.9380
7.4798 2.2627 -1.2377 0.9688
7.0407 3.0976 -1.2183 0.9693
8.7836 8.6310 -1.9504 0.9514
5.1981 8.4270 -1.5682 0.9607
2.7887 8.6679 -1.4422 0.9638
0.6072 8.6813 -1.3783 0.9654
-1.4882 8.5862 -1.3802 0.9653
-2.5642 8.5198 -1.4092 0.9646
-5.1517 8.7167 -1.6037 0.9598
-10.9379 8.7522 -2.2187 0.9448
-12.6132 7.8050 -2.3493 0.9417
-13.4614 6.2292 -2.3493 0.9417
-14.7340 2.8636 -2.3773 0.9410
-15.7744 -0.7812 -2.5015 0.9380
-15.1301 -4.5303 -2.5015 0.9380
-13.6080 -8.0166 -2.5015 0.9380
-11.2965 -11.0378 -2.5015 0.9380
-8.3296 -13.4186 -2.5015 0.9380
-6.6499 -14.3174 -2.5003 0.9381
-4.7422 -14.5983 -2.4311 0.9397
-2.9038 -14.8288 -2.3933 0.9406
-1.1203 -15.3935 -2.4445 0.9394
0.7589 -15.7755 -2.5015 0.9380
6.2990 -14.4833 -2.5015 0.9380
7.9973 -13.6193 -2.5015 0.9380
12.3039 -9.9024 -2.5015 0.9380
13.4069 -8.3486 -2.5015 0.9380
14.3147 -6.6732 -2.5015 0.9380
15.0142 -4.9008 -2.5015 0.9380
15.4951 -3.0569 -2.5015 0.9380
15.7766 0.7366 -2.5015 0.9380
15.5730 2.6312 -2.5015 0.9380
7.5786 2.2459 -1.2519 0.9685
11.3034 8.5977 -2.2493 0.9441
8.8828 8.6304 -1.9616 0.9511
5.2653 8.4289 -1.5741 0.9606
2.8427 8.6675 -1.4448 0.9637
1.7241 8.6744 -1.4008 0.9648
0.6564 8.6810 -1.3789 0.9654
-0.3933 8.6875 -1.3774 0.9654
-1.4398 8.5952 -1.3803 0.9653
-2.5126 8.5228 -1.4073 0.9647
-3.6489 8.4551 -1.4585 0.9634
-5.0852 8.7163 -1.5983 0.9600
-6.6176 8.7257 -1.7345 0.9566
-8.4649 8.7371 -1.9268 0.9519
-12.5689 7.8761 -2.3493 0.9417
-13.4260 6.3051 -2.3493 0.9417
-14.5642 2.9161 -2.3525 0.9416
-15.7786 -0.6921 -2.5015 0.9380
-15.5804 -2.5873 -2.5015 0.9380
-15.1554 -4.4447 -2.5015 0.9380
-14.5098 -6.2376 -2.5015 0.9380
-12.5975 -9.5260 -2.5015 0.9380
-11.3586 -10.9738 -2.5015 0.9380
-9.9544 -12.2618 -2.5015 0.9380
-6.7328 -14.2842 -2.5011 0.9380
-2.9877 -14.8135 -2.3935 0.9406
-1.2049 -15.3571 -2.4398 0.9395
0.6698 -15.7795 -2.5015 0.9380
2.5652 -15.5841 -2.5015 0.9380
4.4233 -15.1617 -2.5015 0.9380
6.2170 -14.5187 -2.5015 0.9380
7.9203 -13.6643 -2.5015 0.9380
9.5082 -12.6110 -2.5015 0.9380
12.2478 -9.9717 -2.5015 0.9380
13.3595 -8.4242 -2.5015 0.9380
14.2768 -6.7540 -2.5015 0.9380
15.4776 -3.1445 -2.5015 0.9380
15.7436 -1.2576 -2.5015 0.9380
15.7805 0.6475 -2.5015 0.9380
15.5876 2.5432 -2.5015 0.9380
7.6775 2.2281 -1.2662 0.9681
7.0460 3.0054 -1.2133 0.9695
12.8434 7.4202 -2.3493 0.9417
11.8563 8.9129 -2.3493 0.9417
9.3929 11.5036 -2.3522 0.9416
3.9800 8.3824 -1.4697 0.9631
2.8970 8.6672 -1.4474 0.9637
1.7750 8.6741 -1.4023 0.9648
0.7058 8.6807 -1.3794 0.9653
-2.4612 8.5257 -1.4055 0.9647
-3.5938 8.4585 -1.4556 0.9635
-8.3692 8.7365 -1.9162 0.9522
-10.6863 8.7507 -2.1876 0.9456
-12.5242 7.9470 -2.3493 0.9417
-14.0611 4.7219 -2.3493 0.9417
-15.7400 1.3021 -2.5015 0.9380
-15.1803 -4.3591 -2.5015 0.9380
-8.4807 -13.3237 -2.5015 0.9380
-6.8144 -14.2480 -2.5015 0.9380
-4.9226 -14.5904 -2.4389 0.9395
-3.0717 -14.7980 -2.3937 0.9406
-1.2892 -15.3209 -2.4352 0.9396
2.4772 -15.5983 -2.5015 0.9380
4.3376 -15.1864 -2.5015 0.9380
7.8430 -13.7088 -2.5015 0.9380
10.8933 -11.4359 -2.5015 0.9380
13.3117 -8.4995 -2.5015 0.9380
14.2384 -6.8345 -2.5015 0.9380
15.4596 -3.2318 -2.5015 0.9380
15.7362 -1.3466 -2.5015 0.9380
15.7839 0.5583 -2.5015 0.9380
15.6017 2.4551 -2.5015 0.9380
7.7685 2.2070 -1.2791 0.9678
7.0490 2.9597 -1.2109 0.9695
9.0847 8.6292 -1.9845 0.9505
2.9514 8.6669 -1.4501 0.9636
1.8260 8.6738 -1.4039 0.9647
0.7551 8.6804 -1.3800 0.9653
-0.2000 5.8901 -0.9334 0.9764
-2.4100 8.5286 -1.4037 0.9647
-12.4791 8.0176 -2.3493 0.9417
-13.3539 6.4564 -2.3493 0.9417
-15.7854 -0.5138 -2.5015 0.9380
-15.2047 -4.2732 -2.5015 0.9380
-13.7419 -7.7848 -2.5015 0.9380
-12.7044 -9.3831 -2.5015 0.9380
-10.0923 -12.1486 -2.5015 0.9380
-8.5558 -13.2756 -2.5015 0.9380
-1.3735 -15.2887 -2.4312 0.9397
0.4913 -15.7803 -2.5006 0.9381
4.2518 -15.2107 -2.5015 0.9380
6.0526 -14.5880 -2.5015 0.9380
13.2634 -8.5746 -2.5015 0.9380
14.1995 -6.9149 -2.5015 0.9380
14.9289 -5.1545 -2.5015 0.9380
15.7868 0.4692 -2.5015 0.9380
15.6154 2.3669 -2.5015 0.9380
7.8800 2.1907 -1.2954 0.9674
7.0564 2.9161 -1.2093 0.9696
11.9562 8.7784 -2.3493 0.9417
2.9933 8.6298 -1.4467 0.9637
1.8772 8.6735 -1.4056 0.9647
0.8045 8.6801 -1.3807 0.9653
-0.1664 5.8772 -0.9312 0.9765
-1.2944 8.6221 -1.3809 0.9653
-4.6141 8.2259 -1.4938 0.9625
-6.3865 8.7243 -1.7125 0.9572
-10.4414 8.7492 -2.1576 0.9463
-14.0069 4.8805 -2.3493 0.9417
-15.7243 1.4799 -2.5015 0.9380
-15.7880 -0.4246 -2.5015 0.9380
-15.6220 -2.3228 -2.5015 0.9380
-15.2286 -4.1872 -2.5015 0.9380
-11.5430 -10.7797 -2.5015 0.9380
-10.1608 -12.0914 -2.5015 0.9380
-3.2398 -14.7672 -2.3945 0.9406
0.4020 -15.7780 -2.4998 0.9381
2.3008 -15.6253 -2.5015 0.9380
5.9701 -14.6219 -2.5015 0.9380
9.2931 -12.7703 -2.5015 0.9380
12.0770 -10.1779 -2.5015 0.9380
14.1602 -6.9950 -2.5015 0.9380
14.8996 -5.2388 -2.5015 0.9380
15.4220 -3.4063 -2.5015 0.9380
15.7892 0.3800 -2.5015 0.9380
15.6285 2.2787 -2.5015 0.9380
12.9673 7.2015 -2.3493 0.9417
12.0056 8.7107 -2.3493 0.9417
9.2914 8.6279 -2.0082 0.9499
4.1627 8.3969 -1.4844 0.9628
4.9660 14.0603 -2.3617 0.9414
1.9285 8.6732 -1.4072 0.9647
0.8540 8.6798 -1.3814 0.9653
-0.1333 5.8840 -0.9322 0.9764
-2.3078 8.5344 -1.4003 0.9648
-6.3108 8.7238 -1.7053 0.9573
-8.0881 8.7347 -1.8855 0.9529
-10.3215 8.7485 -2.1430 0.9467
-13.2801 6.6069 -2.3493 0.9417
-13.9791 4.9595 -2.3493 0.9417
-14.4746 3.2400 -2.3493 0.9417
-15.6349 -2.2345 -2.5015 0.9380
-15.2520 -4.1012 -2.5015 0.9380
-11.6037 -10.7144 -2.5015 0.9380
-5.1984 -14.5870 -2.4527 0.9392
-3.3238 -14.7517 -2.3950 0.9406
-1.5416 -15.2265 -2.4240 0.9399
4.0796 -15.2578 -2.5015 0.9380
5.8874 -14.6554 -2.5015 0.9380
9.2208 -12.8226 -2.5015 0.9380
14.1205 -7.0749 -2.5015 0.9380
14.8698 -5.3229 -2.5015 0.9380
15.7911 0.2908 -2.5015 0.9380
12.0547 8.6427 -2.3493 0.9417
7.3860 8.6396 -1.8003 0.9550
4.2229 8.3987 -1.4889 0.9626
-0.1009 5.9348 -0.9401 0.9762
-2.2569 8.5373 -1.3986 0.9649
-3.3756 8.4718 -1.4444 0.9637
-10.2033 8.7477 -2.1287 0.9470
-12.3415 8.2280 -2.3493 0.9417
-13.2425 6.6819 -2.3493 0.9417
-13.9508 5.0384 -2.3493 0.9417
-15.7918 -0.2462 -2.5015 0.9380
-15.6473 -2.1462 -2.5015 0.9380
-15.2749 -4.0149 -2.5015 0.9380
-14.6802 -5.8252 -2.5015 0.9380
-13.8718 -7.5508 -2.5015 0.9380
-10.2968 -11.9758 -2.5015 0.9380
-8.7796 -13.1287 -2.5015 0.9380
-7.1346 -14.0904 -2.5015 0.9380
-5.2924 -14.5895 -2.4581 0.9391
-3.4079 -14.7362 -2.3956 0.9406
-1.6255 -15.1987 -2.4210 0.9400
0.2236 -15.7722 -2.4983 0.9381
5.8045 -14.6884 -2.5015 0.9380
7.5312 -13.8825 -2.5015 0.9380
9.1482 -12.8745 -2.5015 0.9380
14.0803 -7.1546 -2.5015 0.9380
7.0840 2.7878 -1.2058 0.9696
13.0478 7.0545 -2.3493 0.9417
9.5030 8.6266 -2.0328 0.9493
5.1241 14.0020 -2.3615 0.9414
2.0315 8.6725 -1.4108 0.9646
-2.2061 8.5401 -1.3970 0.9649
-3.3215 8.4751 -1.4417 0.9638
-4.4570 8.2715 -1.4882 0.9627
-6.1612 8.7229 -1.6915 0.9577
-13.2046 6.7565 -2.3493 0.9417
-14.4371 3.4033 -2.3493 0.9417
-15.6969 1.7461 -2.5015 0.9380
-14.7129 -5.7423 -2.5015 0.9380
-13.9143 -7.4723 -2.5015 0.9380
-12.9132 -9.0936 -2.5015 0.9380
-11.7240 -10.5825 -2.5015 0.9380
-2.5935 8.4441 -1.7170 0.9646
-3.6953 8.3034 -1.7666 0.9636
-6.7750 8.7267 -2.1475 0.9560
-8.5074 8.5847 -2.3493 0.9519
-10.3132 6.3015 -2.3493 0.9519
-11.5208 3.6528 -2.3493 0.9519
-12.8414 0.8434 -2.5015 0.9489
-12.3072 -3.7610 -2.5015 0.9489
-10.1763 -7.8774 -2.5015 0.9489
-9.1536 -9.0456 -2.5015 0.9489
-7.9976 -10.0822 -2.5015 0.9489
-2.4016 -12.6429 -2.5015 0.9489
0.6910 -12.8505 -2.5015 0.9489
2.2335 -12.6737 -2.5015 0.9489
3.7436 -12.3125 -2.5015 0.9489
7.8630 -10.1875 -2.5015 0.9489
10.0708 -8.0119 -2.5015 0.9489
10.9624 -6.7407 -2.5015 0.9489
11.6944 -5.3715 -2.5015 0.9489
6.5183 2.8678 -1.3842 0.9714
6.8840 8.6282 -2.1456 0.9560
5.1464 8.3431 -1.9055 0.9608
2.7887 8.6679 -1.7699 0.9636
1.6732 8.6747 -1.7173 0.9646
-2.5423 8.4471 -1.7147 0.9647
-6.6959 8.7262 -2.1380 0.9562
-10.2775 6.3597 -2.3493 0.9519
-10.9686 5.0757 -2.3493 0.9519
-11.5000 3.7178 -2.3493 0.9519
-12.8533 -0.6366 -2.5015 0.9489
-12.6831 -2.1798 -2.5015 0.9489
-12.3282 -3.6914 -2.5015 0.9489
-11.7940 -5.1492 -2.5015 0.9489
-10.2207 -7.8198 -2.5015 0.9489
-9.2046 -8.9938 -2.5015 0.9489
-8.0545 -10.0368 -2.5015 0.9489
-3.9759 -12.2395 -2.5015 0.9489
-2.4730 -12.6292 -2.5015 0.9489
2.1619 -12.6861 -2.5015 0.9489
3.6740 -12.3334 -2.5015 0.9489
5.1325 -11.8012 -2.5015 0.9489
6.5164 -11.0972 -2.5015 0.9489
7.8054 -10.2317 -2.5015 0.9489
8.9807 -9.2173 -2.5015 0.9489
12.2338 -3.9932 -2.5015 0.9489
12.8550 0.6002 -2.5015 0.9489
12.6892 2.1440 -2.5015 0.9489
7.1728 2.1257 -1.4542 0.9700
10.4307 6.1051 -2.3493 0.9519
9.6195 7.3169 -2.3493 0.9519
3.8204 8.1651 -1.7523 0.9639
2.8427 8.6675 -1.7731 0.9635
-1.4398 8.5952 -1.6940 0.9651
-5.0852 8.7163 -1.9615 0.9597
-6.6176 8.7257 -2.1287 0.9564
-8.4098 8.6802 -2.3493 0.9519
-10.2414 6.4176 -2.3493 0.9519
-11.4788 3.7827 -2.3493 0.9519
-12.6186 2.5265 -2.5015 0.9489
-12.8567 -0.5639 -2.5015 0.9489
-12.6952 -2.1081 -2.5015 0.9489
-11.8229 -5.0825 -2.5015 0.9489
-11.1248 -6.4693 -2.5015 0.9489
-6.8488 -10.8952 -2.5015 0.9489
-5.4868 -11.6407 -2.5015 0.9489
-2.5443 -12.6150 -2.5015 0.9489
-1.0066 -12.8296 -2.5015 0.9489
0.5458 -12.8575 -2.5015 0.9489
3.6042 -12.3540 -2.5015 0.9489
6.4536 -11.1339 -2.5015 0.9489
7.7474 -10.2757 -2.5015 0.9489
8.9285 -9.2679 -2.5015 0.9489
9.9797 -8.1251 -2.5015 0.9489
11.6330 -5.5033 -2.5015 0.9489
12.2110 -4.0623 -2.5015 0.9489
12.6114 -2.5622 -2.5015 0.9489
12.8282 -1.0247 -2.5015 0.9489
12.7011 2.0723 -2.5015 0.9489
7.2587 2.1065 -1.4692 0.9697
6.5402 2.7896 -1.3821 0.9714
9.6607 7.2624 -2.3493 0.9519
8.7158 8.3730 -2.3493 0.9519
3.8826 8.1772 -1.7596 0.9638
2.8970 8.6672 -1.7764 0.9634
0.7058 8.6807 -1.6929 0.9651
-2.4403 8.4532 -1.7102 0.9648
-3.5460 8.3459 -1.7626 0.9637
-6.5399 8.7252 -2.1195 0.9565
-9.3509 7.6572 -2.3493 0.9519
-10.2050 6.4754 -2.3493 0.9519
-10.9105 5.1993 -2.3493 0.9519
-12.6041 2.5978 -2.5015 0.9489
-11.1611 -6.4063 -2.5015 0.9489
-10.3084 -7.7038 -2.5015 0.9489
-9.3056 -8.8892 -2.5015 0.9489
-6.9102 -10.8564 -2.5015 0.9489
-5.5525 -11.6096 -2.5015 0.9489
-4.1140 -12.1937 -2.5015 0.9489
-1.0791 -12.8237 -2.5015 0.9489
0.4731 -12.8603 -2.5015 0.9489
6.3906 -11.1702 -2.5015 0.9489
7.6893 -10.3193 -2.5015 0.9489
8.8760 -9.3181 -2.5015 0.9489
9.9336 -8.1814 -2.5015 0.9489
12.1879 -4.1312 -2.5015 0.9489
12.5967 -2.6333 -2.5015 0.9489
12.8610 0.4550 -2.5015 0.9489
12.7126 2.0005 -2.5015 0.9489
7.3451 2.0867 -1.4842 0.9694
6.5500 2.7502 -1.3809 0.9715
10.4990 5.9869 -2.3493 0.9519
7.1146 8.6135 -2.1716 0.9555
3.9452 8.1894 -1.7669 0.9636
2.9514 8.6669 -1.7797 0.9634
1.8260 8.6738 -1.7230 0.9645
-0.2000 5.8888 -1.1453 0.9763
-1.3429 8.6131 -1.6944 0.9651
-2.3895 8.4562 -1.7081 0.9648
-3.4963 8.3599 -1.7614 0.9637
-4.5742 8.0479 -1.7994 0.9630
-6.4629 8.7247 -2.1105 0.9567
-10.1682 6.5329 -2.3493 0.9519
-12.8190 1.1334 -2.5015 0.9489
-12.3890 -3.4819 -2.5015 0.9489
-10.3517 -7.6455 -2.5015 0.9489
-9.3557 -8.8365 -2.5015 0.9489
-8.2234 -9.8989 -2.5015 0.9489
-2.6867 -12.5854 -2.5015 0.9489
1.9466 -12.7210 -2.5015 0.9489
4.9318 -11.8865 -2.5015 0.9489
6.3274 -11.2061 -2.5015 0.9489
8.8233 -9.3681 -2.5015 0.9489
10.8073 -6.9867 -2.5015 0.9489
12.8158 -1.1696 -2.5015 0.9489
12.8633 0.3823 -2.5015 0.9489
12.7237 1.9286 -2.5015 0.9489
6.5597 2.7108 -1.3797 0.9715
9.7421 7.1528 -2.3493 0.9519
8.8098 8.2740 -2.3493 0.9519
7.2195 8.6407 -2.1887 0.9552
5.4190 8.3565 -1.9360 0.9602
2.9933 8.6298 -1.7755 0.9635
1.8772 8.6735 -1.7250 0.9645
0.8045 8.6801 -1.6945 0.9651
-0.1663 5.8761 -1.1427 0.9763
-1.2944 8.6221 -1.6948 0.9651
-2.3388 8.4591 -1.7060 0.9649
-4.5227 8.0631 -1.7970 0.9630
-8.2615 8.8215 -2.3493 0.9519
-10.8511 5.3222 -2.3493 0.9519
-12.5739 2.7400 -2.5015 0.9489
-12.7291 -1.8927 -2.5015 0.9489
-12.4085 -3.4118 -2.5015 0.9489
-11.9073 -4.8814 -2.5015 0.9489
-8.2792 -9.8523 -2.5015 0.9489
-7.0325 -10.7776 -2.5015 0.9489
-5.6834 -11.5461 -2.5015 0.9489
-4.2515 -12.1465 -2.5015 0.9489
-2.7578 -12.5701 -2.5015 0.9489
3.3943 -12.4133 -2.5015 0.9489
6.2640 -11.2417 -2.5015 0.9489
7.5722 -10.4055 -2.5015 0.9489
8.7702 -9.4178 -2.5015 0.9489
11.5380 -5.6996 -2.5015 0.9489
12.5662 -2.7755 -2.5015 0.9489
12.8089 -1.2420 -2.5015 0.9489
6.5693 2.6714 -1.3785 0.9715
10.5659 5.8679 -2.3493 0.9519
9.7824 7.0976 -2.3493 0.9519
7.3024 8.6402 -2.1990 0.9549
5.4957 8.3707 -1.9464 0.9600
4.0720 8.2140 -1.7821 0.9633
1.9285 8.6732 -1.7271 0.9644
0.8540 8.6798 -1.6953 0.9651
-0.1333 5.8827 -1.1438 0.9763
-2.2882 8.4621 -1.7039 0.9649
-4.4714 8.0782 -1.7947 0.9631
-6.3108 8.7238 -2.0929 0.9571
-9.2197 7.8146 -2.3493 0.9519
-10.0938 6.6474 -2.3493 0.9519
-11.3904 4.0411 -2.3493 0.9519
-12.8054 1.2781 -2.5015 0.9489
-12.4276 -3.3417 -2.5015 0.9489
-11.2681 -6.2163 -2.5015 0.9489
-10.4375 -7.5280 -2.5015 0.9489
-5.7484 -11.5138 -2.5015 0.9489
-2.8287 -12.5543 -2.5015 0.9489
-1.2962 -12.8036 -2.5015 0.9489
0.2551 -12.8665 -2.5015 0.9489
1.8027 -12.7421 -2.5015 0.9489
3.3241 -12.4323 -2.5015 0.9489
4.7972 -11.9415 -2.5015 0.9489
8.7168 -9.4672 -2.5015 0.9489
9.7935 -8.3486 -2.5015 0.9489
11.5056 -5.7647 -2.5015 0.9489
12.1161 -4.3371 -2.5015 0.9489
12.7447 1.7847 -2.5015 0.9489
6.5884 2.6359 -1.3794 0.9715
9.8223 7.0423 -2.3493 0.9519
7.3860 8.6396 -2.2094 0.9547
4.0937 11.3852 -2.3518 0.9519
0.9035 8.6795 -1.6962 0.9651
-0.1008 5.9297 -1.1528 0.9761
-1.1975 8.6401 -1.6955 0.9651
-2.2378 8.4650 -1.7020 0.9650
-4.4202 8.0933 -1.7925 0.9631
-12.7980 1.3505 -2.5015 0.9489
-12.8675 -0.2006 -2.5015 0.9489
-12.7497 -1.7488 -2.5015 0.9489
-11.9617 -4.7465 -2.5015 0.9489
-9.5041 -8.6767 -2.5015 0.9489
-4.3885 -12.0976 -2.5015 0.9489
0.1824 -12.8677 -2.5015 0.9489
3.2538 -12.4509 -2.5015 0.9489
4.7296 -11.9684 -2.5015 0.9489
6.1365 -11.3117 -2.5015 0.9489
11.4729 -5.8297 -2.5015 0.9489
12.0914 -4.4055 -2.5015 0.9489
12.7545 1.7127 -2.5015 0.9489
7.8916 2.0505 -1.5849 0.9673
6.6101 2.6013 -1.3808 0.9715
6.6073 3.5724 -1.4600 0.9699
9.8620 6.9867 -2.3493 0.9519
7.4705 8.6391 -2.2200 0.9545
5.6515 8.3996 -1.9679 0.9596
4.2010 8.2389 -1.7977 0.9630
4.1578 11.3614 -2.3517 0.9519
0.9531 8.6792 -1.6972 0.9650
-1.1490 8.6491 -1.6960 0.9651
-3.2925 8.4012 -1.7540 0.9639
-4.3691 8.1083 -1.7903 0.9632
-6.1612 8.7229 -2.0759 0.9574
-8.1108 8.9603 -2.3493 0.9519
-10.0180 6.7610 -2.3493 0.9519
-10.7593 5.5053 -2.3493 0.9519
-12.5224 2.9519 -2.5008 0.9489
-12.7593 -1.6767 -2.5015 0.9489
-11.3376 -6.0886 -2.5015 0.9489
-10.5219 -7.4096 -2.5015 0.9489
-9.5529 -8.6228 -2.5015 0.9489
-1.5366 8.5772 -2.0117 0.9649
-5.2268 8.7309 -2.3493 0.9591
-6.2402 8.0379 -2.3493 0.9591
-7.1628 7.2279 -2.3493 0.9591
-9.2590 4.2212 -2.3493 0.9591
-10.3284 3.2747 -2.5015 0.9565
-10.8187 -0.5971 -2.5015 0.9565
-10.6680 -1.8956 -2.5015 0.9565
-10.3621 -3.1666 -2.5015 0.9565
-8.5680 -6.6325 -2.5015 0.9565
-5.6624 -9.2379 -2.5015 0.9565
-4.5086 -9.8525 -2.5015 0.9565
-2.0221 -10.6448 -2.5015 0.9565
0.5818 -10.8195 -2.5015 0.9565
4.3774 -9.9115 -2.5015 0.9565
5.5392 -9.3122 -2.5015 0.9565
6.6203 -8.5774 -2.5015 0.9565
7.6051 -7.7177 -2.5015 0.9565
8.4792 -6.7456 -2.5015 0.9565
9.8461 -4.5225 -2.5015 0.9565
10.3191 -3.3039 -2.5015 0.9565
10.6419 -2.0371 -2.5015 0.9565
10.8203 0.5665 -2.5015 0.9565
10.6733 1.8655 -2.5015 0.9565
6.8855 2.0829 -1.6608 0.9709
6.4444 2.8353 -1.6254 0.9715
6.3464 7.9543 -2.3493 0.9591
4.2604 9.2411 -2.3493 0.9591
0.6072 8.6813 -2.0091 0.9649
-0.4426 8.6878 -2.0083 0.9649
-2.5262 8.3937 -2.0237 0.9647
-4.0848 9.3200 -2.3493 0.9591
-6.1947 8.0730 -2.3493 0.9591
-7.9454 6.3577 -2.3493 0.9591
-10.3098 3.3330 -2.5015 0.9565
-10.6361 2.0671 -2.5015 0.9565
-10.8219 -0.5360 -2.5015 0.9565
-10.6786 -1.8353 -2.5015 0.9565
-9.3356 -5.4997 -2.5015 0.9565
-8.6053 -6.5839 -2.5015 0.9565
-7.7498 -7.5723 -2.5015 0.9565
-5.7144 -9.2057 -2.5015 0.9565
-2.0822 -10.6332 -2.5015 0.9565
-0.7865 -10.8066 -2.5015 0.9565
0.5207 -10.8226 -2.5015 0.9565
1.8202 -10.6811 -2.5015 0.9565
3.0933 -10.3842 -2.5015 0.9565
4.3213 -9.9361 -2.5015 0.9565
5.4865 -9.3434 -2.5015 0.9565
7.5614 -7.7605 -2.5015 0.9565
9.8204 -4.5781 -2.5015 0.9565
10.3003 -3.3621 -2.5015 0.9565
10.8233 0.5054 -2.5015 0.9565
10.6837 1.8051 -2.5015 0.9565
6.9614 2.0630 -1.6762 0.9706
8.7821 5.1403 -2.3493 0.9591
8.0992 6.1605 -2.3493 0.9591
7.2983 7.0910 -2.3493 0.9591
6.3913 7.9183 -2.3493 0.9591
5.3912 8.6304 -2.3493 0.9591
4.3126 9.2168 -2.3493 0.9591
2.8427 8.6675 -2.1059 0.9632
-0.3933 8.6875 -2.0077 0.9649
-1.4398 8.5952 -2.0120 0.9649
-2.4772 8.4027 -2.0225 0.9647
-4.0320 9.3430 -2.3493 0.9591
-5.1279 8.7894 -2.3493 0.9591
-6.1490 8.1079 -2.3493 0.9591
-7.0807 7.3083 -2.3493 0.9591
-10.2878 3.3902 -2.5008 0.9565
-10.6243 2.1272 -2.5015 0.9565
-9.3665 -5.4469 -2.5015 0.9565
-7.7925 -7.5285 -2.5015 0.9565
-5.7664 -9.1733 -2.5015 0.9565
-4.6197 -9.8010 -2.5015 0.9565
-3.4057 -10.2860 -2.5015 0.9565
-2.1422 -10.6213 -2.5015 0.9565
0.4595 -10.8254 -2.5015 0.9565
4.2651 -9.9604 -2.5015 0.9565
5.4336 -9.3742 -2.5015 0.9565
6.5230 -8.6516 -2.5015 0.9565
7.5174 -7.8031 -2.5015 0.9565
8.4024 -6.8410 -2.5015 0.9565
10.2811 -3.4203 -2.5015 0.9565
10.6182 -2.1572 -2.5015 0.9565
10.8007 -0.8628 -2.5015 0.9565
10.8260 0.4442 -2.5015 0.9565
7.0386 2.0427 -1.6920 0.9704
6.4555 2.7536 -1.6203 0.9716
5.4398 8.5998 -2.3493 0.9591
2.8970 8.6672 -2.1098 0.9632
1.7750 8.6741 -2.0441 0.9643
0.7058 8.6807 -2.0107 0.9649
-0.3442 8.6871 -2.0072 0.9649
-1.3914 8.6041 -2.0122 0.9649
-2.4284 8.4118 -2.0213 0.9647
-3.9792 9.3656 -2.3493 0.9591
-5.0781 8.8182 -2.3493 0.9591
-6.1031 8.1425 -2.3493 0.9591
-7.0393 7.3482 -2.3493 0.9591
-9.1862 4.3775 -2.3493 0.9591
-10.2649 3.4471 -2.4999 0.9565
-10.6121 2.1872 -2.5015 0.9565
-10.8272 -0.4137 -2.5015 0.9565
-10.6986 -1.7146 -2.5015 0.9565
-10.4143 -2.9905 -2.5015 0.9565
-9.3972 -5.3938 -2.5015 0.9565
-7.8349 -7.4843 -2.5015 0.9565
-4.6749 -9.7747 -2.5015 0.9565
-3.4638 -10.2666 -2.5015 0.9565
-2.2022 -10.6090 -2.5015 0.9565
-0.9085 -10.7970 -2.5015 0.9565
0.3984 -10.8278 -2.5015 0.9565
2.9758 -10.4185 -2.5015 0.9565
5.3806 -9.4048 -2.5015 0.9565
7.4732 -7.8455 -2.5015 0.9565
8.3636 -6.8884 -2.5015 0.9565
9.1323 -5.8310 -2.5015 0.9565
9.7681 -4.6888 -2.5015 0.9565
10.2617 -3.4783 -2.5015 0.9565
10.7957 -0.9238 -2.5015 0.9565
10.7034 1.6843 -2.5015 0.9565
8.8397 5.0407 -2.3493 0.9591
7.3780 7.0081 -2.3493 0.9591
6.4803 7.8456 -2.3493 0.9591
5.4883 8.5689 -2.3493 0.9591
2.9514 8.6669 -2.1137 0.9631
0.7551 8.6804 -2.0116 0.9649
-2.3795 8.4209 -2.0202 0.9647
-5.0282 8.8468 -2.3493 0.9591
-7.8365 6.4914 -2.3493 0.9591
-8.5612 5.5004 -2.3493 0.9591
-9.1613 4.4294 -2.3493 0.9591
-10.8294 -0.3525 -2.5015 0.9565
-10.0020 -4.1665 -2.5015 0.9565
-8.7157 -6.4371 -2.5015 0.9565
-7.8770 -7.4399 -2.5015 0.9565
-5.8696 -9.1076 -2.5015 0.9565
0.3372 -10.8299 -2.5015 0.9565
1.6389 -10.7104 -2.5015 0.9565
5.3274 -9.4350 -2.5015 0.9565
7.4288 -7.8875 -2.5015 0.9565
8.3246 -6.9355 -2.5015 0.9565
10.5932 -2.2771 -2.5015 0.9565
10.7903 -0.9847 -2.5015 0.9565
10.7127 1.6238 -2.5015 0.9565
6.4666 2.6723 -1.6154 0.9717
5.5366 8.5378 -2.3493 0.9591
1.8772 8.6735 -2.0488 0.9642
-0.1663 5.8751 -1.3569 0.9762
-1.2944 8.6221 -2.0129 0.9648
-2.3307 8.4299 -2.0192 0.9647
-3.8731 9.4100 -2.3493 0.9591
-4.8728 8.6872 -2.2996 0.9599
-9.1361 4.4810 -2.3493 0.9591
-10.5867 2.3069 -2.5015 0.9565
-10.4474 -2.8726 -2.5015 0.9565
-8.7519 -6.3878 -2.5015 0.9565
-7.9190 -7.3953 -2.5015 0.9565
-6.9707 -8.2952 -2.5015 0.9565
-2.3219 -10.5834 -2.5015 0.9565
-1.0305 -10.7860 -2.5015 0.9565
0.2760 -10.8316 -2.5015 0.9565
1.5784 -10.7195 -2.5015 0.9565
4.0957 -10.0312 -2.5015 0.9565
6.3754 -8.7609 -2.5015 0.9565
9.7145 -4.7988 -2.5015 0.9565
10.2217 -3.5940 -2.5015 0.9565
10.7845 -1.0457 -2.5015 0.9565
10.8320 0.2607 -2.5015 0.9565
10.7218 1.5633 -2.5015 0.9565
7.3167 1.9896 -1.7505 0.9694
1.9285 8.6732 -2.0513 0.9642
-4.9279 8.9030 -2.3493 0.9591
-6.9138 7.4665 -2.3493 0.9591
-8.4985 5.5968 -2.3493 0.9591
-9.1106 4.5326 -2.3493 0.9591
-10.1943 3.6167 -2.4973 0.9566
-10.5735 2.3667 -2.5015 0.9565
-10.7816 1.0761 -2.5015 0.9565
-10.7261 -1.5330 -2.5015 0.9565
-10.4635 -2.8136 -2.5015 0.9565
-8.7879 -6.3383 -2.5015 0.9565
-7.0175 -8.2556 -2.5015 0.9565
-4.8399 -9.6941 -2.5015 0.9565
-3.6373 -10.2064 -2.5015 0.9565
-2.3817 -10.5701 -2.5015 0.9565
0.2148 -10.8330 -2.5015 0.9565
4.0390 -10.0542 -2.5015 0.9565
7.3392 -7.9710 -2.5015 0.9565
8.2457 -7.0291 -2.5015 0.9565
9.0322 -5.9849 -2.5015 0.9565
9.6872 -4.8536 -2.5015 0.9565
10.2012 -3.6517 -2.5015 0.9565
10.5667 -2.3966 -2.5015 0.9565
6.4852 2.5946 -1.6126 0.9717
6.5532 3.5911 -1.7252 0.9698
7.4957 6.8821 -2.3493 0.9591
6.6124 7.7347 -2.3493 0.9591
5.6328 8.4747 -2.3493 0.9591
3.4430 9.5757 -2.3493 0.9591
1.9799 8.6729 -2.0538 0.9641
0.9035 8.6795 -2.0146 0.9648
-0.1007 5.9245 -1.3680 0.9760
-2.2333 8.4480 -2.0174 0.9648
-3.2832 8.2400 -2.0478 0.9642
-4.8776 8.9307 -2.3493 0.9591
-6.8715 7.5054 -2.3493 0.9591
-7.7253 6.6233 -2.3493 0.9591
-10.1702 3.6730 -2.4964 0.9566
-10.5599 2.4264 -2.5015 0.9565
-10.7753 1.1370 -2.5015 0.9565
-10.8338 -0.1689 -2.5015 0.9565
-10.4792 -2.7544 -2.5015 0.9565
-10.0712 -3.9963 -2.5015 0.9565
-8.8235 -6.2885 -2.5015 0.9565
-7.0640 -8.2159 -2.5015 0.9565
-4.8946 -9.6666 -2.5015 0.9565
-1.1523 -10.7737 -2.5015 0.9565
0.1536 -10.8340 -2.5015 0.9565
2.7396 -10.4831 -2.5015 0.9565
8.2059 -7.0756 -2.5015 0.9565
9.6596 -4.9083 -2.5015 0.9565
10.1804 -3.7092 -2.5015 0.9565
10.5530 -2.4563 -2.5015 0.9565
10.7720 -1.1675 -2.5015 0.9565
6.4980 2.5572 -1.6122 0.9717
6.5390 3.5354 -1.7162 0.9699
3.4971 9.5561 -2.3493 0.9591
0.9531 8.6792 -2.0158 0.9648
-4.6832 8.6912 -2.2793 0.9603
-6.8289 7.5441 -2.3493 0.9591
-8.4347 5.6925 -2.3493 0.9591
-10.5461 2.4861 -2.5015 0.9565
-10.8346 -0.1077 -2.5015 0.9565
-9.5457 -5.1263 -2.5015 0.9565
-8.0431 -7.2600 -2.5015 0.9565
-3.5648 8.0102 -2.3493 0.9643
-4.5035 7.5226 -2.3493 0.9643
-5.3767 6.9255 -2.3493 0.9643
-6.1716 6.2276 -2.3493 0.9643
-8.4807 3.8664 -2.4974 0.9621
-9.1741 1.7293 -2.5015 0.9621
-9.3156 0.6119 -2.5015 0.9621
-9.3215 -0.5145 -2.5015 0.9621
-8.5346 -3.7837 -2.5015 0.9621
-7.3823 -5.7146 -2.5015 0.9621
-5.8018 -7.3140 -2.5015 0.9621
-4.8787 -7.9594 -2.5015 0.9621
-2.8341 -8.8951 -2.5015 0.9621
0.5013 -9.3222 -2.5015 0.9621
2.7157 -8.9319 -2.5015 0.9621
5.7041 -7.3904 -2.5015 0.9621
6.5526 -6.6496 -2.5015 0.9621
7.3058 -5.8121 -2.5015 0.9621
7.9525 -4.8900 -2.5015 0.9621
8.8911 -2.8467 -2.5015 0.9621
9.3229 0.4881 -2.5015 0.9621
6.9483 5.3473 -2.3493 0.9643
6.2537 6.1451 -2.3493 0.9643
4.6030 7.4622 -2.3493 0.9643
3.6708 7.9622 -2.3493 0.9643
1.6606 8.6090 -2.3493 0.9643
-0.4460 8.7563 -2.3493 0.9643
-1.4973 8.6388 -2.3493 0.9643
-2.5268 8.3957 -2.3493 0.9643
-3.5195 8.0303 -2.3493 0.9643
-5.3375 6.9558 -2.3493 0.9643
-6.1363 6.2624 -2.3493 0.9643
-6.8458 5.4778 -2.3493 0.9643
-8.4563 3.9131 -2.4967 0.9621
-9.1642 1.7811 -2.5015 0.9621
-9.2008 -1.5813 -2.5015 0.9621
-8.9434 -2.6779 -2.5015 0.9621
-8.5558 -3.7354 -2.5015 0.9621
-6.6773 -6.5244 -2.5015 0.9621
-4.9236 -7.9318 -2.5015 0.9621
-3.9326 -8.4670 -2.5015 0.9621
3.7233 -8.5611 -2.5015 0.9621
5.6623 -7.4225 -2.5015 0.9621
7.9248 -4.9348 -2.5015 0.9621
8.4614 -3.9445 -2.5015 0.9621
9.1591 -1.8070 -2.5015 0.9621
9.2052 1.5553 -2.5015 0.9621
6.8900 2.0418 -1.9255 0.9707
6.9784 5.3079 -2.3493 0.9643
6.2883 6.1097 -2.3493 0.9643
4.6451 7.4361 -2.3493 0.9643
-1.4485 8.6472 -2.3493 0.9643
-2.4793 8.4098 -2.3493 0.9643
-3.4740 8.0500 -2.3493 0.9643
-5.2981 6.9858 -2.3493 0.9643
-6.1008 6.2969 -2.3493 0.9643
-7.4295 4.6556 -2.3493 0.9643
-8.8666 2.9219 -2.5015 0.9621
-9.1540 1.8328 -2.5015 0.9621
-9.3267 -0.4091 -2.5015 0.9621
-6.7141 -6.4866 -2.5015 0.9621
-5.8841 -7.2480 -2.5015 0.9621
-3.9804 -8.4446 -2.5015 0.9621
-1.8458 -9.1514 -2.5015 0.9621
-0.7302 -9.3071 -2.5015 0.9621
3.6749 -8.5820 -2.5015 0.9621
5.6203 -7.4543 -2.5015 0.9621
7.2396 -5.8943 -2.5015 0.9621
7.8968 -4.9795 -2.5015 0.9621
8.4390 -3.9923 -2.5015 0.9621
8.8583 -2.9469 -2.5015 0.9621
9.3278 0.3827 -2.5015 0.9621
9.2138 1.5033 -2.5015 0.9621
7.8704 4.5471 -2.4355 0.9631
6.3228 6.0741 -2.3493 0.9643
5.5452 6.7913 -2.3493 0.9643
4.6870 7.4097 -2.3493 0.9643
3.7606 7.9202 -2.3493 0.9643
0.7105 8.7388 -2.3493 0.9643
-0.3471 8.7608 -2.3493 0.9643
-1.3996 8.6552 -2.3493 0.9643
-2.4318 8.4237 -2.3493 0.9643
-6.7835 5.5548 -2.3493 0.9643
-8.8500 2.9719 -2.5015 0.9621
-9.2181 -1.4773 -2.5015 0.9621
-8.5974 -3.6385 -2.5015 0.9621
-7.4781 -5.5887 -2.5015 0.9621
-6.7506 -6.4486 -2.5015 0.9621
-5.9249 -7.2146 -2.5015 0.9621
-4.0280 -8.4220 -2.5015 0.9621
0.3432 -9.3294 -2.5015 0.9621
2.5640 -8.9767 -2.5015 0.9621
4.6360 -8.1032 -2.5015 0.9621
5.5781 -7.4860 -2.5015 0.9621
6.4390 -6.7597 -2.5015 0.9621
7.2062 -5.9351 -2.5015 0.9621
7.8685 -5.0241 -2.5015 0.9621
8.4163 -4.0399 -2.5015 0.9621
9.1381 -1.9103 -2.5015 0.9621
9.3017 -0.7959 -2.5015 0.9621
9.2222 1.4512 -2.5015 0.9621
6.4144 2.6933 -1.8641 0.9716
6.3570 6.0383 -2.3493 0.9643
5.5835 6.7599 -2.3493 0.9643
3.8052 7.8988 -2.3493 0.9643
0.7599 8.7347 -2.3493 0.9643
-0.1999 5.8863 -1.5781 0.9759
-3.3829 8.0888 -2.3493 0.9643
-5.2188 7.0453 -2.3493 0.9643
-6.7520 5.5931 -2.3493 0.9643
-7.3764 4.7392 -2.3493 0.9643
-8.3814 4.0523 -2.4945 0.9622
-8.8331 3.0219 -2.5015 0.9621
-9.1327 1.9361 -2.5015 0.9621
-9.2263 -1.4252 -2.5015 0.9621
-8.1228 -4.6016 -2.5015 0.9621
-7.5095 -5.5463 -2.5015 0.9621
-3.0344 -8.8288 -2.5015 0.9621
-1.9490 -9.1300 -2.5015 0.9621
0.2905 -9.3312 -2.5015 0.9621
1.4121 -9.2283 -2.5015 0.9621
2.5132 -8.9910 -2.5015 0.9621
3.5777 -8.6229 -2.5015 0.9621
6.4007 -6.7960 -2.5015 0.9621
7.8400 -5.0684 -2.5015 0.9621
8.8245 -3.0468 -2.5015 0.9621
9.1272 -1.9619 -2.5015 0.9621
9.3316 0.2773 -2.5015 0.9621
9.2302 1.3991 -2.5015 0.9621
7.1633 1.9914 -1.9922 0.9697
6.6959 3.7683 -2.0588 0.9687
7.0673 5.1889 -2.3493 0.9643
5.6216 6.7282 -2.3493 0.9643
3.8498 7.8772 -2.3493 0.9643
1.8547 8.5692 -2.3493 0.9643
-1.3017 8.6705 -2.3493 0.9643
-2.3364 8.4506 -2.3493 0.9643
