ply
format ascii 1.0
element vertex 1578
property float32 x
property float32 y
property float32 z
property float32 I
end_header
34.5246 36.7319 9.7987 0.8143
4.8775 8.6551 1.9311 0.9603
2.4176 8.6702 1.7496 0.9640
1.3230 8.6769 1.7061 0.9649
0.2665 8.6834 1.6887 0.9652
-4.2275 8.7110 1.8821 0.9613
-56.5903 53.4747 15.1342 0.7281
-50.6917 -24.4341 10.9384 0.7951
-18.0142 -31.5713 7.0656 0.8623
-14.1500 -33.6659 7.0985 0.8617
-0.4924 -13.6667 2.6583 0.9458
34.8609 -42.4335 10.6748 0.7995
95.2184 19.5570 18.8950 0.6729
34.5197 35.9505 9.6880 0.8162
35.4891 47.2233 11.4825 0.7861
4.9994 8.6543 1.9427 0.9601
3.6953 8.6623 1.8306 0.9624
2.5173 8.6696 1.7548 0.9639
1.4177 8.6763 1.7089 0.9648
-1.7619 8.6959 1.7246 0.9645
-2.8892 8.7028 1.7824 0.9633
-55.3871 53.4674 14.9641 0.7307
-66.8952 -13.3682 13.2602 0.7573
-57.4403 -18.8991 11.7541 0.7816
-64.6815 -30.3316 13.8866 0.7474
-55.1001 -44.5337 13.7712 0.7492
-62.9273 -64.8400 17.5633 0.6920
-9.2158 -31.1179 6.3084 0.8761
-1.8915 -40.4922 7.8795 0.8477
24.8587 -39.9648 9.1486 0.8255
33.9642 -42.2526 10.5376 0.8018
49.7087 -48.5005 13.4996 0.7535
60.1129 -45.9328 14.7055 0.7347
59.7147 -26.0405 12.6630 0.7669
43.5979 20.1618 9.3369 0.8222
35.5836 46.3121 11.3525 0.7882
5.1228 8.6536 1.9547 0.9599
2.6177 8.6689 1.7602 0.9638
-0.5971 8.6887 1.6929 0.9651
-1.6654 8.6953 1.7209 0.9646
-2.7863 8.7022 1.7761 0.9635
-11.6135 25.2899 5.4094 0.8928
-13.9335 22.6693 5.1723 0.8972
-55.2924 54.5271 15.0948 0.7287
-69.9676 -13.2078 13.8405 0.7482
-54.2236 -42.8773 13.4371 0.7545
-18.9148 -31.5658 7.1530 0.8608
-15.0005 -33.6607 7.1633 0.8606
-10.3653 -33.6759 6.8490 0.8663
23.6278 -52.1846 11.1350 0.7918
25.5231 -42.0258 9.5575 0.8184
60.0396 18.6953 12.2232 0.7740
44.7224 20.1056 9.5312 0.8189
35.0733 44.6541 11.0372 0.7934
34.6502 57.1324 12.9882 0.7616
2.7188 8.6683 1.7659 0.9637
0.5448 8.6817 1.6909 0.9652
-0.5040 8.6881 1.6916 0.9652
-2.6841 8.7015 1.7700 0.9636
-13.6347 22.7229 5.1510 0.8976
-18.0413 23.1946 5.7119 0.8872
-54.9877 55.3959 15.1721 0.7276
-54.3172 -16.5961 11.0400 0.7934
-64.5189 -28.5927 13.7176 0.7501
-55.1134 -42.6335 13.5441 0.7528
-20.6462 -33.6362 7.6716 0.8514
-15.4316 -33.6581 7.1973 0.8600
38.4930 -87.4882 18.5792 0.6774
23.9945 -40.4759 9.1463 0.8255
32.5443 -42.3034 10.3747 0.8045
49.8945 -50.8038 13.8413 0.7481
74.5893 -46.0581 17.0401 0.6996
95.8687 16.5132 18.9094 0.6727
35.3336 34.5165 9.6014 0.8177
35.5712 44.3069 11.0445 0.7933
1.7040 8.6746 1.7184 0.9646
0.6378 8.6811 1.6920 0.9652
-0.4111 8.6876 1.6906 0.9652
-1.4737 8.6941 1.7141 0.9647
-3.7762 8.7082 1.8450 0.9621
-17.6458 23.1922 5.6646 0.8880
-53.9617 55.5347 15.0516 0.7294
-56.4494 -16.5914 11.4368 0.7868
-21.1415 -33.6331 7.7219 0.8505
-10.6060 -32.0128 6.5553 0.8716
-3.1917 -40.4843 7.8938 0.8475
24.9999 -43.2160 9.7047 0.8159
59.8718 -48.8599 15.0214 0.7299
60.2374 -28.5958 12.9613 0.7621
35.5075 33.9539 9.5497 0.8186
4.1392 8.6596 1.8657 0.9616
2.9229 8.6671 1.7779 0.9634
-0.3183 8.6870 1.6897 0.9652
-1.3784 8.6935 1.7110 0.9648
-2.4817 8.7003 1.7586 0.9638
-3.6660 8.7076 1.8365 0.9622
-4.9801 8.7156 1.9512 0.9599
-17.2566 23.1898 5.6188 0.8889
-52.8152 55.5276 14.8961 0.7318
-79.1447 26.9259 16.2501 0.7113
-79.4445 6.9031 15.5006 0.7226
-78.2003 -12.1853 15.3840 0.7243
-56.7840 -16.0338 11.4693 0.7863
-57.2330 -42.3532 13.8398 0.7482
-16.3066 -33.6527 7.2689 0.8587
-10.8481 -31.6101 6.4961 0.8727
-7.1808 -33.6954 6.6968 0.8690
-3.6263 -40.4816 7.9003 0.8474
24.6415 -43.6644 9.7458 0.8152
31.0360 -42.1745 10.1784 0.8079
60.2242 -29.3806 13.0252 0.7611
35.1512 19.7138 7.8339 0.8486
35.4582 25.9480 8.5408 0.8361
35.5030 33.2321 9.4526 0.8202
35.5595 42.4068 10.7575 0.7981
35.4949 54.5123 12.6444 0.7672
3.0260 8.6664 1.7843 0.9633
0.5597 5.8938 1.1508 0.9762
-4.8571 8.7149 1.9393 0.9602
-51.6921 55.5207 14.7455 0.7341
-63.5193 53.5522 16.1494 0.7128
-78.5190 7.6672 15.3351 0.7251
-57.7932 -15.6552 11.6387 0.7835
-58.6753 -42.4596 14.0783 0.7444
-7.5568 -33.6930 6.7120 0.8687
-3.7895 -37.7655 7.3777 0.8567
35.1817 -87.4499 18.3226 0.6811
52.3689 -44.6317 13.3749 0.7555
47.9317 19.1351 10.0320 0.8103
36.0371 19.7083 7.9840 0.8459
35.4547 25.3692 8.4742 0.8372
35.4987 32.5247 9.3586 0.8219
35.5539 41.4931 10.6213 0.8004
3.1298 8.6658 1.7910 0.9632
1.9938 8.6728 1.7298 0.9644
-0.1327 8.6817 1.6878 0.9652
-1.1887 8.6923 1.7053 0.9649
-2.2819 8.6991 1.7481 0.9640
-4.7356 8.7141 1.9278 0.9604
-16.4965 23.1851 5.5311 0.8905
-78.3730 8.4978 15.3235 0.7253
-79.4962 -31.2455 16.6032 0.7061
-59.7886 -32.2850 13.2078 0.7581
-57.0762 -65.8959 16.9456 0.7010
-22.6679 -33.6238 7.8823 0.8477
-3.7948 -34.1487 6.6787 0.8694
34.1071 -87.4613 18.2477 0.6821
46.3308 -86.3502 19.0482 0.6708
63.8392 -43.2861 14.9927 0.7303
59.7241 -30.7306 13.0558 0.7606
36.9577 19.7027 8.1409 0.8431
34.5413 39.4519 10.1926 0.8076
35.5751 52.1668 12.2736 0.7731
3.2345 8.6651 1.7979 0.9630
2.0913 8.6722 1.7340 0.9643
1.0113 8.6788 1.6984 0.9650
-1.0943 8.6918 1.7028 0.9649
-2.1829 8.6985 1.7432 0.9641
-3.3415 8.7056 1.8126 0.9627
-4.6085 8.7002 1.9138 0.9607
-16.1253 23.1828 5.4892 0.8913
-60.8184 53.5356 15.7495 0.7188
-21.5754 2.5725 4.2235 0.9153
-57.2637 -14.2080 11.4684 0.7863
-63.0370 -33.1756 13.8465 0.7481
-38.0215 -8.8720 6.1838 0.8537
-65.2666 -33.1932 11.5973 0.7434
-59.6287 -65.5101 14.0304 0.6985
-10.0085 -25.3107 4.3109 0.8956
-4.3056 -31.6265 5.0553 0.8787
31.6245 -87.3960 14.7205 0.6863
26.7145 -40.0332 7.6228 0.8229
48.0466 -43.9679 10.3153 0.7682
59.9089 -42.8124 11.6625 0.7421
54.7986 19.6640 9.2211 0.7900
39.2296 19.6887 6.9520 0.8371
35.4849 30.2791 7.3883 0.8279
7.9455 8.6362 1.8587 0.9536
4.7570 8.6558 1.5643 0.9608
3.4794 8.6636 1.4787 0.9629
-3.0972 8.7041 1.4633 0.9633
-4.3432 8.7117 1.5418 0.9613
-7.4096 8.7306 1.8137 0.9547
-79.2630 43.8365 14.3460 0.6929
-50.5431 -25.0302 8.9331 0.7958
-60.2432 -64.7836 14.0116 0.6989
-12.9022 -31.6376 5.4116 0.8708
31.4896 -90.0120 15.1037 0.6796
26.2879 -40.3187 7.6233 0.8229
60.0888 -43.9166 11.7880 0.7398
56.4591 19.5826 9.4648 0.7850
41.2933 20.1760 7.2792 0.8302
8.1162 8.6352 1.8770 0.9531
6.3545 8.6460 1.6995 0.9575
4.8775 8.6551 1.5735 0.9606
3.5869 8.6630 1.4850 0.9627
2.4176 8.6702 1.4256 0.9642
1.3230 8.6769 1.3902 0.9651
-0.7837 8.6898 1.3819 0.9653
-1.8588 8.6965 1.4085 0.9646
-4.2275 8.7110 1.5336 0.9615
-5.6191 8.7196 1.6430 0.9589
-79.6488 45.1658 14.5022 0.6902
-57.6058 -12.1522 9.3247 0.7879
-64.9555 -31.3095 11.4207 0.7467
-18.0142 -31.5713 5.7571 0.8631
-13.2965 -31.6352 5.4351 0.8703
-9.0092 -31.6562 5.2130 0.8752
-0.5300 -14.7098 2.3313 0.9421
31.4704 -93.1322 15.5701 0.6716
24.6260 -51.4401 9.0328 0.7938
25.7530 -40.4346 7.5928 0.8235
45.8977 -43.8364 10.0524 0.7733
60.1212 -44.9318 11.8877 0.7379
59.7692 -25.3091 10.2802 0.7688
65.8391 13.5227 10.6456 0.7617
58.4295 19.5705 9.7596 0.7791
42.3676 20.1441 7.4302 0.8270
6.4969 8.6451 1.7128 0.9571
4.9994 8.6543 1.5830 0.9603
3.6953 8.6623 1.4916 0.9626
0.3592 8.6828 1.3764 0.9654
-0.6903 8.6893 1.3806 0.9653
-5.4879 8.7188 1.6317 0.9591
-55.3871 53.4673 12.1930 0.7321
-68.2963 -13.6482 11.0310 0.7542
-66.9002 -31.3720 11.7032 0.7414
-81.2657 -50.8494 15.1833 0.6783
-18.4618 -31.5686 5.7922 0.8623
-9.3746 -31.6540 5.2288 0.8749
-5.3401 -31.6201 5.0791 0.8782
24.0150 -51.5688 9.0099 0.7942
44.8643 -43.7738 9.9277 0.7758
60.1151 -45.9345 11.9827 0.7361
59.8109 -35.1927 10.9913 0.7550
69.7081 13.5442 11.2471 0.7501
60.0439 19.4015 9.9942 0.7745
43.5980 20.1618 7.6079 0.8232
34.9314 21.5989 6.5048 0.8468
35.4731 28.3591 7.1931 0.8320
2.6177 8.6689 1.4343 0.9640
0.4520 8.6823 1.3770 0.9654
-1.6654 8.6953 1.4022 0.9648
-2.7863 8.7022 1.4472 0.9637
-55.2924 54.5271 12.2995 0.7302
-78.2784 46.6227 14.4305 0.6914
-80.4795 24.5367 13.3260 0.7112
-18.9148 -31.5658 5.8284 0.8615
-9.7423 -31.6518 5.2452 0.8745
32.6406 -41.5051 8.3631 0.8075
42.1300 -41.9923 9.4213 0.7859
60.0396 18.6953 9.9597 0.7752
44.7224 20.1056 7.7662 0.8199
34.9282 21.0853 6.4620 0.8477
35.4693 27.7412 7.1319 0.8333
8.6497 8.6319 1.9354 0.9517
5.2478 8.6528 1.6028 0.9598
2.7188 8.6683 1.4389 0.9639
0.5448 8.6817 1.3777 0.9654
-1.5693 8.6947 1.3994 0.9649
-2.6841 8.7015 1.4423 0.9638
-3.8814 8.6956 1.5082 0.9622
-8.6739 8.7383 1.9501 0.9514
-79.5773 48.5535 14.7646 0.6856
-19.3952 -31.5980 5.8722 0.8606
-10.1123 -31.6495 5.2624 0.8741
-2.1551 -31.6396 5.0228 0.8795
24.4039 -41.1665 7.5797 0.8238
32.2065 -41.8643 8.3658 0.8074
53.7222 -42.8954 10.8884 0.7570
59.8999 -36.9875 11.1502 0.7519
60.2039 -27.7970 10.5027 0.7645
76.3917 -24.6327 12.7127 0.7225
78.0704 13.4475 12.5472 0.7255
60.1355 18.0239 9.9431 0.7755
34.9251 20.5785 6.4204 0.8486
35.4655 27.1335 7.0726 0.8346
8.8350 8.6307 1.9562 0.9512
4.0266 8.6603 1.5127 0.9621
2.8205 8.6677 1.4437 0.9638
1.7040 8.6746 1.4002 0.9648
-0.4111 8.6876 1.3775 0.9654
-6.6391 8.7258 1.7366 0.9566
-8.4897 8.7372 1.9295 0.9519
-80.9654 26.5849 13.4973 0.7081
-78.0023 5.9403 12.3901 0.7285
-56.0833 -16.4838 9.2585 0.7892
-14.9098 -31.6253 5.5377 0.8680
-10.4849 -31.6472 5.2804 0.8737
-6.3901 -31.6374 5.1121 0.8775
24.0696 -41.6079 7.6133 0.8231
52.4020 -42.7640 10.7126 0.7604
59.8613 -37.8514 11.2175 0.7506
59.9498 -28.4592 10.5107 0.7643
60.4014 17.4037 9.9558 0.7753
45.1530 19.1522 7.7683 0.8199
35.4618 26.5360 7.0150 0.8358
7.0906 8.6415 1.7704 0.9557
4.1392 8.6596 1.5202 0.9619
2.9229 8.6671 1.4487 0.9636
1.8002 8.6740 1.4031 0.9648
-1.3784 8.6935 1.3941 0.9650
-4.9801 8.7156 1.5899 0.9602
-8.2936 8.7195 1.9060 0.9524
-57.4736 -16.2286 9.4589 0.7852
-65.1396 -36.9903 11.8645 0.7383
-56.7078 -41.9646 11.1735 0.7515
-20.3319 -31.5923 5.9504 0.8589
-10.8481 -31.6101 5.2932 0.8734
-2.8339 -31.6355 5.0306 0.8793
22.5515 -54.3733 9.3232 0.7879
23.3883 -41.4436 7.5372 0.8247
28.7380 -39.0519 7.6795 0.8217
39.7076 -42.1950 9.1769 0.7908
59.6897 -38.6401 11.2619 0.7498
59.8453 -29.1957 10.5464 0.7636
35.1512 19.7138 6.3832 0.8494
35.5031 33.2321 7.7022 0.8212
7.2453 8.6405 1.7860 0.9554
5.6326 8.6504 1.6349 0.9591
4.2529 8.6589 1.5279 0.9617
3.0260 8.6664 1.4539 0.9635
-0.2255 8.6864 1.3763 0.9654
-2.3815 8.6997 1.4286 0.9641
-6.3485 8.7241 1.7089 0.9572
-63.5193 53.5522 13.1588 0.7143
-77.4153 7.5595 12.3197 0.7298
-81.7632 -11.8487 13.0853 0.7156
-80.0687 -32.4606 13.6842 0.7048
-15.7404 -31.6202 5.5944 0.8667
-11.2255 -31.6078 5.3125 0.8730
-3.1742 -31.6334 5.0354 0.8792
28.4143 -39.4873 7.7051 0.8212
38.8155 -42.1386 9.0741 0.7929
49.8915 -42.5203 10.3826 0.7668
59.6841 -39.5462 11.3398 0.7483
59.8429 -29.9889 10.6017 0.7626
68.7855 -24.6360 11.5722 0.7439
35.4547 25.3692 6.9050 0.8381
35.4987 32.5247 7.6255 0.8228
7.4029 8.6395 1.8020 0.9550
5.7644 8.6496 1.6463 0.9588
3.1298 8.6658 1.4593 0.9634
0.6229 5.8917 0.9384 0.9763
-1.1887 8.6923 1.3895 0.9651
-2.2819 8.6991 1.4244 0.9642
-48.6934 53.4313 11.4497 0.7462
-62.1518 53.5438 12.9931 0.7173
-63.9766 -34.5464 11.5158 0.7449
-56.2949 -39.8292 10.9222 0.7563
-11.6057 -31.6055 5.3326 0.8725
30.4681 -78.1297 13.2822 0.7120
22.1131 -41.2138 7.4079 0.8274
28.6895 -40.7802 7.8972 0.8172
38.0342 -42.1845 8.9961 0.7945
49.9393 -43.4889 10.4884 0.7648
62.3457 -42.2734 11.9305 0.7371
37.1431 19.8015 6.6667 0.8433
34.9490 24.4480 6.7553 0.8414
7.5633 8.6385 1.8185 0.9546
5.8980 8.6488 1.6580 0.9585
2.0913 8.6722 1.4129 0.9645
-6.0670 8.7223 1.6828 0.9579
-7.7897 8.7329 1.8535 0.9537
-60.8183 53.5356 12.8330 0.7203
-21.5200 2.5658 3.4325 0.9160
-78.1076 -54.0213 15.0416 0.6807
-7.5722 8.7316 1.4191 0.9545
-80.0438 43.1599 11.1658 0.6932
-65.7113 -33.4193 9.0518 0.7430
-79.6536 -53.4610 11.7789 0.6794
-23.4376 -32.9826 4.9681 0.8495
-10.0079 -25.3091 3.3417 0.8961
-7.3881 -28.2345 3.5835 0.8890
-1.2366 -84.2274 10.3429 0.7121
28.6433 -79.1571 10.3360 0.7123
26.7999 -40.1612 5.9283 0.8232
46.0561 -42.1464 7.6654 0.7776
59.9089 -42.8124 9.0411 0.7432
93.5105 -24.7355 11.8765 0.6772
66.6907 -9.2604 8.2671 0.7624
64.3989 6.6747 7.9495 0.7703
60.0087 13.6653 7.5568 0.7803
54.7986 19.6640 7.1485 0.7909
12.9438 8.5877 1.9073 0.9393
10.1054 8.6229 1.6311 0.9479
3.4794 8.6636 1.1463 0.9631
2.3184 8.6708 1.1020 0.9645
0.1738 8.6840 1.0665 0.9656
-0.8773 8.6904 1.0725 0.9654
-3.0972 8.7041 1.1344 0.9635
-4.3432 8.7117 1.1952 0.9615
-7.4096 8.7306 1.4060 0.9549
-9.4525 8.7431 1.5810 0.9494
-38.1445 -8.4727 4.7977 0.8543
-50.3199 -24.9197 6.8946 0.7975
-23.7881 -32.7307 4.9681 0.8495
-17.6935 -31.7921 4.4674 0.8636
-9.1988 -33.6830 4.2872 0.8687
-2.1352 -84.2219 10.3445 0.7121
23.8161 -48.4157 6.6250 0.8046
25.3300 -38.8497 5.6945 0.8295
24.6278 -29.3339 4.7028 0.8570
59.6718 -33.4183 8.3975 0.7591
59.8184 -24.5809 7.9407 0.7706
64.1136 -17.6933 8.1664 0.7649
64.2170 -9.6160 7.9728 0.7698
66.7361 -1.8699 8.1974 0.7641
62.5339 13.5405 7.8561 0.7727
56.7423 19.6809 7.3743 0.7850
34.9379 22.6470 5.1122 0.8455
10.3249 8.6216 1.6516 0.9472
8.1162 8.6352 1.4551 0.9534
6.3545 8.6460 1.3175 0.9577
3.5869 8.6630 1.1513 0.9629
-2.9928 8.7034 1.1301 0.9636
-5.6191 8.7196 1.2737 0.9591
-7.2500 8.7296 1.3933 0.9553
-9.2512 8.7419 1.5628 0.9500
-80.0352 45.3849 11.2971 0.6902
-24.1358 -32.4752 4.9681 0.8495
-18.0143 -31.5713 4.4631 0.8637
-14.1500 -33.6660 4.4839 0.8631
-0.5834 -16.1918 1.9894 0.9368
23.1040 -48.2609 6.5697 0.8060
44.1155 -42.1343 7.4904 0.7820
56.3549 -42.1170 8.6384 0.7531
59.7165 -34.2851 8.4548 0.7577
59.7692 -25.3091 7.9696 0.7698
86.7773 -24.9467 11.0865 0.6950
66.6817 -10.7135 8.2925 0.7617
64.3086 5.2817 7.9227 0.7710
65.8391 13.5227 8.2528 0.7627
58.6347 19.6392 7.5925 0.7794
42.3676 20.1441 5.7601 0.8277
15.5171 9.8249 2.2551 0.9287
10.5499 8.6202 1.6728 0.9466
3.6953 8.6623 1.1563 0.9628
2.5173 8.6696 1.1085 0.9643
1.4177 8.6763 1.0794 0.9652
-0.6903 8.6893 1.0703 0.9655
-2.8892 8.7028 1.1259 0.9637
-4.1057 8.6950 1.1806 0.9620
-9.0545 8.7407 1.5452 0.9505
-11.5870 8.7562 1.7832 0.9431
-65.2228 -30.5854 8.8452 0.7480
-18.4618 -31.5686 4.4903 0.8630
-14.5733 -33.6634 4.5040 0.8626
-9.9741 -33.6783 4.3127 0.8680
-5.6921 -33.7045 4.1970 0.8713
-1.8880 -40.4179 4.9681 0.8495
22.7378 -48.8263 6.6133 0.8049
24.7610 -39.8077 5.7562 0.8278
32.8396 -40.8536 6.4359 0.8096
43.4255 -42.3700 7.4495 0.7831
59.7113 -35.1341 8.5066 0.7564
59.7646 -26.0622 8.0056 0.7689
83.6115 -25.0050 10.7155 0.7035
64.2084 -11.0198 7.9991 0.7691
66.7769 4.7680 8.2200 0.7635
60.0439 19.4015 7.7478 0.7755
8.4682 8.6330 1.4848 0.9524
6.6417 8.6442 1.3385 0.9570
1.5128 8.6757 1.0813 0.9651
-11.6135 25.2899 3.4170 0.8939
-5.3584 8.7180 1.2565 0.9596
-6.9393 8.7277 1.3691 0.9561
-11.3316 8.7547 1.7582 0.9439
-24.8229 -31.9530 4.9681 0.8495
-18.9148 -31.5658 4.5184 0.8622
32.5455 -41.3842 6.4644 0.8088
42.5033 -42.3644 7.3684 0.7852
54.1072 -42.2653 8.4302 0.7583
59.7060 -35.9937 8.5601 0.7551
66.6728 -12.1762 8.3218 0.7610
64.3001 3.9024 7.9096 0.7714
64.2949 11.7823 8.0259 0.7684
60.0396 18.6953 7.7211 0.7761
34.9283 21.0853 5.0095 0.8484
11.0179 8.6173 1.7175 0.9452
8.6497 8.6319 1.5004 0.9519
6.7888 8.6433 1.3495 0.9567
5.2478 8.6528 1.2426 0.9600
29.3151 64.8502 8.7384 0.7507
2.7188 8.6683 1.1155 0.9641
0.5448 8.6817 1.0681 0.9656
-0.5040 8.6881 1.0686 0.9655
-2.6841 8.7015 1.1181 0.9640
-5.2307 8.7172 1.2482 0.9599
-6.7879 8.7268 1.3575 0.9564
-8.6739 8.7383 1.5118 0.9516
-11.0832 8.7532 1.7341 0.9447
-25.1624 -31.6864 4.9681 0.8495
-15.4316 -33.6581 4.5463 0.8614
-6.4336 -33.7000 4.2126 0.8709
-2.7497 -40.3684 4.9681 0.8495
26.7427 -88.3675 11.3361 0.6893
22.8460 -51.9251 6.9654 0.7956
41.6007 -42.3588 7.2898 0.7872
52.9466 -42.2761 8.3191 0.7611
59.7006 -36.8644 8.6152 0.7537
64.2813 -12.4493 8.0394 0.7681
66.7681 3.3377 8.2083 0.7638
60.1355 18.0239 7.7082 0.7765
34.9252 20.5785 4.9773 0.8493
11.2615 8.6158 1.7410 0.9445
8.8350 8.6307 1.5165 0.9514
5.3744 8.6520 1.2506 0.9598
4.0266 8.6603 1.1727 0.9622
-0.4111 8.6876 1.0679 0.9656
-3.7762 8.7082 1.1654 0.9625
-5.1046 8.7164 1.2403 0.9601
-8.4897 8.7372 1.4958 0.9521
-58.8151 -17.2867 7.5270 0.7811
-15.8670 -33.6554 4.5686 0.8608
-10.6060 -32.0128 4.1408 0.8729
-3.1801 -40.3368 4.9681 0.8495
40.8836 -42.5266 7.2432 0.7884
51.7956 -42.2691 8.2086 0.7638
59.6952 -37.7464 8.6720 0.7523
64.1417 -13.1335 8.0390 0.7681
60.2314 17.3547 7.6964 0.7768
34.9221 20.0779 4.9461 0.8502
11.5119 8.6143 1.7654 0.9437
9.0244 8.6296 1.5331 0.9509
7.0906 8.6415 1.3725 0.9560
5.5026 8.6512 1.2589 0.9595
4.1392 8.6596 1.1785 0.9621
-0.3183 8.6870 1.0673 0.9656
-6.4927 8.7249 1.3354 0.9571
-8.3094 8.7361 1.4804 0.9526
-80.3917 27.3501 10.4265 0.7102
-81.1888 -12.6510 10.0890 0.7181
-79.5802 -33.2552 10.5901 0.7064
-26.1469 -31.5215 5.0286 0.8479
-16.3066 -33.6528 4.5916 0.8601
-7.1808 -33.6954 4.2302 0.8704
21.4956 -51.8275 6.8892 0.7976
39.7074 -42.1947 7.1142 0.7918
50.6742 -42.2622 8.1019 0.7665
64.3213 -5.9349 7.9312 0.7708
64.2338 1.8387 7.8901 0.7718
66.8094 10.0456 8.2954 0.7616
60.2271 16.6599 7.6727 0.7774
46.5070 19.1439 6.1752 0.8165
35.1512 19.7138 4.9484 0.8501
11.7656 8.6099 1.7901 0.9429
4.2529 8.6589 1.1845 0.9619
3.0260 8.6664 1.1271 0.9637
0.5594 5.8916 0.7267 0.9764
-2.3815 8.6997 1.1075 0.9643
-3.5569 8.7069 1.1548 0.9628
-4.8571 8.7149 1.2250 0.9606
-10.3771 8.7488 1.6666 0.9468
-79.1027 27.8564 10.2972 0.7132
-81.2795 -32.9515 10.7688 0.7023
-63.0774 -34.9348 8.8534 0.7478
-22.1521 -33.6270 4.9442 0.8502
-16.7508 -33.6500 4.6153 0.8594
-11.2255 -31.6078 4.1184 0.8736
-7.5569 -33.6931 4.2398 0.8701
5.5081 -38.7366 4.8041 0.8541
23.4844 -42.6709 5.9804 0.8218
28.4170 -39.4911 5.9738 0.8220
66.7550 1.1985 8.1978 0.7641
62.3112 8.6907 7.7249 0.7760
60.2228 15.9693 7.6500 0.7780
47.9318 19.1351 6.3369 0.8122
12.0344 8.6111 1.8169 0.9421
7.4029 8.6395 1.3970 0.9552
5.7644 8.6496 1.2763 0.9590
3.1298 8.6658 1.1313 0.9635
1.9938 8.6728 1.0927 0.9648
-1.1887 8.6923 1.0772 0.9653
-3.4488 8.7062 1.1498 0.9630
-4.7356 8.7141 1.2177 0.9608
-6.2067 8.7232 1.3145 0.9578
-10.1537 8.7474 1.6456 0.9474
-79.9918 29.1320 10.4528 0.7096
-17.1996 -33.6473 4.6398 0.8587
-11.6058 -31.6055 4.1340 0.8731
-3.7948 -34.1487 4.2187 0.8707
30.0613 -77.0867 10.1593 0.7164
24.5282 -45.7150 6.3700 0.8113
28.0728 -39.9036 5.9905 0.8215
38.0342 -42.1845 6.9740 0.7954
48.5868 -42.3111 7.9107 0.7713
59.6885 -30.7123 8.2421 0.7630
64.2790 0.4684 7.8927 0.7718
66.8005 8.5916 8.2696 0.7623
36.9576 19.7027 5.1424 0.8447
9.6186 8.6259 1.5864 0.9493
7.5633 8.6385 1.4098 0.9548
5.8980 8.6488 1.2854 0.9587
3.2345 8.6651 1.1357 0.9634
-2.1829 8.6985 1.1012 0.9645
-4.6155 8.7134 1.2107 0.9610
-6.0670 8.7223 1.3046 0.9581
-9.9359 8.7461 1.6253 0.9481
-57.9500 -14.3783 7.3311 0.7861
-9.6585 8.7444 1.1399 0.9490
-23.8879 -33.6163 3.6080 0.8474
-17.6985 -32.6150 3.2465 0.8616
27.9667 -77.2874 7.1908 0.7189
22.0865 -43.7160 4.2851 0.8215
26.8517 -40.2389 4.2323 0.8235
36.3217 -42.3372 4.8804 0.7993
59.0320 -42.1857 6.3479 0.7473
60.1753 -32.8621 5.9985 0.7593
62.8577 -25.0496 5.9199 0.7621
64.1182 -16.9606 5.8025 0.7662
64.1677 -8.9100 5.6678 0.7710
64.2156 -1.1140 5.6190 0.7727
64.2634 6.6607 5.6524 0.7715
53.2339 19.1025 4.9481 0.7968
39.2296 19.6887 3.8402 0.8384
10.1054 8.6229 1.1622 0.9481
7.9455 8.6362 1.0267 0.9540
3.4794 8.6636 0.8168 0.9632
2.3184 8.6708 0.7852 0.9646
1.2285 8.6775 0.7668 0.9654
0.1738 8.6840 0.7599 0.9657
-0.8773 8.6904 0.7642 0.9655
-1.9561 8.6971 0.7799 0.9648
-3.0972 8.7041 0.8083 0.9636
-4.3432 8.7117 0.8516 0.9617
-5.7522 8.7204 0.9140 0.9589
-7.4096 8.7306 1.0018 0.9551
-9.4525 8.7431 1.1265 0.9496
-12.1203 8.7595 1.3083 0.9417
-38.1271 -8.4689 3.4170 0.8549
-12.9022 -31.6376 2.9893 0.8718
-8.6459 -31.6585 2.8712 0.8765
-2.1352 -84.2219 7.3708 0.7130
43.7990 -40.9477 5.2457 0.7860
57.7797 -42.2289 6.2613 0.7502
59.9210 -33.5579 6.0085 0.7590
59.8184 -24.5809 5.6581 0.7713
64.1634 -9.6080 5.6762 0.7707
64.2114 -1.7992 5.6200 0.7727
64.2592 5.9682 5.6461 0.7717
56.4592 19.5827 5.2282 0.7867
13.2727 8.6035 1.3838 0.9385
3.5869 8.6630 0.8203 0.9631
2.4176 8.6702 0.7875 0.9645
1.3230 8.6769 0.7679 0.9654
-1.8588 8.6965 0.7780 0.9649
-2.9928 8.7034 0.8052 0.9637
-4.2275 8.7110 0.8471 0.9619
-5.6191 8.7196 0.9075 0.9592
-9.2512 8.7419 1.1136 0.9502
-15.4837 8.7802 1.5573 0.9310
-24.9789 -33.6097 3.6636 0.8452
-18.0143 -31.5713 3.1801 0.8642
-13.2965 -31.6352 3.0023 0.8713
-3.8627 -24.4582 2.1663 0.9054
25.3024 -39.7271 4.1208 0.8277
42.8390 -40.9150 5.1827 0.7883
56.5312 -42.2487 6.1745 0.7532
59.7692 -25.3091 5.6786 0.7706
64.1591 -10.3082 5.6852 0.7703
64.2072 -2.4848 5.6216 0.7726
64.3037 13.2074 5.7433 0.7683
13.5850 8.6015 1.4067 0.9375
10.5499 8.6202 1.1919 0.9468
4.9994 8.6543 0.8744 0.9607
3.6953 8.6623 0.8239 0.9629
1.4177 8.6763 0.7691 0.9653
0.3592 8.6828 0.7603 0.9657
-1.7619 8.6959 0.7762 0.9650
-4.1057 8.6950 0.8413 0.9621
-9.0545 8.7407 1.1010 0.9507
-11.5870 8.7562 1.2706 0.9434
-15.1019 8.7779 1.5282 0.9323
-20.5027 8.8110 1.9524 0.9143
-18.4618 -31.5686 3.1995 0.8634
-13.6943 -31.6328 3.0157 0.8707
-9.3746 -31.6540 2.8883 0.8759
-1.8915 -40.4923 3.5465 0.8498
23.3831 -50.2120 4.8460 0.8006
32.8396 -40.8536 4.5858 0.8102
59.8109 -35.1927 6.0714 0.7568
60.2134 -26.2580 5.7471 0.7682
64.2507 4.5876 5.6355 0.7721
60.0439 19.4015 5.5206 0.7762
10.7808 8.6188 1.2076 0.9461
2.6177 8.6689 0.7923 0.9643
-0.5971 8.6887 0.7620 0.9656
-1.6654 8.6953 0.7746 0.9651
-2.7863 8.7022 0.7994 0.9640
-11.6135 25.2899 2.4347 0.8943
-14.7340 8.7756 1.5004 0.9335
-18.9148 -31.5658 3.2195 0.8626
-4.5254 -25.1589 2.2364 0.9025
-1.8198 -31.7003 2.7780 0.8803
27.1877 -86.4995 7.9327 0.6948
23.1233 -51.0705 4.9047 0.7984
32.6406 -41.5051 4.6196 0.8090
42.0546 -41.9172 5.1948 0.7879
54.1302 -42.2834 6.0094 0.7590
60.1544 -36.2640 6.1452 0.7542
59.5522 -18.5040 5.4559 0.7785
14.2420 8.5975 1.4554 0.9354
8.6497 8.6319 1.0691 0.9521
6.7888 8.6433 0.9616 0.9568
5.2478 8.6528 0.8854 0.9602
2.7188 8.6683 0.7948 0.9642
1.6082 8.6752 0.7719 0.9652
-1.5693 8.6947 0.7730 0.9651
-2.6841 8.7015 0.7967 0.9641
-3.8814 8.6956 0.8331 0.9625
-5.2307 8.7172 0.8894 0.9600
-6.7879 8.7268 0.9673 0.9566
-14.3793 8.7734 1.4737 0.9346
-19.3382 8.8039 1.8590 0.9182
-14.4848 -31.5929 3.0407 0.8697
-6.0469 -31.6744 2.8212 0.8786
-2.1592 -31.6982 2.7797 0.8802
24.5163 -41.3560 4.2062 0.8244
41.4117 -42.1664 5.1707 0.7887
52.9465 -42.2760 5.9277 0.7618
60.1490 -37.1413 6.1848 0.7529
60.2039 -27.7970 5.8015 0.7662
59.2076 -19.0917 5.4426 0.7790
64.1945 -4.5447 5.6303 0.7723
60.1355 18.0239 5.4924 0.7772
14.5878 8.5954 1.4813 0.9343
11.2615 8.6158 1.2405 0.9447
8.8350 8.6307 1.0806 0.9516
5.3744 8.6520 0.8911 0.9599
2.8205 8.6677 0.7975 0.9641
1.7040 8.6746 0.7734 0.9651
0.6378 8.6811 0.7615 0.9657
-1.4737 8.6941 0.7715 0.9652
-2.5826 8.7009 0.7941 0.9642
-8.4897 8.7372 1.0658 0.9523
-10.8416 8.7517 1.2190 0.9456
-18.7967 8.8006 1.8158 0.9200
-21.1415 -33.6332 3.4756 0.8526
-6.3972 -31.6723 2.8269 0.8783
25.1565 -86.4410 7.8764 0.6966
21.9567 -51.3838 4.8887 0.7990
40.6819 -42.3167 5.1356 0.7900
51.7954 -42.2690 5.8489 0.7646
60.3610 2.3724 5.2850 0.7846
59.3157 9.5668 5.2565 0.7856
60.0310 17.2970 5.4657 0.7781
45.1530 19.1522 4.2910 0.8212
11.5119 8.6143 1.2579 0.9439
4.1392 8.6596 0.8397 0.9622
1.8002 8.6740 0.7750 0.9651
0.7309 8.6805 0.7621 0.9656
-0.3183 8.6870 0.7605 0.9657
-1.3784 8.6935 0.7701 0.9653
-6.4927 8.7249 0.9515 0.9573
-18.2797 8.7974 1.7748 0.9218
-57.4714 -16.2280 5.2247 0.7868
-21.5589 -33.4989 3.4853 0.8522
-6.7418 -31.6353 2.8299 0.8782
24.5861 -87.9672 7.9911 0.6930
24.1190 -42.7384 4.2935 0.8212
50.6740 -42.2621 5.7729 0.7672
59.4566 -20.5820 5.5046 0.7768
64.1373 -13.8469 5.7406 0.7684
64.2338 1.8387 5.6220 0.7726
58.7728 8.8372 5.1998 0.7877
46.5070 19.1439 4.4001 0.8171
15.3182 8.5909 1.5365 0.9319
9.2180 8.6284 1.1046 0.9506
7.2453 8.6405 0.9865 0.9557
5.6326 8.6504 0.9031 0.9594
4.2529 8.6589 0.8440 0.9620
3.0260 8.6664 0.8031 0.9638
1.8968 8.6734 0.7768 0.9650
0.5593 5.8905 0.5177 0.9765
-1.2834 8.6929 0.7688 0.9653
-2.3815 8.6997 0.7891 0.9644
-3.5569 8.7069 0.8229 0.9629
-4.8571 8.7149 0.8729 0.9607
-8.1327 8.7350 1.0442 0.9532
-10.3771 8.7488 1.1875 0.9470
-17.7854 8.7943 1.7358 0.9234
-22.1521 -33.6270 3.5230 0.8507
-11.2255 -31.6079 2.9346 0.8740
-7.1026 -31.6680 2.8394 0.8778
23.2297 -42.2081 4.2150 0.8241
39.0415 -42.3839 5.0415 0.7934
47.9854 -40.8958 5.5160 0.7763
59.6842 -39.5462 6.2639 0.7502
59.8429 -29.9889 5.8562 0.7643
64.1329 -14.5635 5.7538 0.7679
64.1818 -6.6131 5.6449 0.7718
64.2296 1.1532 5.6203 0.7726
58.8727 8.2111 5.2006 0.7877
47.9318 19.1351 4.5153 0.8128
12.0344 8.6111 1.2946 0.9423
7.4029 8.6395 0.9954 0.9553
5.7644 8.6496 0.9094 0.9591
3.1298 8.6658 0.8061 0.9637
1.9938 8.6728 0.7786 0.9649
-2.2819 8.6991 0.7868 0.9645
-3.4488 8.7062 0.8193 0.9631
-4.7356 8.7141 0.8677 0.9610
-6.2067 8.7232 0.9366 0.9579
-17.3123 8.7914 1.6987 0.9250
-22.6679 -33.6238 3.5478 0.8497
-11.6058 -31.6056 2.9457 0.8735
-7.4577 -31.6658 2.8462 0.8775
22.1192 -86.1935 7.7853 0.6996
27.7545 -39.4512 4.2201 0.8239
38.0342 -42.1845 4.9693 0.7961
62.3457 -42.2734 6.5902 0.7390
60.1869 -30.9688 5.9218 0.7620
64.1285 -15.2835 5.7677 0.7674
64.1775 -7.3052 5.6511 0.7715
59.2863 7.6251 5.2296 0.7866
37.1432 19.8016 3.6826 0.8445
9.6186 8.6259 1.1303 0.9494
7.5633 8.6385 1.0045 0.9549
5.8980 8.6488 0.9159 0.9588
2.0913 8.6722 0.7805 0.9648
1.0113 8.6788 0.7644 0.9655
-0.3050 66.0325 5.7772 0.7671
-1.0943 8.6918 0.7664 0.9654
-3.3415 8.7056 0.8158 0.9633
-7.7897 8.7329 1.0238 0.9541
-9.9359 8.7461 1.1581 0.9482
-12.7775 8.7636 1.3556 0.9397
-16.8588 8.7886 1.6633 0.9265
-21.4550 2.5581 1.8904 0.9169
-57.8337 -14.3494 5.2132 0.7872
-9.6585 8.7444 0.6828 0.9492
-12.3991 8.7612 0.7957 0.9410
-16.2929 8.7852 0.9701 0.9285
-21.4384 2.8604 1.1335 0.9170
-16.5936 -30.5788 1.8233 0.8699
-10.0000 -25.2891 1.4252 0.8968
28.8125 -79.6247 4.4377 0.7124
25.4189 -50.3119 2.9541 0.7979
27.7504 -41.5856 2.6201 0.8185
46.1522 -42.2343 3.2786 0.7783
34.3427 -24.5421 2.2122 0.8444
60.1753 -32.8621 3.5933 0.7599
62.8577 -25.0496 3.5462 0.7626
67.3161 -17.8066 3.6492 0.7566
68.9697 -9.5768 3.6492 0.7566
60.0087 13.6653 3.2254 0.7815
34.5930 12.4134 1.9261 0.8631
10.1054 8.6229 0.6962 0.9482
6.2142 8.6468 0.5580 0.9582
2.3137 8.6535 0.4694 0.9648
1.2272 8.6681 0.4588 0.9655
-3.0962 8.7013 0.4840 0.9637
-5.7522 8.7204 0.5475 0.9590
-9.4525 8.7431 0.6748 0.9497
-12.1203 8.7595 0.7837 0.9419
-33.8174 0.7671 1.7728 0.8733
-38.1099 -8.4650 2.0459 0.8552
-22.9236 -31.5413 2.0435 0.8554
-17.0168 -30.5762 1.8339 0.8692
-12.4807 -30.6040 1.7321 0.8760
-9.1165 -33.3818 1.8135 0.8706
-4.9115 -33.4075 1.7696 0.8735
-0.4117 -16.2373 0.8512 0.9370
26.5652 -40.7441 2.5491 0.8230
35.4031 -42.1682 2.8855 0.8021
43.8241 -40.9711 3.1441 0.7864
34.3316 -25.0916 2.2286 0.8434
59.8184 -24.5809 3.3893 0.7718
68.8636 -10.3118 3.6492 0.7566
69.1382 -1.9372 3.6248 0.7580
69.0835 6.4163 3.6361 0.7574
63.8598 13.8276 3.4243 0.7697
34.5942 11.9989 1.9190 0.8636
41.2933 20.1760 2.4086 0.8319
8.1162 8.6352 0.6211 0.9536
1.3214 8.6668 0.4595 0.9655
0.2663 8.6778 0.4550 0.9658
-1.8554 8.6806 0.4652 0.9651
-4.2275 8.7110 0.5074 0.9620
-21.1301 8.8149 1.1999 0.9124
-17.4450 -30.5736 1.8448 0.8685
-9.0355 -31.7489 1.7300 0.8761
-0.5832 -16.1861 0.8488 0.9372
28.3775 -83.9791 4.6456 0.7011
26.1910 -41.1223 2.5551 0.8226
33.5107 -40.7900 2.7666 0.8094
34.3233 -25.6516 2.2457 0.8423
59.7165 -34.2851 3.6087 0.7590
59.7692 -25.3091 3.4016 0.7711
66.4920 -19.1151 3.6258 0.7580
69.0883 5.6743 3.6330 0.7576
34.5841 11.5837 1.9114 0.8641
10.5499 8.6202 0.7140 0.9469
8.2905 8.6341 0.6273 0.9532
6.4969 8.6451 0.5668 0.9576
4.9994 8.6543 0.5238 0.9608
3.6953 8.6623 0.4936 0.9630
2.5132 8.6551 0.4723 0.9645
1.4159 8.6655 0.4602 0.9654
-0.6898 8.6822 0.4564 0.9657
-2.8870 8.6962 0.4802 0.9640
-4.1057 8.6950 0.5039 0.9622
-7.0933 8.7286 0.5895 0.9559
-11.5870 8.7562 0.7611 0.9435
-20.5027 8.8110 1.1695 0.9145
27.7388 -85.0703 4.6894 0.6988
25.6132 -41.1779 2.5415 0.8235
42.4188 -41.3877 3.1059 0.7887
60.2134 -26.2580 3.4426 0.7687
66.7120 -19.9510 3.6492 0.7566
68.3402 13.2784 3.6485 0.7566
34.5819 11.1742 1.9046 0.8645
43.5980 20.1618 2.5174 0.8250
13.9079 8.5996 0.8570 0.9366
10.7808 8.6188 0.7234 0.9462
6.6417 8.6442 0.5713 0.9573
2.6138 8.6560 0.4739 0.9644
0.4517 8.6763 0.4553 0.9658
-0.5967 8.6820 0.4561 0.9657
-2.7836 8.6937 0.4784 0.9641
-11.6135 25.2899 1.4584 0.8945
-5.3584 8.7180 0.5363 0.9598
-14.7340 8.7756 0.8988 0.9336
-19.9520 8.8276 1.1434 0.9163
-4.5411 -25.2462 1.3443 0.9024
-2.1201 -36.9312 1.9387 0.8623
25.7423 -42.3868 2.5990 0.8198
42.0888 -41.9513 3.1144 0.7882
60.0747 -36.2159 3.6762 0.7550
60.2087 -27.0238 3.4587 0.7677
53.6200 9.8261 2.8569 0.8038
44.7225 20.1057 2.5698 0.8217
14.2420 8.5975 0.8718 0.9355
11.0179 8.6173 0.7331 0.9455
29.7659 65.8475 3.7871 0.7487
2.7152 8.6570 0.4755 0.9643
1.6059 8.6628 0.4617 0.9653
0.5445 8.6755 0.4556 0.9658
-1.5670 8.6817 0.4623 0.9653
-2.6809 8.6914 0.4767 0.9642
-3.8814 8.6956 0.4991 0.9626
-5.2307 8.7172 0.5328 0.9601
-6.7879 8.7268 0.5794 0.9567
-11.0832 8.7532 0.7401 0.9450
-19.3382 8.8039 1.1136 0.9184
-25.0369 -31.5283 2.1099 0.8511
-19.3748 -31.5649 1.9410 0.8621
-4.4682 -23.4051 1.2488 0.9090
26.0739 -86.1576 4.7176 0.6973
23.6980 -53.8616 3.0839 0.7900
32.1509 -41.7920 2.7634 0.8096
41.4501 -42.2055 3.1002 0.7890
60.0693 -37.0921 3.6999 0.7537
60.2039 -27.7970 3.4752 0.7667
60.0932 -19.3772 3.3090 0.7765
68.3612 -13.2394 3.6492 0.7566
69.1577 -4.8961 3.6335 0.7575
69.1028 3.4545 3.6260 0.7580
53.2160 9.1664 2.8300 0.8055
28.3948 8.5105 1.5535 0.8880
44.9195 19.6210 2.5689 0.8217
14.5878 8.5954 0.8874 0.9344
11.2615 8.6158 0.7431 0.9448
8.8350 8.6307 0.6473 0.9517
6.9384 8.6424 0.5808 0.9566
5.3744 8.6520 0.5338 0.9600
4.0266 8.6603 0.5005 0.9625
1.7014 8.6613 0.4626 0.9653
-0.4108 8.6814 0.4555 0.9658
-1.4716 8.6820 0.4615 0.9653
-2.5791 8.6891 0.4750 0.9643
-3.7762 8.7082 0.4974 0.9627
-5.1046 8.7164 0.5294 0.9603
-8.4897 8.7372 0.6385 0.9524
-33.4737 2.5492 1.7594 0.8742
-11.4426 -24.2709 1.4063 0.8981
23.3932 -54.7455 3.1201 0.7878
24.4206 -42.2146 2.5559 0.8226
59.9499 -28.4592 3.4779 0.7666
54.8601 -18.3380 3.0315 0.7932
68.2161 -13.9677 3.6492 0.7566
52.9100 8.5337 2.8087 0.8068
9.0244 8.6296 0.6544 0.9512
5.5026 8.6512 0.5373 0.9598
1.7972 8.6598 0.4635 0.9652
0.7304 8.6737 0.4562 0.9657
-1.3766 8.6822 0.4607 0.9654
-2.4779 8.6869 0.4734 0.9645
-4.9801 8.7156 0.5261 0.9606
-6.4927 8.7249 0.5700 0.9574
-8.3094 8.7361 0.6319 0.9529
-10.6063 8.7502 0.7206 0.9464
-13.7061 8.7693 0.8527 0.9369
-18.2797 8.7974 1.0632 0.9220
-25.9981 8.8448 1.4392 0.8958
-57.4447 -16.2204 3.1283 0.7873
-14.8224 -30.5897 1.7814 0.8727
-7.1166 -33.3940 1.7894 0.8722
-3.3005 -36.8445 1.9387 0.8623
24.7157 -88.4309 4.8121 0.6923
24.3067 -43.0711 2.5919 0.8203
30.9446 -42.0504 2.7362 0.8113
39.7073 -42.1947 3.0365 0.7929
50.6741 -42.2622 3.4581 0.7677
69.1125 1.9784 3.6235 0.7581
46.5070 19.1439 2.6357 0.8175
15.3182 8.5909 0.9204 0.9321
11.7656 8.6099 0.7641 0.9433
7.2453 8.6405 0.5910 0.9558
3.0238 8.6604 0.4807 0.9639
0.5592 5.8893 0.3100 0.9766
-1.2818 8.6823 0.4600 0.9655
-2.3774 8.6847 0.4719 0.9646
-3.5569 8.7069 0.4929 0.9630
-4.8571 8.7149 0.5229 0.9608
-6.3485 8.7241 0.5655 0.9577
-17.7854 8.7943 1.0398 0.9236
-25.1006 8.8393 1.3947 0.8989
-80.2224 7.8336 4.2243 0.7241
-26.7462 -31.5530 2.1678 0.8473
-15.2261 -30.5872 1.7906 0.8721
-7.4893 -33.3918 1.7935 0.8719
22.1262 -54.9982 3.1068 0.7886
30.2612 -42.0538 2.7152 0.8126
38.8624 -42.1895 3.0061 0.7947
59.8429 -29.9889 3.5080 0.7648
53.2648 -19.0771 2.9651 0.7972
69.1724 -7.1273 3.6444 0.7569
69.1173 1.2409 3.6229 0.7581
32.0108 8.4883 1.7356 0.8758
9.4160 8.6272 0.6693 0.9501
2.9199 5.7881 0.3398 0.9744
3.1283 8.6616 0.4826 0.9638
1.9901 8.6567 0.4655 0.9650
0.6225 5.8876 0.3103 0.9766
-1.1874 8.6824 0.4593 0.9655
-2.2776 8.6827 0.4704 0.9647
-3.4488 8.7062 0.4908 0.9632
-6.2067 8.7232 0.5611 0.9580
-45.1419 49.5343 3.5123 0.7646
-17.3123 8.7914 1.0176 0.9252
-24.2570 8.8341 1.3529 0.9018
-27.3268 -31.5494 2.1874 0.8460
-7.8637 -33.3895 1.7977 0.8716
21.9219 -56.2147 3.1622 0.7853
27.0379 -50.3925 2.9971 0.7953
47.4338 -41.3071 3.2964 0.7773
62.3457 -42.2734 3.9477 0.7395
60.1869 -30.9688 3.5473 0.7625
67.7343 -16.1429 3.6492 0.7566
60.2598 7.7503 3.1841 0.7840
33.4126 8.4797 1.8066 0.8710
49.4339 19.1259 2.7779 0.8087
12.3073 8.6094 0.7871 0.9416
7.5633 8.6385 0.6017 0.9551
5.8980 8.6488 0.5486 0.9589
2.9649 5.7245 0.3379 0.9745
3.2336 8.6630 0.4846 0.9636
-0.3004 65.0325 3.4082 0.7707
-7.7897 8.7329 0.6133 0.9542
-9.9359 8.7461 0.6937 0.9484
-12.7775 8.7636 0.8120 0.9398
-16.8588 8.7886 0.9964 0.9267
-9.6585 8.7444 0.2274 0.9492
-22.4884 8.8233 0.4217 0.9079
-22.1610 -31.1861 0.6678 0.8581
-17.6985 -32.6150 0.6477 0.8620
-9.9966 -25.2806 0.4745 0.8969
-7.4250 -28.3752 0.5120 0.8893
-4.2525 -31.2364 0.5503 0.8815
44.2170 -87.5190 1.7115 0.6755
33.6139 -39.1810 0.9011 0.8134
34.2939 -31.3827 0.8114 0.8303
34.3427 -24.5421 0.7368 0.8446
44.6134 -24.3636 0.8873 0.8160
50.2147 -20.0112 0.9435 0.8055
93.7041 -24.7867 1.6919 0.6786
90.3683 9.3664 1.5858 0.6953
60.0087 13.6653 1.0743 0.7818
39.2296 19.6887 0.7662 0.8390
10.1054 8.6229 0.2319 0.9482
7.9455 8.6362 0.2048 0.9541
2.3184 8.6708 0.1567 0.9647
0.1738 8.6840 0.1516 0.9658
-1.9514 8.6762 0.1552 0.9650
-4.3432 8.7117 0.1699 0.9618
-7.4096 8.7306 0.1999 0.9552
-12.1094 8.7516 0.2608 0.9420
-21.7910 8.8190 0.4103 0.9102
-38.0927 -8.4612 0.6811 0.8555
-22.6632 -31.1830 0.6729 0.8571
-14.4233 -35.3674 0.6667 0.8583
-7.7377 -28.3329 0.5127 0.8891
-4.5920 -31.2344 0.5511 0.8814
43.0480 -87.5121 1.7023 0.6769
30.1820 -46.2914 0.9646 0.8017
32.8894 -39.1742 0.8928 0.8149
34.3393 -25.0972 0.7424 0.8435
89.7386 -24.7649 1.6249 0.6891
41.2933 20.1760 0.8022 0.8320
13.2727 8.6035 0.2761 0.9387
10.3249 8.6216 0.2348 0.9476
8.1162 8.6352 0.2069 0.9537
6.3407 8.6273 0.1869 0.9581
4.8552 8.6154 0.1726 0.9612
1.3230 8.6769 0.1532 0.9655
0.2665 8.6834 0.1516 0.9658
-0.7818 8.6688 0.1519 0.9658
-1.8543 8.6755 0.1549 0.9651
-2.9785 8.6619 0.1599 0.9640
-15.4457 8.7587 0.3099 0.9314
-21.1301 8.8149 0.3996 0.9125
-63.1643 -30.4460 1.2239 0.7554
-65.8595 -69.3257 1.6691 0.6821
-18.0143 -31.5713 0.6345 0.8647
-14.7949 -35.2001 0.6664 0.8583
-8.8816 -31.2081 0.5664 0.8783
-0.5831 -16.1859 0.2827 0.9373
25.9094 -54.1209 1.0474 0.7866
30.1752 -47.3778 0.9805 0.7987
32.1778 -39.1676 0.8848 0.8164
42.4121 -24.3501 0.8536 0.8223
90.9911 7.4732 1.5936 0.6940
65.8390 13.5227 1.1732 0.7642
13.5850 8.6015 0.2807 0.9377
10.5499 8.6202 0.2378 0.9470
8.2905 8.6341 0.2089 0.9532
6.4830 8.6265 0.1884 0.9577
3.6953 8.6623 0.1644 0.9630
1.4177 8.6763 0.1535 0.9654
0.3592 8.6828 0.1517 0.9658
-1.7576 8.6749 0.1545 0.9652
-2.8753 8.6612 0.1593 0.9641
-9.0545 8.7407 0.2197 0.9509
-11.5870 8.7562 0.2535 0.9436
-15.0635 8.7556 0.3041 0.9327
-63.1760 -29.6256 1.2180 0.7564
-23.6910 -31.1767 0.6835 0.8550
-18.4618 -31.5686 0.6383 0.8639
-4.1248 -24.4238 0.4324 0.9057
31.4790 -39.1611 0.8770 0.8179
34.2879 -33.4545 0.8362 0.8256
34.3323 -26.2336 0.7542 0.8413
41.3727 -24.3437 0.8379 0.8253
56.0303 -24.4338 1.0670 0.7831
50.8511 9.8803 0.9042 0.8128
43.5980 20.1618 0.8384 0.8252
10.7808 8.6188 0.2409 0.9463
8.4682 8.6330 0.2111 0.9528
6.6275 8.6258 0.1899 0.9574
5.0996 8.6142 0.1747 0.9607
2.6177 8.6689 0.1581 0.9644
-2.7729 8.6604 0.1587 0.9643
-6.9393 8.7277 0.1946 0.9564
-11.3316 8.7547 0.2499 0.9443
-57.6483 -18.2884 1.0557 0.7851
-64.6134 -29.4631 1.2395 0.7527
-24.2174 -31.1735 0.6890 0.8539
-18.9148 -31.5658 0.6423 0.8631
-9.6044 -31.2037 0.5699 0.8776
39.6138 -87.4916 1.6764 0.6810
34.3287 -26.8156 0.7604 0.8401
40.3709 -24.3375 0.8228 0.8281
54.4161 -24.4239 1.0411 0.7877
50.4421 9.2437 0.8951 0.8145
14.2419 8.5975 0.2904 0.9356
29.3152 64.8503 1.2422 0.7522
2.7188 8.6683 0.1586 0.9643
-0.5030 8.6705 0.1516 0.9659
-2.6712 8.6597 0.1582 0.9644
-8.6739 8.7383 0.2149 0.9519
-20.5572 -33.4911 0.6859 0.8545
-16.2103 -35.3565 0.6789 0.8559
-4.8423 -15.1553 0.2777 0.9383
-2.7578 -40.4870 0.7083 0.8501
26.7779 -88.4840 1.6137 0.6908
36.8490 -83.7517 1.5971 0.6935
32.4261 -42.1499 0.9282 0.8084
39.3876 -24.3214 0.8080 0.8309
44.9933 19.6533 0.8570 0.8217
15.2570 8.9897 0.3091 0.9316
11.2615 8.6158 0.2475 0.9449
8.8350 8.6307 0.2156 0.9518
6.9238 8.6242 0.1930 0.9567
1.7040 8.6746 0.1543 0.9653
-0.4105 8.6748 0.1516 0.9659
-2.5702 8.6591 0.1577 0.9645
-3.7584 8.6673 0.1649 0.9629
-5.1046 8.7164 0.1763 0.9604
-14.0027 8.7499 0.2882 0.9361
-18.7657 8.7861 0.3617 0.9204
-57.1619 -16.8008 1.0400 0.7879
-56.9832 -43.1165 1.2473 0.7514
-25.2965 -31.1669 0.7007 0.8516
-21.0503 -33.4881 0.6904 0.8536
-3.1918 -40.4844 0.7088 0.8500
30.1461 -52.1119 1.0508 0.7860
34.2744 -35.6518 0.8632 0.8205
34.3214 -28.0088 0.7732 0.8376
51.4104 -24.4054 0.9933 0.7964
90.2131 -18.4718 1.6074 0.6918
50.4398 8.1353 0.8918 0.8151
47.3674 20.0915 0.8981 0.8140
9.0244 8.6296 0.2179 0.9513
5.4779 8.6124 0.1782 0.9600
4.1199 8.6192 0.1668 0.9625
2.9229 8.6671 0.1597 0.9641
1.8002 8.6740 0.1546 0.9652
0.7309 8.6805 0.1521 0.9657
-0.3180 8.6791 0.1516 0.9659
-3.6488 8.6666 0.1641 0.9631
-6.4927 8.7249 0.1898 0.9574
-8.3094 8.7361 0.2104 0.9529
-10.6063 8.7502 0.2400 0.9465
-13.6867 8.7568 0.2836 0.9371
-18.2472 8.7818 0.3535 0.9222
-25.9744 8.8368 0.4789 0.8960
-73.6722 -30.7863 1.3937 0.7266
-10.8481 -31.6101 0.5833 0.8749
36.2556 -87.4151 1.6518 0.6848
34.3176 -28.6209 0.7800 0.8363
37.5683 -24.3199 0.7812 0.8361
50.0084 -24.3968 0.9712 0.8004
53.2403 -18.4301 0.9834 0.7982
90.2038 -19.4745 1.6108 0.6913
9.2180 8.6284 0.2204 0.9507
5.6120 8.6188 0.1795 0.9597
4.2331 8.6186 0.1676 0.9623
3.0260 8.6664 0.1602 0.9639
-1.2803 8.6719 0.1530 0.9655
-2.3710 8.6611 0.1567 0.9647
-10.3771 8.7488 0.2369 0.9471
-13.3670 8.7546 0.2789 0.9381
-17.7687 8.7861 0.3460 0.9238
-74.0771 -30.0316 1.3952 0.7263
-7.0021 -31.2196 0.5585 0.8799
-3.6637 -36.5123 0.6405 0.8635
36.1126 -39.2042 0.9304 0.8080
36.6968 -24.3150 0.7684 0.8385
50.8458 -18.2108 0.9427 0.8057
53.3992 7.4477 0.9411 0.8060
12.0344 8.6111 0.2583 0.9425
9.4160 8.6272 0.2229 0.9502
2.9199 5.7880 0.1132 0.9744
1.9938 8.6728 0.1553 0.9650
-0.1327 8.6817 0.1516 0.9659
-1.1858 8.6713 0.1528 0.9656
-2.2732 8.6657 0.1564 0.9648
-3.4325 8.6650 0.1627 0.9634
-4.7356 8.7141 0.1731 0.9611
-6.2067 8.7232 0.1869 0.9581
-13.0576 8.7524 0.2744 0.9390
-17.2951 8.7827 0.3386 0.9253
-24.2537 8.8329 0.4505 0.9019
-21.7843 2.3620 0.3825 0.9161
-55.6738 -14.4456 1.0040 0.7945
-62.7057 -33.8602 1.2439 0.7519
-21.0291 -31.1930 0.6566 0.8603
-17.7110 -34.6476 0.6792 0.8558
-3.7307 -33.5721 0.5896 0.8736
34.1071 -87.4613 1.6386 0.6869
30.0699 -56.0436 1.1102 0.7753
30.2026 -42.9311 0.9162 0.8106
35.3407 -39.1971 0.9212 0.8097
34.2968 -29.8669 0.7938 0.8336
35.8526 -24.3098 0.7561 0.8409
47.3831 -24.3806 0.9301 0.8080
50.5615 -18.7197 0.9411 0.8060
51.9782 20.1103 0.9728 0.8001
36.9577 19.7027 0.7310 0.8457
7.5560 8.6302 0.2002 0.9551
5.8851 8.6298 0.1823 0.9591
3.2345 8.6651 0.1614 0.9637
1.0113 8.6788 0.1525 0.9656
-2.1758 8.6703 0.1560 0.9649
-3.3257 8.6643 0.1620 0.9636
-6.0670 8.7223 0.1855 0.9584
-7.7897 8.7329 0.2043 0.9543
-9.9359 8.7461 0.2310 0.9484
-12.7581 8.7502 0.2700 0.9400
-16.8411 8.7794 0.3315 0.9268
-9.6585 8.7444 -0.2274 0.9492
-16.2674 8.7714 -0.3226 0.9287
-22.4884 8.8233 -0.4217 0.9079
-50.8981 13.1737 -0.9177 0.8103
-21.4865 2.8668 -0.3784 0.9169
-87.2116 1.0479 -1.5224 0.7054
-73.1356 -7.9747 -1.2841 0.7450
-73.2454 -26.7252 -1.3609 0.7320
-62.2590 -31.6636 -1.2192 0.7562
-60.7839 -40.7962 -1.2778 0.7461
-15.0820 -21.2241 -0.4545 0.9011
-10.7871 -19.8787 -0.3948 0.9135
-7.4473 -28.4606 -0.5135 0.8890
-0.3248 -22.1189 -0.3861 0.9153
32.5906 -64.5069 -1.2615 0.7489
24.4353 -36.6178 -0.7684 0.8385
33.4289 -38.9652 -0.8961 0.8143
34.3006 -31.3888 -0.8116 0.8303
34.3427 -24.5421 -0.7368 0.8446
44.6134 -24.3636 -0.8873 0.8160
51.7207 -20.6113 -0.9718 0.8003
49.6482 -13.1330 -0.8964 0.8143
60.0087 13.6653 -1.0743 0.7818
34.5930 12.4134 -0.6415 0.8633
12.9704 8.6053 -0.2717 0.9396
10.1054 8.6229 -0.2319 0.9482
7.9455 8.6362 -0.2048 0.9541
4.7099 8.5701 -0.1707 0.9616
2.3184 8.6708 -0.1567 0.9647
-1.9468 8.6554 -0.1549 0.9651
-3.0671 8.6194 -0.1597 0.9641
-4.3432 8.7117 -0.1699 0.9618
-7.4096 8.7306 -0.1999 0.9552
-9.4525 8.7431 -0.2248 0.9498
-15.6881 8.6763 -0.3129 0.9308
-50.0494 13.5252 -0.9049 0.8127
-87.2057 1.9782 -1.5226 0.7054
-73.2189 -25.8340 -1.3553 0.7330
-49.9739 -24.7483 -0.9734 0.8000
-5.3701 -19.6636 -0.3558 0.9217
-0.4116 -16.2360 -0.2835 0.9371
43.4914 -24.3567 -0.8701 0.8192
50.7255 -20.8443 -0.9573 0.8030
60.5825 5.6268 -1.0620 0.7840
13.2727 8.6035 -0.2761 0.9387
10.3249 8.6216 -0.2348 0.9476
8.1162 8.6352 -0.2069 0.9537
6.3225 8.6025 -0.1863 0.9582
3.5869 8.6630 -0.1637 0.9632
1.3230 8.6769 -0.1532 0.9655
-0.7808 8.6574 -0.1517 0.9658
-2.9637 8.6188 -0.1591 0.9642
-4.2275 8.7110 -0.1690 0.9620
-9.2512 8.7419 -0.2222 0.9504
-50.0412 14.0974 -0.9075 0.8122
-53.3623 8.2818 -0.9426 0.8057
-47.4577 -10.0114 -0.8466 0.8236
-73.1788 -24.9454 -1.3495 0.7340
-60.4056 -38.6994 -1.2522 0.7505
-5.5412 -19.4708 -0.3534 0.9222
-3.2795 -20.7655 -0.3670 0.9193
25.9205 -54.1441 -1.0478 0.7865
30.1753 -47.3779 -0.9805 0.7987
32.0007 -38.9520 -0.8799 0.8174
34.2922 -32.7521 -0.8277 0.8272
42.4121 -24.3501 -0.8536 0.8223
59.7692 -25.3091 -1.1329 0.7713
66.8333 13.7269 -1.1909 0.7611
13.5850 8.6015 -0.2807 0.9377
10.5499 8.6202 -0.2378 0.9470
6.4642 8.6016 -0.1878 0.9579
4.9498 8.5683 -0.1727 0.9612
3.6953 8.6623 -0.1644 0.9630
0.3592 8.6828 -0.1517 0.9658
-0.6882 8.6618 -0.1517 0.9658
-1.7535 8.6543 -0.1541 0.9653
-4.1057 8.6950 -0.1678 0.9623
-7.0933 8.7286 -0.1963 0.9560
-9.0545 8.7407 -0.2197 0.9509
-11.5870 8.7562 -0.2535 0.9436
-20.5027 8.8110 -0.3895 0.9146
-27.8108 8.1559 -0.5059 0.8905
-87.1940 3.8399 -1.5234 0.7053
-47.2220 -9.4368 -0.8406 0.8248
-60.2264 -37.6847 -1.2401 0.7526
-17.0911 -22.4913 -0.4931 0.8931
-15.3087 -35.3620 -0.6726 0.8571
-5.7297 -19.3466 -0.3522 0.9225
-3.4763 -20.5843 -0.3644 0.9199
31.3058 -38.9455 -0.8722 0.8188
34.2879 -33.4545 -0.8362 0.8256
34.3323 -26.2336 -0.7542 0.8413
56.0303 -24.4338 -1.0670 0.7831
13.9079 8.5996 -0.2854 0.9367
6.6082 8.6006 -0.1893 0.9575
5.0732 8.5697 -0.1738 0.9609
28.4884 64.8554 -1.2364 0.7532
1.5128 8.6757 -0.1537 0.9654
-0.5956 8.6661 -0.1516 0.9658
-1.6575 8.6537 -0.1538 0.9654
-2.7605 8.6216 -0.1580 0.9644
-5.3584 8.7180 -0.1786 0.9599
-11.3316 8.7547 -0.2499 0.9443
-14.5794 8.6835 -0.2962 0.9344
-19.6460 8.6923 -0.3750 0.9176
-53.3548 9.4502 -0.9458 0.8051
-67.9523 -4.4878 -1.1887 0.7615
-46.9897 -8.8702 -0.8347 0.8259
-73.2155 -44.7328 -1.4976 0.7095
-62.1296 -49.1290 -1.3826 0.7284
-17.5749 -22.6230 -0.5000 0.8917
-15.7574 -35.3592 -0.6757 0.8565
-3.7208 -20.6855 -0.3669 0.9194
-1.2491 -21.7584 -0.3804 0.9165
38.4437 -84.9073 -1.6269 0.6888
30.1610 -49.6625 -1.0142 0.7926
79.4994 -24.7019 -1.4531 0.7167
26.9446 8.3901 -0.4926 0.8932
40.8025 18.3434 -0.7809 0.8361
6.7545 8.5996 -0.1909 0.9572
5.2010 8.5757 -0.1751 0.9607
0.5448 8.6817 -0.1518 0.9658
-0.5030 8.6705 -0.1516 0.9659
-2.6609 8.6264 -0.1576 0.9645
-6.7879 8.7268 -0.1930 0.9567
-8.6739 8.7383 -0.2149 0.9519
-11.0832 8.7532 -0.2465 0.9451
-19.0882 8.6900 -0.3661 0.9195
-27.7634 8.7893 -0.5083 0.8900
-87.2486 -4.8283 -1.5253 0.7050
-87.2705 -15.5117 -1.5472 0.7014
-73.1572 -32.4209 -1.3967 0.7261
-73.1728 -43.6418 -1.4872 0.7112
-18.3325 -23.0857 -0.5146 0.8888
-9.0606 -19.7622 -0.3795 0.9167
-4.8407 -15.1504 -0.2776 0.9384
-3.9309 -20.5908 -0.3659 0.9196
38.4930 -87.4882 -1.6684 0.6822
25.9871 -43.8370 -0.8895 0.8156
25.6500 -33.3418 -0.7343 0.8451
34.2790 -34.9037 -0.8539 0.8222
39.4041 -24.3316 -0.8084 0.8309
52.8778 -24.4144 -1.0166 0.7922
77.5844 -25.0173 -1.4229 0.7217
97.3099 -18.8459 -1.7301 0.6726
71.0896 3.5538 -1.2424 0.7522
51.9022 8.9401 -0.9193 0.8100
41.8544 18.2822 -0.7972 0.8330
5.3307 8.5817 -0.1763 0.9604
3.9871 8.5753 -0.1651 0.9629
2.8205 8.6677 -0.1591 0.9642
-0.4105 8.6748 -0.1516 0.9659
-3.7392 8.6229 -0.1641 0.9631
-5.1046 8.7164 -0.1763 0.9604
-6.6391 8.7258 -0.1914 0.9571
-8.4897 8.7372 -0.2126 0.9524
-10.8416 8.7517 -0.2432 0.9458
-18.5946 8.7060 -0.3584 0.9211
-87.1090 17.3530 -1.5504 0.7009
-54.8172 4.1747 -0.9596 0.8026
-87.2427 -3.8951 -1.5243 0.7051
-87.3098 -14.5602 -1.5450 0.7018
-18.9043 -23.2914 -0.5236 0.8869
-12.8627 -20.4627 -0.4219 0.9078
-6.4553 -19.4845 -0.3583 0.9212
-4.0788 -20.1940 -0.3596 0.9209
33.9705 -79.4988 -1.5090 0.7076
29.5755 -51.1255 -1.0310 0.7896
25.0704 -33.3176 -0.7279 0.8464
34.2744 -35.6518 -0.8632 0.8205
34.3214 -28.0088 -0.7732 0.8376
76.7935 3.0182 -1.3415 0.7353
51.8987 8.3706 -0.9176 0.8103
42.9511 18.2183 -0.8144 0.8297
11.5119 8.6143 -0.2510 0.9441
7.0623 8.6070 -0.1943 0.9564
2.9229 8.6671 -0.1597 0.9641
1.8002 8.6740 -0.1546 0.9652
0.7309 8.6805 -0.1521 0.9657
-1.3718 8.6520 -0.1529 0.9656
-3.6302 8.6223 -0.1633 0.9633
-4.9801 8.7156 -0.1752 0.9606
-13.6271 8.7187 -0.2824 0.9373
-24.0104 8.1686 -0.4427 0.9035
-87.1029 18.3197 -1.5536 0.7004
-87.2368 -2.9630 -1.5236 0.7053
-73.0118 -11.3768 -1.2898 0.7441
-57.1127 -16.1266 -1.0359 0.7887
-62.1875 -35.3139 -1.2483 0.7512
-61.5692 -45.5621 -1.3370 0.7361
-57.6551 -54.5471 -1.3849 0.7279
-20.0806 -24.2083 -0.5490 0.8818
-13.0881 -20.3367 -0.4221 0.9078
-6.6113 -19.2648 -0.3555 0.9217
-1.9022 -21.2354 -0.3721 0.9182
0.7456 -23.8253 -0.4161 0.9090
36.2429 -87.3844 -1.6513 0.6849
25.7929 -35.0497 -0.7596 0.8402
37.5690 -24.3203 -0.7812 0.8361
50.0084 -24.3968 -0.9712 0.8004
60.3823 -13.0362 -1.0783 0.7810
49.7549 7.4812 -0.8782 0.8177
30.5913 8.4621 -0.5540 0.8808
15.4696 8.6758 -0.3096 0.9315
4.2110 8.5737 -0.1667 0.9625
3.0260 8.6664 -0.1602 0.9639
-0.2254 8.6835 -0.1516 0.9658
-1.2773 8.6515 -0.1526 0.9656
-3.5222 8.6218 -0.1626 0.9634
-4.8571 8.7149 -0.1741 0.9609
-10.3771 8.7488 -0.2369 0.9471
-13.3097 8.7171 -0.2777 0.9383
-25.1006 8.8393 -0.4645 0.8990
-54.6044 5.3320 -0.9576 0.8029
-73.1677 -10.6031 -1.2905 0.7440
-56.3220 -15.2567 -1.0185 0.7918
-73.1834 -29.6693 -1.3784 0.7291
-62.3656 -34.5406 -1.2444 0.7519
-58.5321 -54.2052 -1.3925 0.7268
-6.9779 -19.6478 -0.3639 0.9200
-4.5045 -20.0838 -0.3593 0.9210
0.4780 -23.1797 -0.4047 0.9114
31.9049 -79.3050 -1.4921 0.7104
29.2925 -53.2242 -1.0604 0.7842
48.6674 -24.3885 -0.9502 0.8043
51.3817 -18.4027 -0.9527 0.8038
60.5888 -13.7587 -1.0845 0.7799
45.2907 18.0808 -0.8512 0.8228
5.7317 8.6005 -0.1804 0.9595
3.1298 8.6658 -0.1608 0.9638
1.9938 8.6728 -0.1553 0.9650
0.6222 5.8850 -0.1033 0.9766
-0.1327 8.6817 -0.1516 0.9659
-6.2067 8.7232 -0.1869 0.9581
-16.5082 18.1145 -0.4278 0.9066
-10.1537 8.7474 -0.2339 0.9478
-87.0906 20.2661 -1.5608 0.6993
-21.7296 2.3561 -0.3815 0.9163
-87.2119 -1.1008 -1.5224 0.7054
-73.2127 -28.7758 -1.3731 0.7300
-61.1318 -43.2513 -1.3071 0.7411
-14.0623 -20.8590 -0.4391 0.9043
-10.2253 -20.0037 -0.3921 0.9140
-7.1101 -19.3628 -0.3600 0.9208
0.2257 -22.6785 -0.3959 0.9133
34.0719 -87.3711 -1.6369 0.6872
29.1349 -54.3010 -1.0756 0.7815
25.7517 -36.6043 -0.7812 0.8361
35.1462 -38.9813 -0.9161 0.8106
34.3099 -29.8783 -0.7941 0.8336
35.8526 -24.3098 -0.7561 0.8409
47.3831 -24.3806 -0.9301 0.8080
49.5962 -18.3623 -0.9231 0.8093
12.3073 8.6094 -0.2622 0.9417
7.5560 8.6302 -0.2002 0.9551
-1.0891 8.6503 -0.1522 0.9657
-2.1706 8.6497 -0.1557 0.9650
-3.3089 8.6207 -0.1612 0.9637
-4.6155 8.7134 -0.1721 0.9613
-7.7897 8.7329 -0.2043 0.9543
-12.7184 8.7230 -0.2692 0.9402
-16.7797 8.7474 -0.3303 0.9271
-87.0845 21.2462 -1.5647 0.6986
-21.4694 2.5598 -0.3774 0.9171
-87.2192 -0.1706 -1.5224 0.7054
-55.3966 -13.7448 -0.9963 0.7959
-61.1750 -42.3102 -1.2983 0.7426
-7.5722 8.7316 -0.6057 0.9548
-12.3683 8.7394 -0.7937 0.9411
-16.2674 8.7714 -0.9686 0.9286
-27.8866 7.2177 -1.5096 0.8910
-21.5106 2.8700 -1.1373 0.9167
-45.2277 0.5434 -2.3704 0.8343
-40.9522 -4.4654 -2.1589 0.8479
-37.0532 -8.6460 -1.9940 0.8586
-42.1096 -15.3646 -2.3492 0.8356
-36.1419 -31.1744 -2.5014 0.8260
-30.1731 -33.1492 -2.3492 0.8356
-14.9149 -20.9891 -1.3494 0.9020
-10.6598 -19.6440 -1.1713 0.9144
-7.5537 -19.1029 -1.0766 0.9210
-5.0536 -19.3127 -1.0462 0.9232
-2.8093 -20.6354 -1.0914 0.9200
10.7217 -46.5094 -2.5014 0.8260
21.5231 -42.6008 -2.5014 0.8260
24.4353 -36.6178 -2.3071 0.8383
39.3409 -21.4843 -2.3492 0.8356
46.1422 -12.2056 -2.5014 0.8260
47.2756 -6.5645 -2.5014 0.8260
44.5862 4.6212 -2.3492 0.8356
23.8617 8.5625 -1.3286 0.9034
12.9704 8.6053 -0.8157 0.9396
10.1054 8.6229 -0.6962 0.9482
7.9455 8.6362 -0.6150 0.9541
3.4794 8.6636 -0.4893 0.9633
-0.8736 8.6531 -0.4558 0.9658
