ply
format ascii 1.0
element vertex 1570
property float32 x
property float32 y
property float32 z
property float32 I
end_header
-11.3959 8.7551 1.7645 0.9437
-24.6935 -32.0527 4.9681 0.8495
-18.7383 -31.5669 4.5074 0.8625
-14.8300 -33.6618 4.5165 0.8622
-5.9077 -33.7032 4.2013 0.8712
32.5721 -40.9810 6.4276 0.8098
54.7376 -42.2873 8.4929 0.7567
59.5582 -35.4623 8.5110 0.7563
66.5744 -3.6076 8.1863 0.7644
66.6239 4.4429 8.1986 0.7641
44.0984 20.1587 5.9535 0.8225
8.5372 8.6326 1.4907 0.9522
6.6963 8.6439 1.3426 0.9569
5.1681 8.6533 1.2376 0.9602
0.4822 8.6821 1.0677 0.9656
-0.5677 8.6885 1.0691 0.9655
-2.7559 8.7020 1.1208 0.9639
-3.9672 8.7094 1.1751 0.9622
-5.3228 8.7177 1.2542 0.9597
-24.8653 -31.9197 4.9681 0.8495
-18.9674 -31.5655 4.5216 0.8621
-6.0942 -33.7020 4.2052 0.8711
-2.3522 -40.3932 4.9681 0.8495
27.5932 -87.9479 11.3177 0.6897
22.5316 -49.8187 6.7135 0.8022
32.4527 -41.2839 6.4477 0.8093
42.4938 -42.3643 7.3675 0.7852
66.5722 -3.9664 8.1885 0.7643
64.1493 3.9321 7.8913 0.7718
64.1440 11.8014 8.0081 0.7689
34.7770 21.0420 4.9909 0.8489
10.9929 8.6175 1.7151 0.9453
6.7706 8.6434 1.3481 0.9567
5.2311 8.6529 1.2415 0.9601
3.8993 8.6611 1.1663 0.9624
-0.5208 8.6882 1.0687 0.9655
-1.5876 8.6948 1.0852 0.9650
-5.2585 8.7173 1.2500 0.9598
-6.8223 8.7270 1.3601 0.9563
-19.1981 -31.5641 4.5362 0.8617
-15.2627 -33.6591 4.5379 0.8616
-6.2812 -33.7009 4.2092 0.8710
-2.5691 -40.3800 4.9681 0.8495
26.7570 -86.9150 11.1661 0.6932
22.4714 -50.4044 6.7761 0.8006
24.5756 -40.9888 5.8681 0.8248
32.2992 -41.5461 6.4614 0.8089
42.0371 -42.3615 7.3277 0.7862
59.5529 -36.3313 8.5655 0.7549
59.6070 -27.1252 8.0410 0.7680
66.5700 -4.3251 8.1910 0.7643
64.2732 3.5934 7.9041 0.7715
59.8864 18.3482 7.6905 0.7769
44.6202 19.8209 5.9949 0.8214
34.7754 20.7866 4.9745 0.8494
11.1144 8.6167 1.7268 0.9449
8.7214 8.6314 1.5066 0.9518
1.6409 8.6750 1.0840 0.9650
-3.8545 8.7087 1.1694 0.9623
-6.7467 8.7265 1.3544 0.9565
-8.6247 8.7380 1.5075 0.9517
-20.7064 -33.6358 4.8498 0.8528
-15.4805 -33.6578 4.5488 0.8613
-6.4683 -33.6997 4.2133 0.8708
23.6665 -39.9579 5.7022 0.8293
32.1036 -41.7553 6.4671 0.8088
52.9152 -42.2580 8.3147 0.7612
59.5502 -36.7698 8.5934 0.7542
78.0329 -25.1429 10.0663 0.7186
64.1306 -12.3985 8.0200 0.7686
34.7739 20.5331 4.9585 0.8498
11.2375 8.6160 1.7387 0.9445
6.9209 8.6425 1.3595 0.9564
4.0114 8.6604 1.1719 0.9623
2.8057 8.6678 1.1186 0.9639
0.4220 5.8844 0.7244 0.9765
-1.4912 8.6942 1.0831 0.9651
-2.6021 8.7010 1.1151 0.9641
-6.6718 8.7260 1.3487 0.9567
-59.2010 -17.6180 7.5840 0.7796
-15.6995 -33.6565 4.5600 0.8610
-3.0027 -40.3501 4.9681 0.8495
24.1420 -41.2643 5.8700 0.8248
31.6475 -41.6227 6.4201 0.8100
26.8349 -16.7691 3.8853 0.8803
59.6022 -27.8997 8.0803 0.7670
63.9959 -21.0000 8.2699 0.7623
63.9932 -12.7288 8.0113 0.7688
64.1963 -4.8639 7.9049 0.7715
66.6151 3.0069 8.1876 0.7643
59.8821 17.6455 7.6652 0.7776
44.7665 19.3128 5.9863 0.8216
11.3624 8.6152 1.7508 0.9442
8.9097 8.6303 1.5230 0.9512
2.8571 8.6675 1.1206 0.9639
-1.4431 8.6939 1.0821 0.9651
-2.5512 8.7007 1.1133 0.9641
-3.7429 8.7080 1.1638 0.9625
-5.0681 8.7162 1.2380 0.9602
-6.5975 8.7256 1.3431 0.9569
-10.7791 8.7513 1.7048 0.9456
3.5150 8.6634 0.8180 0.9632
2.3504 8.6706 0.7860 0.9646
1.2581 8.6773 0.7671 0.9654
-0.8497 8.6903 0.7639 0.9655
-4.3002 8.6870 0.8480 0.9618
-5.7179 8.7202 0.9123 0.9590
-7.3700 8.7303 0.9996 0.9552
-12.1028 8.7917 1.3087 0.9417
-15.7925 8.7821 1.5809 0.9300
-47.4407 -23.4045 4.6281 0.8086
-80.8591 -52.8650 8.4520 0.6785
-17.8457 -31.9900 3.2048 0.8632
-12.9354 -31.6375 2.9903 0.8718
-8.6731 -31.6583 2.8718 0.8765
5.5847 -58.7436 5.1626 0.7890
35.4041 -42.1683 4.8171 0.8017
57.8028 -42.2266 6.2628 0.7502
64.0127 -9.5445 5.6623 0.7712
64.1084 6.0078 5.6333 0.7722
63.1559 13.7367 5.6546 0.7714
56.2745 19.5838 5.2130 0.7872
41.1763 20.1767 4.0117 0.8318
13.2372 8.6037 1.3812 0.9386
10.2970 8.6217 1.1750 0.9475
8.0930 8.6353 1.0354 0.9536
3.5666 8.6567 0.8191 0.9631
1.3057 8.6770 0.7677 0.9654
0.2487 8.6835 0.7600 0.9657
-3.0158 8.7036 0.8059 0.9637
-5.6509 8.7198 0.9091 0.9591
-11.9217 8.7583 1.2942 0.9423
-15.5925 8.7809 1.5656 0.9307
-4.8544 -31.6817 2.8041 0.8792
27.6740 -80.5658 7.4528 0.7103
24.3265 -50.1553 4.8769 0.7995
57.1902 -42.2519 6.2209 0.7516
59.5687 -33.7568 5.9902 0.7596
59.6210 -24.8454 5.6510 0.7716
63.9608 -17.9851 5.8129 0.7658
64.0106 -9.8959 5.6667 0.7710
64.0586 -2.0926 5.6074 0.7731
64.1062 5.6605 5.6304 0.7723
13.3925 8.6027 1.3926 0.9381
10.4093 8.6211 1.1825 0.9472
4.9199 8.6548 0.8710 0.9608
3.6097 8.6295 0.8184 0.9631
1.3533 8.6767 0.7683 0.9654
-1.8304 8.6963 0.7775 0.9649
-12.1397 25.2013 2.4473 0.8938
-9.2027 8.7416 1.1105 0.9503
-11.7873 8.7575 1.2847 0.9427
-25.0403 -33.6093 3.6668 0.8451
-13.3328 -31.6350 3.0035 0.8712
-5.0285 -31.6807 2.8064 0.8792
27.4665 -81.3815 7.5145 0.7083
24.0796 -50.3328 4.8815 0.7993
25.2749 -39.6982 4.1173 0.8278
56.5468 -42.2480 6.1755 0.7532
59.6658 -34.2365 6.0184 0.7587
59.7185 -25.2633 5.6730 0.7708
63.9586 -18.3556 5.8215 0.7655
64.0565 -2.4371 5.6083 0.7731
64.1041 5.3136 5.6276 0.7724
13.5505 8.6017 1.4042 0.9376
8.2680 8.6342 1.0459 0.9531
6.4772 8.6452 0.9451 0.9576
27.5415 64.8612 6.1650 0.7536
1.4011 8.6764 0.7689 0.9653
-0.7085 8.6894 0.7627 0.9656
-1.7817 8.6960 0.7766 0.9650
-2.9112 8.7029 0.8029 0.9638
-7.1311 8.7289 0.9861 0.9558
-9.1037 8.7410 1.1042 0.9506
-15.2040 8.7785 1.5360 0.9319
-20.6756 8.8121 1.9663 0.9137
-21.6549 -22.4930 2.7316 0.8822
-25.3208 -33.6076 3.6814 0.8445
-9.2132 -31.6216 2.8816 0.8761
-4.0166 -24.4564 2.1683 0.9053
-0.6796 -16.1500 1.4142 0.9372
42.4445 -40.9729 5.1613 0.7891
55.9800 -42.2948 6.1383 0.7545
63.9563 -18.7273 5.8304 0.7652
64.0063 -10.6004 5.6761 0.7707
64.0543 -2.7815 5.6093 0.7730
64.1020 4.9669 5.6250 0.7725
64.1506 12.8744 5.7244 0.7690
42.8901 20.1662 4.1465 0.8267
10.6381 8.6196 1.1979 0.9465
6.5497 8.6448 0.9489 0.9574
2.5512 8.6693 0.7906 0.9644
1.4489 8.6761 0.7696 0.9653
0.3887 8.6826 0.7604 0.9657
-1.7330 8.6957 0.7757 0.9650
-2.8593 8.7026 0.8014 0.9639
-4.0621 8.6697 0.8376 0.9623
-7.0529 8.7284 0.9818 0.9559
-11.5245 8.7559 1.2663 0.9435
-15.0152 8.7773 1.5216 0.9325
-20.3672 8.8102 1.9415 0.9148
-18.5106 -31.5683 3.2017 0.8633
-9.3969 -31.6190 2.8859 0.8759
-5.3776 -31.6785 2.8112 0.8790
-1.9218 -40.4921 3.5466 0.8498
28.0478 -86.1472 7.9263 0.6950
32.8304 -40.8535 4.5853 0.8102
55.3542 -42.2909 6.0945 0.7560
59.6605 -35.0905 6.0556 0.7574
60.0629 -26.1730 5.7321 0.7687
61.8782 -18.4798 5.6509 0.7716
64.1484 12.5159 5.7181 0.7692
43.4871 20.1625 4.1937 0.8249
10.7548 8.6189 1.2058 0.9462
8.4465 8.6331 1.0567 0.9527
3.7865 8.6577 0.8267 0.9628
1.4968 8.6758 0.7702 0.9653
-0.6146 8.6888 0.7621 0.9656
-1.6844 8.6954 0.7749 0.9651
-5.3875 8.7181 0.8966 0.9597
-6.9753 8.7279 0.9775 0.9561
-8.9089 8.7398 1.0919 0.9511
-11.3959 8.7551 1.2573 0.9439
-20.0957 8.8212 1.9201 0.9156
-25.8887 -33.6041 3.7113 0.8434
-18.7383 -31.5669 3.2117 0.8629
-13.9355 -31.6313 3.0240 0.8704
-9.5923 -31.6527 2.8936 0.8756
-4.2813 -24.4244 2.1694 0.9052
23.0889 -50.3295 4.8445 0.8006
42.2609 -41.6818 5.1931 0.7879
59.5583 -35.4623 6.0644 0.7571
60.0605 -26.5566 5.7454 0.7682
63.9517 -19.4743 5.8487 0.7646
64.0977 4.2744 5.6203 0.7726
30.3933 5.7607 2.7064 0.8832
59.9910 19.0875 5.5078 0.7766
14.0407 8.5987 1.4405 0.9360
10.8730 8.6182 1.2138 0.9458
5.1681 8.6533 0.8818 0.9603
2.6525 8.6687 0.7931 0.9643
1.5447 8.6755 0.7709 0.9652
-0.5677 8.6885 0.7618 0.9656
-1.6360 8.6951 0.7741 0.9651
-3.9672 8.7094 0.8373 0.9623
-8.8131 8.7392 1.0859 0.9514
-11.2691 8.7543 1.2485 0.9443
-14.6479 8.7751 1.4939 0.9337
-19.7650 8.8030 1.8930 0.9168
-18.9674 -31.5655 3.2218 0.8625
-14.1228 -31.5952 3.0278 0.8703
-4.3827 -24.2371 2.1549 0.9058
26.5317 -84.5648 7.7541 0.7006
22.9354 -50.7114 4.8693 0.7997
54.1293 -42.2834 6.0093 0.7590
60.0039 -36.1655 6.1295 0.7548
64.1440 11.8014 5.7061 0.7696
59.8886 18.7012 5.4891 0.7773
10.9929 8.6175 1.2220 0.9455
8.6288 8.6320 1.0678 0.9522
6.7705 8.6434 0.9606 0.9569
1.5928 8.6753 0.7717 0.9652
-1.5876 8.6948 0.7733 0.9651
-2.7044 8.7017 0.7972 0.9641
-5.2585 8.7173 0.8907 0.9599
-6.8223 8.7270 0.9691 0.9565
-8.7184 8.7386 1.0800 0.9516
-11.1441 8.7535 1.2398 0.9447
-14.4692 8.7740 1.4804 0.9343
-19.4869 8.8048 1.8708 0.9177
-19.1981 -31.5641 3.2322 0.8621
-14.3262 -31.5939 3.0350 0.8700
-2.0168 -31.6991 2.7789 0.8803
41.7869 -42.1093 5.1901 0.7880
53.5296 -42.2796 5.9678 0.7604
60.0012 -36.6048 6.1492 0.7541
60.0558 -27.3294 5.7727 0.7673
64.0458 -4.1610 5.6151 0.7728
64.0935 3.5833 5.6162 0.7728
14.3819 8.5966 1.4659 0.9349
8.7214 8.6314 1.0735 0.9519
6.8454 8.6430 0.9646 0.9567
2.7544 8.6681 0.7957 0.9641
-1.5393 8.6945 0.7725 0.9652
-2.6532 8.7013 0.7959 0.9641
-6.7467 8.7265 0.9650 0.9567
-8.6247 8.7380 1.0741 0.9519
-19.2076 8.8031 1.8485 0.9187
-20.7064 -33.6358 3.4557 0.8533
-14.5306 -31.5927 3.0423 0.8697
-2.1876 -31.6981 2.7798 0.8802
26.2179 -86.8190 7.9345 0.6948
22.7140 -51.6939 4.9400 0.7971
24.7308 -41.7548 4.2457 0.8230
41.4346 -42.2052 5.1745 0.7886
52.9377 -42.2759 5.9271 0.7618
63.9954 -12.3724 5.7025 0.7697
64.0437 -4.5063 5.6170 0.7728
64.1396 11.0896 5.6947 0.7700
59.9845 18.0265 5.4798 0.7776
14.5570 8.5956 1.4790 0.9344
11.2375 8.6160 1.2389 0.9447
6.9209 8.6425 0.9687 0.9565
5.3584 8.6521 0.8904 0.9600
2.8057 8.6678 0.7971 0.9641
0.4219 5.8834 0.5161 0.9766
-1.4912 8.6942 0.7718 0.9652
-2.6021 8.7010 0.7946 0.9642
-3.7986 8.7084 0.8312 0.9626
-5.1311 8.7166 0.8849 0.9602
-6.6718 8.7260 0.9610 0.9569
-10.8991 8.7520 1.2229 0.9454
-14.1214 8.7718 1.4544 0.9354
-18.9347 8.8014 1.8268 0.9196
-59.0916 -17.5854 5.3939 0.7807
-4.9457 -15.1403 1.3935 0.9380
-6.2559 -31.6731 2.8246 0.8784
-2.3587 -31.6970 2.7808 0.8802
22.1405 -51.1322 4.8749 0.7995
24.0664 -41.1350 4.1695 0.8258
40.9512 -42.1636 5.1423 0.7898
52.3541 -42.2722 5.8871 0.7632
26.8837 -16.7996 2.7735 0.8805
60.0510 -28.1097 5.8009 0.7663
60.2075 -11.9757 5.3707 0.7815
14.7353 8.5945 1.4924 0.9338
8.9097 8.6303 1.0852 0.9514
6.9970 8.6420 0.9728 0.9563
5.4227 8.6517 0.8933 0.9598
2.8571 8.6675 0.7984 0.9640
1.7375 8.6743 0.7740 0.9651
0.4536 5.8817 0.5161 0.9766
-2.5512 8.7007 0.7933 0.9642
-10.7791 8.7513 1.2147 0.9458
4.7981 8.6555 0.5187 0.9611
3.5150 8.6634 0.4900 0.9632
2.3458 8.6537 0.4699 0.9647
-0.8490 8.6824 0.4572 0.9657
-5.7179 8.7202 0.5465 0.9591
-12.1028 8.7917 0.7840 0.9418
-15.7925 8.7821 0.9470 0.9302
-21.6502 8.8181 1.2251 0.9106
-38.2879 -8.4356 2.0547 0.8547
-50.3085 -24.8193 2.9399 0.7988
-80.8825 -52.8803 5.0644 0.6790
-7.7515 -28.2945 1.5375 0.8891
-4.9353 -33.4074 1.7698 0.8735
-2.1855 -84.2216 4.4153 0.7136
24.8138 -50.4679 2.9473 0.7983
27.0225 -41.4535 2.5933 0.8202
34.1890 -24.9760 2.2189 0.8440
59.7706 -33.4485 3.5896 0.7601
67.1314 -18.4882 3.6492 0.7566
69.0424 -10.2945 3.6584 0.7561
34.4350 11.9835 1.9108 0.8641
41.1762 20.1767 2.4031 0.8322
13.2372 8.6037 0.8274 0.9387
3.5666 8.6567 0.4907 0.9632
2.3959 8.6542 0.4706 0.9647
1.3042 8.6670 0.4593 0.9655
0.2485 8.6779 0.4550 0.9658
-0.8019 8.6823 0.4570 0.9657
-1.8758 8.6805 0.4654 0.9651
-5.6509 8.7198 0.5446 0.9592
-7.2896 8.7298 0.5960 0.9555
-9.3029 8.7422 0.6690 0.9502
-11.9217 8.7583 0.7753 0.9425
-21.3168 8.8160 1.2089 0.9117
-50.6938 -24.6718 2.9546 0.7979
-23.2358 -31.5394 2.0530 0.8548
-13.1640 -23.3025 1.4026 0.8983
-2.6380 -84.2188 4.4159 0.7135
26.5258 -41.1731 2.5668 0.8219
33.9335 -40.8603 2.7836 0.8084
43.3621 -40.9683 3.1264 0.7875
59.5687 -33.7568 3.5883 0.7601
59.6210 -24.8454 3.3851 0.7720
68.9892 -2.2537 3.6175 0.7584
68.9345 6.0869 3.6268 0.7579
63.8657 13.5323 3.4214 0.7699
41.7350 20.1733 2.4294 0.8305
6.4054 8.6457 0.5639 0.9578
4.9199 8.6548 0.5217 0.9609
3.6097 8.6295 0.4902 0.9632
-1.8272 8.6807 0.4649 0.9651
-9.2027 8.7416 0.6652 0.9504
-11.7873 8.7575 0.7696 0.9429
-15.3964 8.7797 0.9289 0.9315
-20.9920 8.8140 1.1932 0.9128
-23.4969 -31.5378 2.0611 0.8543
-13.2784 -23.2132 1.4015 0.8984
-12.8972 -30.6015 1.7404 0.8755
-8.5279 -29.8660 1.6278 0.8830
-5.3022 -33.4051 1.7726 0.8733
24.5838 -51.3868 2.9854 0.7960
33.5066 -40.7900 2.7665 0.8094
42.8951 -40.9654 3.1085 0.7885
34.1709 -25.5302 2.2354 0.8429
59.6658 -34.2365 3.6052 0.7592
66.4999 -19.0850 3.6258 0.7580
68.7551 -11.0078 3.6492 0.7566
68.9916 -2.6248 3.6183 0.7584
34.4341 11.5701 1.9038 0.8646
42.2165 20.1271 2.4511 0.8292
13.5505 8.6017 0.8412 0.9377
4.9814 8.6544 0.5233 0.9608
2.4965 8.6550 0.4721 0.9646
0.3418 8.6772 0.4551 0.9658
-0.7079 8.6822 0.4565 0.9657
-1.7786 8.6809 0.4644 0.9651
-2.9092 8.6968 0.4806 0.9639
-12.0265 25.3131 1.4687 0.8938
-5.5183 8.7189 0.5408 0.9595
-11.6550 8.7567 0.7640 0.9433
-15.2040 8.7785 0.9201 0.9321
-20.6756 8.8121 1.1779 0.9139
-21.6527 -22.4907 1.6362 0.8825
-23.7602 -31.5361 2.0693 0.8537
-13.0906 -30.6003 1.7443 0.8752
-9.2368 -31.7027 1.7305 0.8761
25.7847 -40.9831 2.5376 0.8237
33.1395 -40.7877 2.7542 0.8102
34.1701 -25.8166 2.2444 0.8424
66.8248 -19.5673 3.6492 0.7566
68.9941 -2.9960 3.6192 0.7583
68.9394 5.3417 3.6238 0.7581
68.2695 13.7009 3.6492 0.7566
42.8901 20.1662 2.4838 0.8271
10.6381 8.6196 0.7176 0.9466
8.3568 8.6337 0.6297 0.9530
2.5471 8.6555 0.4728 0.9645
1.4470 8.6651 0.4604 0.9654
-0.6610 8.6821 0.4563 0.9657
-1.7301 8.6811 0.4639 0.9652
-2.8569 8.6955 0.4797 0.9640
-11.5245 8.7559 0.7585 0.9437
-15.0152 8.7773 0.9115 0.9327
-20.3672 8.8102 1.1630 0.9150
-24.0255 -31.5345 2.0777 0.8532
-18.5105 -31.5683 1.9179 0.8637
-13.2850 -30.5991 1.7482 0.8749
-9.9193 -33.3769 1.8248 0.8698
42.3213 -41.2954 3.0989 0.7891
34.1779 -26.1121 2.2541 0.8417
66.7188 -19.9259 3.6492 0.7566
68.1929 -11.6703 3.6258 0.7580
68.9418 4.9697 3.6225 0.7582
68.0655 13.2801 3.6344 0.7575
34.4382 11.1613 1.8972 0.8650
13.8745 8.5998 0.8555 0.9367
10.7548 8.6189 0.7223 0.9463
8.4465 8.6331 0.6330 0.9528
5.1055 8.6537 0.5266 0.9606
2.5978 8.6559 0.4736 0.9644
0.4351 8.6764 0.4553 0.9658
-1.6817 8.6813 0.4634 0.9652
-5.3875 8.7181 0.5371 0.9598
-11.3959 8.7551 0.7531 0.9441
-14.8298 8.7762 0.9031 0.9333
-10.1145 -33.3757 1.8277 0.8696
-4.2813 -24.4244 1.2995 0.9055
23.3521 -50.9033 2.9351 0.7991
25.4641 -41.4548 2.5497 0.8229
32.5255 -40.9224 2.7396 0.8111
59.5583 -35.4623 3.6327 0.7576
68.5689 -12.1140 3.6492 0.7566
68.9990 -3.7390 3.6214 0.7582
68.9442 4.5976 3.6212 0.7582
26.7793 8.5205 1.4728 0.8935
44.0984 20.1587 2.5411 0.8235
14.0407 8.5987 0.8629 0.9362
10.8730 8.6182 0.7271 0.9459
8.5372 8.6326 0.6363 0.9525
3.8265 8.6227 0.4944 0.9629
2.6487 8.6564 0.4744 0.9644
1.5426 8.6637 0.4612 0.9654
0.4818 8.6760 0.4554 0.9658
-2.7531 8.6931 0.4779 0.9641
-6.8985 8.7274 0.5830 0.9564
-8.8131 8.7392 0.6505 0.9515
-18.9674 -31.5655 1.9300 0.8629
-13.6764 -30.5967 1.7564 0.8744
-6.0397 -33.4006 1.7788 0.8729
-2.1505 -36.9287 1.9386 0.8623
26.2858 -83.7809 4.6018 0.7035
25.6673 -42.2931 2.5927 0.8202
32.3702 -41.1790 2.7451 0.8107
41.9897 -41.8617 3.1074 0.7886
59.9242 -36.1174 3.6668 0.7556
68.5028 -12.4820 3.6492 0.7566
69.0014 -4.1111 3.6226 0.7581
68.9467 4.2261 3.6201 0.7583
6.7705 8.6434 0.5754 0.9570
2.6998 8.6569 0.4752 0.9643
1.5905 8.6630 0.4616 0.9653
-0.5205 8.6817 0.4558 0.9658
-5.2585 8.7173 0.5335 0.9600
-6.8223 8.7270 0.5805 0.9566
-8.7184 8.7386 0.6469 0.9518
-11.1441 8.7535 0.7427 0.9448
-14.4692 8.7740 0.8868 0.9345
-24.8346 -31.5296 2.1034 0.8515
-19.1981 -31.5641 1.9362 0.8624
-13.8735 -30.5955 1.7606 0.8741
-4.7037 -25.2371 1.3454 0.9023
24.1725 -54.2201 3.1111 0.7884
32.2142 -41.4369 2.7507 0.8104
41.7868 -42.1092 3.1090 0.7885
59.9215 -36.5562 3.6786 0.7549
69.0039 -4.4832 3.6240 0.7581
53.2586 9.5031 2.8352 0.8052
27.7895 8.5142 1.5232 0.8901
44.6202 19.8209 2.5588 0.8224
14.3819 8.5966 0.8781 0.9351
5.2946 8.6525 0.5316 0.9602
0.3918 5.9086 0.3103 0.9766
-1.5371 8.6817 0.4621 0.9653
-5.1946 8.7170 0.5318 0.9602
-11.0207 8.7528 0.7376 0.9452
-19.2076 8.8031 1.1073 0.9189
-27.7386 8.8555 1.5260 0.8899
-25.1089 -31.5279 2.1123 0.8509
-14.0714 -30.5943 1.7648 0.8738
-10.7537 -33.5291 1.8453 0.8685
-4.8382 -25.2066 1.3451 0.9023
-2.5469 -36.9035 1.9386 0.8623
26.0198 -86.1627 4.7170 0.6973
26.0236 -43.9375 2.6763 0.8150
32.0577 -41.6956 2.7564 0.8100
52.9152 -42.2580 3.5490 0.7624
59.9188 -36.9974 3.6906 0.7542
68.3648 -13.2171 3.6492 0.7566
69.0063 -4.8555 3.6254 0.7580
68.9515 3.4834 3.6182 0.7584
53.0568 9.1734 2.8218 0.8060
28.3208 8.5110 1.5498 0.8883
44.7683 19.5993 2.5612 0.8222
14.5570 8.5956 0.8860 0.9345
11.2375 8.6160 0.7421 0.9449
8.8151 8.6309 0.6465 0.9518
6.9209 8.6425 0.5803 0.9566
5.3584 8.6521 0.5334 0.9601
4.0114 8.6604 0.5002 0.9625
2.8025 8.6580 0.4769 0.9642
-1.4891 8.6819 0.4616 0.9653
-2.5987 8.6896 0.4753 0.9643
-3.7986 8.7084 0.4979 0.9627
-19.6649 -31.5631 1.9489 0.8616
-14.2705 -30.5930 1.7692 0.8735
-4.9451 -15.1384 0.8346 0.9382
-4.6219 -23.4006 1.2501 0.9089
25.5959 -86.4347 4.7243 0.6969
24.3651 -41.6456 2.5286 0.8243
40.9891 -42.2026 3.0832 0.7901
68.2928 -13.5840 3.6492 0.7566
69.0088 -5.2285 3.6270 0.7579
68.9540 3.1125 3.6174 0.7585
44.7665 19.3128 2.5551 0.8226
14.7353 8.5945 0.8940 0.9340
11.3624 8.6152 0.7473 0.9445
8.9097 8.6303 0.6501 0.9515
5.4227 8.6517 0.5351 0.9599
2.8541 8.6585 0.4778 0.9641
0.4535 5.8807 0.3091 0.9767
-0.3802 8.6813 0.4554 0.9658
-5.0681 8.7162 0.5284 0.9604
-8.4402 8.7369 0.6366 0.9525
-10.7791 8.7513 0.7276 0.9459
4.7761 8.6158 0.1719 0.9614
3.5150 8.6634 0.1632 0.9633
2.3504 8.6706 0.1568 0.9647
0.2020 8.6838 0.1516 0.9658
-3.0537 8.6624 0.1603 0.9639
-7.3700 8.7303 0.1994 0.9553
-12.1028 8.7917 0.2611 0.9419
-15.7550 8.7612 0.3147 0.9304
-14.4604 -35.3672 0.6669 0.8582
-7.7496 -28.2874 0.5120 0.8893
-1.7287 -66.6197 1.1632 0.7660
31.3407 -89.6703 1.6580 0.6839
30.0324 -46.0707 0.9599 0.8025
34.1890 -24.9760 0.7390 0.8442
43.5245 -24.3569 0.8706 0.8191
50.5259 -20.7375 0.9533 0.8037
89.9171 -24.7634 1.6280 0.6886
90.2117 8.4541 1.5815 0.6959
56.2746 19.5838 1.0401 0.7879
41.1762 20.1767 0.8004 0.8324
8.0930 8.6353 0.2066 0.9538
3.5666 8.6567 0.1634 0.9632
2.4003 8.6703 0.1570 0.9646
1.3057 8.6770 0.1532 0.9655
-0.8007 8.6689 0.1520 0.9658
-3.0014 8.6620 0.1600 0.9640
-5.6509 8.7198 0.1814 0.9593
-9.3029 8.7422 0.2228 0.9502
-21.3168 8.8160 0.4026 0.9118
-38.4397 -8.2528 0.6863 0.8545
-50.4454 -24.5509 0.9793 0.7990
-64.4541 -68.4039 1.6405 0.6866
-4.7857 -31.2332 0.5515 0.8813
31.3312 -91.2128 1.6834 0.6799
40.6392 -83.7881 1.6255 0.6890
30.0290 -46.6106 0.9678 0.8011
59.6211 -24.8454 1.1274 0.7723
63.8657 13.5323 1.1395 0.7701
57.2459 19.5778 1.0560 0.7850
8.1800 8.6348 0.2076 0.9535
6.3915 8.6270 0.1874 0.9580
4.8974 8.6152 0.1730 0.9611
3.6097 8.6295 0.1633 0.9633
0.2953 8.6832 0.1517 0.9658
-0.7537 8.6686 0.1519 0.9658
-1.8260 8.6754 0.1547 0.9652
-12.1935 25.3129 0.4904 0.8937
-5.5844 8.7193 0.1807 0.9594
-9.2027 8.7416 0.2216 0.9505
-11.7873 8.7575 0.2563 0.9429
-15.3583 8.7580 0.3086 0.9317
-20.9920 8.8140 0.3974 0.9129
-23.2300 -31.1795 0.6787 0.8559
-18.0594 -31.5711 0.6349 0.8646
-14.8353 -35.1999 0.6668 0.8583
-4.9573 -31.2321 0.5520 0.8812
-0.5935 -16.1703 0.2824 0.9373
31.3214 -92.8035 1.7097 0.6758
41.8630 -87.5050 1.6932 0.6784
30.0255 -47.1598 0.9759 0.7996
32.1545 -39.1440 0.8842 0.8166
34.1421 -32.6061 0.8241 0.8279
59.6187 -25.2211 1.1299 0.7718
86.2156 -24.7432 1.5656 0.6985
90.6916 7.5174 1.5884 0.6948
65.5630 13.5244 1.1685 0.7650
58.2476 19.5717 1.0726 0.7821
34.4427 16.4208 0.6660 0.8584
13.5505 8.6017 0.2802 0.9378
8.2680 8.6342 0.2087 0.9533
6.4633 8.6266 0.1882 0.9578
4.9587 8.6149 0.1735 0.9610
2.5007 8.6697 0.1575 0.9645
0.3420 8.6829 0.1517 0.9658
-0.7069 8.6689 0.1518 0.9658
-1.7774 8.6750 0.1546 0.9652
-7.1311 8.7289 0.1967 0.9559
-11.6550 8.7567 0.2545 0.9433
-15.1658 8.7564 0.3057 0.9323
-20.6756 8.8121 0.3923 0.9140
-73.4727 -5.8916 1.2866 0.7446
-63.3208 -29.9803 1.2229 0.7556
-21.6494 -22.4872 0.5449 0.8826
-23.4903 -31.1779 0.6814 0.8554
-15.0577 -35.1985 0.6682 0.8580
-5.1292 -31.2311 0.5524 0.8811
-0.6795 -16.1487 0.2821 0.9374
31.3113 -94.4448 1.7368 0.6716
25.5557 -54.1634 1.0454 0.7869
34.1838 -25.8270 0.7478 0.8425
41.9077 -24.3470 0.8460 0.8237
84.4644 -24.7324 1.5362 0.7032
67.3353 13.5135 1.1988 0.7598
8.3568 8.6337 0.2097 0.9531
5.0203 8.6146 0.1740 0.9609
27.9524 64.8587 1.2328 0.7539
0.3887 8.6826 0.1517 0.9658
-1.7288 8.6747 0.1544 0.9652
-4.0621 8.6697 0.1671 0.9624
-5.4527 8.7185 0.1795 0.9597
-11.5245 8.7559 0.2526 0.9437
-14.9767 8.7549 0.3028 0.9330
-63.3266 -29.5678 1.2199 0.7561
-9.2741 -31.2057 0.5682 0.8779
-1.9218 -40.4921 0.7076 0.8503
34.1378 -33.3103 0.8325 0.8263
82.7777 -24.7220 1.5079 0.7078
50.7028 9.8925 0.9017 0.8133
59.8930 19.4111 1.0990 0.7773
43.4871 20.1625 0.8367 0.8255
10.7548 8.6189 0.2406 0.9464
6.6085 8.6259 0.1897 0.9575
5.0823 8.6143 0.1746 0.9608
3.7865 8.6577 0.1649 0.9629
0.4354 8.6824 0.1517 0.9658
-1.6803 8.6744 0.1542 0.9653
-2.7940 8.6606 0.1588 0.9642
-4.0052 8.6691 0.1667 0.9625
-6.9753 8.7279 0.1950 0.9563
-14.7912 8.7533 0.3000 0.9336
-34.2830 1.7655 0.5995 0.8717
-57.7504 -18.5454 1.0587 0.7845
-24.0171 -31.1747 0.6869 0.8543
-18.7383 -31.5669 0.6408 0.8634
-15.5783 -35.3603 0.6745 0.8568
-9.4565 -31.2046 0.5691 0.8777
-4.2813 -24.4244 0.4328 0.9056
-2.1397 -40.4908 0.7078 0.8503
40.1387 -87.4947 1.6803 0.6804
30.0277 -48.8842 1.0014 0.7949
31.1233 -39.1582 0.8731 0.8186
34.1802 -26.4058 0.7539 0.8413
40.8797 -24.3407 0.8305 0.8267
30.3866 5.7594 0.5398 0.8836
26.7793 8.5205 0.4905 0.8937
44.0984 20.1587 0.8463 0.8237
10.8730 8.6182 0.2422 0.9460
6.6821 8.6255 0.1904 0.9573
3.8256 8.6207 0.1646 0.9630
1.5447 8.6755 0.1538 0.9654
0.4822 8.6821 0.1518 0.9658
-2.7427 8.6602 0.1586 0.9643
-6.8985 8.7274 0.1942 0.9565
-11.2691 8.7543 0.2491 0.9445
-14.6092 8.7519 0.2973 0.9341
-19.7453 8.7942 0.3773 0.9172
-57.8100 -18.2228 1.0580 0.7847
-18.9674 -31.5655 0.6428 0.8630
-15.8051 -35.3589 0.6760 0.8565
-5.6468 -31.2279 0.5539 0.8808
-2.3578 -40.4895 0.7079 0.8502
39.5699 -87.4914 1.6761 0.6810
30.0115 -49.4513 1.0097 0.7934
30.7792 -39.1550 0.8693 0.8193
34.1334 -34.0293 0.8413 0.8246
79.5847 -24.7024 1.4545 0.7165
27.2761 8.5174 0.4988 0.8920
14.1554 8.5648 0.2888 0.9360
10.9929 8.6175 0.2438 0.9457
8.6288 8.6320 0.2130 0.9523
3.8810 8.6204 0.1650 0.9629
1.5928 8.6753 0.1540 0.9653
0.5290 8.6818 0.1518 0.9658
-3.8924 8.6683 0.1659 0.9627
-8.7184 8.7386 0.2155 0.9518
-11.1441 8.7535 0.2474 0.9449
-19.4582 8.7918 0.3727 0.9181
-57.2698 -17.7148 1.0464 0.7868
-24.5525 -31.1714 0.6926 0.8532
-19.1981 -31.5641 0.6449 0.8626
-16.0328 -35.3575 0.6777 0.8561
-2.5759 -40.4881 0.7081 0.8502
26.1569 -43.6262 0.8879 0.8159
34.1766 -26.9939 0.7602 0.8401
39.8841 -24.3320 0.8155 0.8295
53.6607 -24.4192 1.0291 0.7899
77.9105 -24.6421 1.4263 0.7212
27.7895 8.5142 0.5073 0.8902
44.6202 19.8209 0.8522 0.8226
15.0865 9.0178 0.3068 0.9321
11.1144 8.6167 0.2455 0.9453
8.7214 8.6314 0.2142 0.9521
5.2706 8.6134 0.1763 0.9604
3.9367 8.6201 0.1654 0.9628
2.7544 8.6681 0.1588 0.9643
0.3917 5.9070 0.1033 0.9766
-0.4736 8.6798 0.1517 0.9658
-1.5356 8.6735 0.1538 0.9654
-2.6404 8.6595 0.1580 0.9644
-6.7467 8.7265 0.1925 0.9568
-11.0207 8.7528 0.2457 0.9453
-27.7387 8.8555 0.5083 0.8900
-57.2850 -17.3831 1.0449 0.7870
-20.6171 -33.4907 0.6865 0.8544
-16.2616 -35.3561 0.6793 0.8558
-10.0071 -31.2012 0.5719 0.8771
-5.9935 -31.2258 0.5550 0.8806
-2.7942 -40.4868 0.7084 0.8501
36.7782 -83.7021 1.5958 0.6937
30.0039 -50.6577 1.0277 0.7901
34.1748 -27.2919 0.7634 0.8395
52.8644 -24.4003 1.0163 0.7922
15.1415 8.9407 0.3069 0.9321
8.8151 8.6309 0.2153 0.9518
5.3345 8.6136 0.1768 0.9603
3.9926 8.6198 0.1658 0.9627
0.4218 5.8815 0.1029 0.9767
-0.4269 8.6820 0.1517 0.9658
-1.4876 8.6732 0.1536 0.9654
-2.5896 8.6592 0.1578 0.9645
-3.7807 8.6675 0.1651 0.9629
-5.1311 8.7166 0.1766 0.9603
-10.8991 8.7520 0.2440 0.9456
-18.9042 8.7872 0.3639 0.9200
-27.2233 8.8524 0.4997 0.8918
-57.3001 -17.0523 1.0435 0.7873
-25.0970 -31.1681 0.6985 0.8521
-20.8649 -33.4892 0.6887 0.8540
-16.4917 -35.3547 0.6810 0.8555
-6.1673 -31.2247 0.5556 0.8804
36.2851 -83.7984 1.5939 0.6940
30.0001 -51.2772 1.0370 0.7885
32.0467 -42.1476 0.9242 0.8091
26.8777 -16.7958 0.5532 0.8809
50.1024 8.3858 0.8867 0.8161
46.6905 20.1428 0.8876 0.8159
11.3624 8.6152 0.2489 0.9446
1.7375 8.6743 0.1544 0.9652
0.4534 5.8797 0.1029 0.9767
-1.4396 8.6729 0.1535 0.9654
-2.5396 8.6613 0.1575 0.9645
-3.7253 8.6671 0.1647 0.9630
-5.0681 8.7162 0.1760 0.9605
-6.5975 8.7256 0.1909 0.9572
-8.4402 8.7369 0.2120 0.9526
-10.7791 8.7513 0.2424 0.9460
3.5150 8.6634 -0.1632 0.9633
1.2581 8.6773 -0.1530 0.9655
-0.8470 8.6623 -0.1519 0.9658
-4.3002 8.6870 -0.1692 0.9620
-7.3700 8.7303 -0.1994 0.9553
-9.4043 8.7428 -0.2241 0.9499
-15.6016 8.6759 -0.3116 0.9311
-21.6502 8.8181 -0.4080 0.9107
-50.1944 13.6788 -0.9081 0.8121
-53.5160 7.8326 -0.9441 0.8054
-38.2534 -8.4280 -0.6837 0.8550
-50.1333 -24.7329 -0.9758 0.7996
-15.5512 -21.3477 -0.4610 0.8997
-11.3231 -20.2976 -0.4057 0.9112
-7.9793 -19.5159 -0.3680 0.9191
-5.3432 -19.5038 -0.3530 0.9223
-3.0939 -20.9429 -0.3695 0.9188
-2.1855 -84.2216 -1.4706 0.7139
39.4240 -80.1832 -1.5596 0.6995
30.0322 -46.0703 -0.9599 0.8025
34.1463 -31.9160 -0.8158 0.8295
43.5245 -24.3569 -0.8706 0.8191
49.5571 -13.6482 -0.8972 0.8141
13.2372 8.6037 -0.2756 0.9388
10.2970 8.6217 -0.2344 0.9477
-4.2499 8.7027 -0.1691 0.9620
-7.2896 8.7298 -0.1985 0.9555
-11.9217 8.7583 -0.2582 0.9425
-50.1921 13.9682 -0.9094 0.8119
-53.5141 8.1261 -0.9448 0.8053
-73.3520 -25.3062 -1.3544 0.7331
-50.2855 -24.4731 -0.9762 0.7995
-60.6862 -39.2125 -1.2612 0.7490
-11.3567 -20.1034 -0.4030 0.9118
-5.1427 -33.5634 -0.5927 0.8730
42.4456 -87.5125 -1.6977 0.6777
30.0289 -46.6106 -0.9678 0.8011
32.3518 -38.9557 -0.8839 0.8166
59.6211 -24.8454 -1.1274 0.7723
57.2459 19.5778 -1.0560 0.7850
10.4093 8.6211 -0.2359 0.9474
0.2953 8.6832 -0.1517 0.9658
-0.7535 8.6667 -0.1518 0.9658
-2.9355 8.6213 -0.1590 0.9642
-7.2100 8.7293 -0.1976 0.9557
-11.7873 8.7575 -0.2563 0.9429
-20.9920 8.8140 -0.3974 0.9129
-50.1897 14.2584 -0.9107 0.8116
-73.0811 -24.7744 -1.3469 0.7344
-60.5711 -38.6786 -1.2544 0.7501
-5.5998 -19.6113 -0.3560 0.9216
-3.2731 -20.6210 -0.3644 0.9199
-0.5935 -16.1701 -0.2824 0.9373
30.5607 -90.5495 -1.6681 0.6823
25.9112 -54.1614 -1.0480 0.7865
30.0257 -47.1601 -0.9759 0.7996
31.9971 -38.9524 -0.8799 0.8174
34.1421 -32.6061 -0.8241 0.8279
42.4364 -24.3502 -0.8540 0.8222
86.9277 -24.9476 -1.5786 0.6964
97.3369 8.0683 -1.7048 0.6766
34.4427 16.4208 -0.6660 0.8584
13.5505 8.6017 -0.2802 0.9378
10.5229 8.6204 -0.2374 0.9470
8.2680 8.6342 -0.2087 0.9533
4.9335 8.5712 -0.1726 0.9612
27.5416 64.8613 -1.2300 0.7543
0.3420 8.6829 -0.1517 0.9658
-2.8848 8.6238 -0.1587 0.9643
-12.0798 25.4252 -0.4913 0.8935
-5.5183 8.7189 -0.1801 0.9596
-9.1037 8.7410 -0.2203 0.9508
-11.6550 8.7567 -0.2545 0.9433
-20.6756 8.8121 -0.3923 0.9140
-50.1874 14.5495 -0.9121 0.8114
-53.5103 8.7145 -0.9463 0.8050
-87.5091 3.5647 -1.5287 0.7044
-73.4278 -5.8880 -1.2858 0.7448
-47.4657 -9.6585 -0.8455 0.8238
-73.3371 -24.4228 -1.3492 0.7340
-63.6042 -30.1145 -1.2284 0.7546
-73.2615 -46.2303 -1.5121 0.7071
-21.6449 -22.4826 -0.5447 0.8826
-16.6624 -22.1155 -0.4833 0.8951
-11.7005 -20.2022 -0.4075 0.9108
-8.4096 -19.6580 -0.3732 0.9180
-5.6663 -19.4479 -0.3536 0.9222
-0.6795 -16.1486 -0.2821 0.9374
30.6055 -92.3159 -1.6976 0.6777
25.5879 -54.2318 -1.0467 0.7867
29.3830 -46.7023 -0.9631 0.8019
31.6456 -38.9491 -0.8760 0.8181
34.1838 -25.8270 -0.7478 0.8425
97.3337 7.5418 -1.7040 0.6767
8.3568 8.6337 -0.2097 0.9531
6.5166 8.6012 -0.1884 0.9577
2.5512 8.6693 -0.1577 0.9645
-5.4527 8.7185 -0.1795 0.9597
-7.0529 8.7284 -0.1959 0.9561
-27.5813 8.1567 -0.5020 0.8913
-53.5084 9.0095 -0.9471 0.8049
-87.3439 4.0280 -1.5262 0.7048
-16.9488 -22.2460 -0.4882 0.8941
-8.5331 -19.6542 -0.3740 0.9179
-1.0324 -21.7529 -0.3801 0.9166
30.3761 -93.2985 -1.7127 0.6753
40.2995 -86.6144 -1.6675 0.6824
31.2973 -38.9459 -0.8721 0.8188
34.1378 -33.3103 -0.8325 0.8263
34.1820 -26.1152 -0.7508 0.8419
41.3890 -24.3438 -0.8381 0.8252
56.0723 -24.4340 -1.0676 0.7829
82.5971 -24.6681 -1.5047 0.7083
89.7157 -15.3536 -1.5888 0.6948
40.3483 18.7072 -0.7763 0.8370
13.8745 8.5998 -0.2849 0.9368
10.7548 8.6189 -0.2406 0.9464
8.4465 8.6331 -0.2108 0.9528
6.5893 8.6007 -0.1891 0.9576
2.6018 8.6690 -0.1580 0.9644
0.4354 8.6824 -0.1517 0.9658
-0.6135 8.6733 -0.1518 0.9658
-1.6764 8.6538 -0.1539 0.9654
-3.9844 8.6242 -0.1658 0.9627
-6.9753 8.7279 -0.1950 0.9563
-8.9089 8.7398 -0.2178 0.9513
-11.3959 8.7551 -0.2508 0.9441
-14.6788 8.6868 -0.2977 0.9340
-47.2298 -9.0833 -0.8395 0.8250
-60.0523 -36.9989 -1.2312 0.7541
-12.0221 -20.2527 -0.4111 0.9101
-3.6212 -20.6587 -0.3661 0.9195
1.9201 -28.2230 -0.4938 0.8930
29.9226 -93.6101 -1.7154 0.6749
40.1403 -87.4983 -1.6803 0.6804
29.2489 -47.6164 -0.9754 0.7997
30.9520 -38.9427 -0.8683 0.8195
34.1356 -33.6678 -0.8369 0.8255
82.4198 -25.0981 -1.5039 0.7084
8.5372 8.6326 -0.2119 0.9526
6.6625 8.6002 -0.1899 0.9574
5.1244 8.5802 -0.1744 0.9608
2.6525 8.6687 -0.1582 0.9644
0.4822 8.6821 -0.1518 0.9658
-5.3228 8.7177 -0.1783 0.9600
-8.8131 8.7392 -0.2166 0.9516
-11.2691 8.7543 -0.2491 0.9445
-50.1808 15.4282 -0.9164 0.8106
-54.7279 9.8204 -0.9705 0.8006
-71.5169 -4.5764 -1.2509 0.7507
-47.7900 -8.9252 -0.8486 0.8233
-73.3255 -33.2817 -1.4056 0.7246
-17.8513 -22.9158 -0.5070 0.8903
-10.3586 -33.5315 -0.6126 0.8690
-3.7135 -20.5364 -0.3643 0.9199
-1.2723 -21.8476 -0.3820 0.9162
1.7589 -28.0786 -0.4911 0.8936
29.9120 -95.3387 -1.7441 0.6705
39.5715 -87.4948 -1.6762 0.6810
30.0113 -49.4509 -1.0097 0.7934
34.1334 -34.0293 -0.8413 0.8246
34.1784 -26.6986 -0.7570 0.8407
79.5848 -24.7025 -1.4545 0.7165
51.7547 9.5220 -0.9185 0.8102
5.1890 8.5832 -0.1751 0.9607
0.5290 8.6818 -0.1518 0.9658
-1.5800 8.6533 -0.1535 0.9654
-2.6832 8.6334 -0.1578 0.9645
-5.2585 8.7173 -0.1777 0.9601
-6.8223 8.7270 -0.1934 0.9567
-14.3516 8.7026 -0.2930 0.9351
-19.2342 8.6906 -0.3684 0.9190
-28.0140 8.7778 -0.5124 0.8892
-55.6619 3.4664 -0.9735 0.8000
-87.4014 -5.1218 -1.5282 0.7045
-57.6721 -17.8392 -1.0537 0.7854
-73.3614 -32.8241 -1.4028 0.7250
-59.8021 -35.9647 -1.2181 0.7564
-12.2632 -20.1622 -0.4119 0.9099
-8.9606 -19.7612 -0.3787 0.9169
-6.0728 -19.2904 -0.3530 0.9223
-3.8517 -20.6659 -0.3669 0.9193
34.1766 -26.9939 -0.7602 0.8401
39.8884 -24.3346 -0.8156 0.8295
53.6607 -24.4192 -1.0291 0.7899
78.7167 -24.8971 -1.4411 0.7187
51.7530 9.2344 -0.9176 0.8103
27.4062 8.3968 -0.5003 0.8917
11.1144 8.6167 -0.2455 0.9453
8.7214 8.6314 -0.2142 0.9521
5.2540 8.5862 -0.1757 0.9605
1.6409 8.6750 -0.1541 0.9653
0.3916 5.9054 -0.1033 0.9766
-1.5320 8.6530 -0.1534 0.9655
-2.6332 8.6358 -0.1576 0.9645
-6.7467 8.7265 -0.1925 0.9568
-18.9733 8.6957 -0.3643 0.9199
-27.7387 8.8555 -0.5083 0.8900
-87.2646 16.6283 -1.5506 0.7009
-54.9710 3.7197 -0.9617 0.8022
-87.3985 -4.6509 -1.5277 0.7046
-62.0530 -47.8421 -1.3677 0.7309
-18.4355 -23.1485 -0.5165 0.8884
-12.3425 -20.0493 -0.4110 0.9101
-9.0258 -19.6241 -0.3770 0.9172
-10.7537 -33.5291 -0.6146 0.8686
-3.9273 -20.4613 -0.3637 0.9200
-1.4855 -21.5243 -0.3766 0.9173
1.4013 -27.0178 -0.4722 0.8974
26.6164 -88.1384 -1.6071 0.6919
38.4417 -87.4879 -1.6680 0.6823
25.6029 -33.3003 -0.7332 0.8453
34.1748 -27.2919 -0.7634 0.8395
39.4060 -24.3316 -0.8084 0.8309
51.7512 8.9477 -0.9167 0.8105
41.7712 18.2872 -0.7959 0.8332
11.2375 8.6160 -0.2472 0.9449
6.8925 8.6071 -0.1925 0.9568
3.9721 8.5754 -0.1650 0.9629
1.6892 8.6746 -0.1543 0.9653
0.4217 5.8805 -0.1029 0.9767
-0.4269 8.6820 -0.1517 0.9658
-3.7613 8.6230 -0.1642 0.9631
-5.1311 8.7166 -0.1766 0.9603
-10.8991 8.7520 -0.2440 0.9456
-14.0347 8.7180 -0.2884 0.9360
-18.7324 8.7074 -0.3606 0.9207
-87.2615 17.1137 -1.5522 0.7006
-54.9692 4.0164 -0.9620 0.8021
-87.3955 -4.1800 -1.5272 0.7047
-73.1315 -31.7829 -1.3918 0.7269
-55.2410 -42.1192 -1.2125 0.7574
-18.8527 -23.4133 -0.5247 0.8867
-9.2142 -19.7533 -0.3805 0.9165
-1.6121 -21.6640 -0.3792 0.9168
1.2086 -26.0007 -0.4543 0.9011
36.2851 -83.7984 -1.5939 0.6940
25.3498 -33.3400 -0.7311 0.8457
34.1265 -35.1369 -0.8550 0.8220
34.1729 -27.5922 -0.7667 0.8389
26.8728 -16.7928 -0.5531 0.8809
52.1470 -24.4099 -1.0050 0.7943
75.1969 -24.6755 -1.3814 0.7286
70.9550 3.2028 -1.2398 0.7527
51.7495 8.6615 -0.9158 0.8107
28.6520 8.4429 -0.5214 0.8874
42.3157 18.2555 -0.8044 0.8316
15.1966 8.8635 -0.3071 0.9320
2.8571 8.6675 -0.1593 0.9641
1.7375 8.6743 -0.1544 0.9652
0.4533 5.8787 -0.1029 0.9767
-1.4362 8.6524 -0.1531 0.9655
-5.0681 8.7162 -0.1760 0.9605
-6.5975 8.7256 -0.1909 0.9572
-8.4402 8.7369 -0.2120 0.9526
-10.7791 8.7513 -0.2424 0.9460
-13.8711 8.7200 -0.2860 0.9366
3.5150 8.6634 -0.4900 0.9632
2.3504 8.6706 -0.4708 0.9647
1.2581 8.6773 -0.4595 0.9655
-0.8470 8.6623 -0.4561 0.9657
-1.9145 8.6346 -0.4635 0.9652
-5.7179 8.7202 -0.5465 0.9591
-7.3700 8.7303 -0.5988 0.9553
-9.4043 8.7428 -0.6729 0.9499
-20.2120 8.2323 -1.1438 0.9163
-45.2262 1.1128 -2.3709 0.8343
-44.8822 -4.3277 -2.3631 0.8348
-35.5870 -7.8405 -1.9098 0.8642
-42.2957 -14.8465 -2.3492 0.8356
-36.5131 -30.7398 -2.5014 0.8260
-32.5453 -34.9134 -2.5014 0.8260
-15.4892 -21.2625 -1.3786 0.9000
-11.0577 -19.8219 -1.1895 0.9131
-5.3098 -19.3816 -1.0532 0.9227
-0.5611 -21.6245 -1.1337 0.9170
4.2424 -44.6245 -2.3492 0.8356
15.7479 -45.0571 -2.5014 0.8260
21.0597 -42.8326 -2.5014 0.8260
34.0846 -24.8998 -2.2122 0.8444
39.1172 -21.8905 -2.3492 0.8356
37.3472 -15.3285 -2.1157 0.8507
47.2080 -7.0389 -2.5014 0.8260
29.3524 14.3830 -1.7130 0.8773
13.2372 8.6037 -0.8274 0.9387
4.7952 8.5419 -0.5134 0.9615
3.5666 8.6567 -0.4907 0.9632
0.2487 8.6835 -0.4553 0.9658
-9.3029 8.7422 -0.6690 0.9502
-11.9217 8.7583 -0.7753 0.9425
-15.2994 8.6158 -0.9202 0.9321
-19.9007 8.2304 -1.1286 0.9174
-25.8915 7.2055 -1.4085 0.8979
-37.6334 -8.0797 -2.0172 0.8571
-42.3748 -14.6192 -2.3492 0.8356
-40.0891 -25.9037 -2.5014 0.8260
-32.7323 -34.7381 -2.5014 0.8260
-15.6011 -21.1763 -1.3785 0.9000
-11.2309 -19.8807 -1.1967 0.9126
-7.9179 -19.0726 -1.0823 0.9206
-3.1450 -20.5257 -1.0883 0.9202
20.8294 -42.9451 -2.5014 0.8260
32.5832 -30.7844 -2.3492 0.8356
38.9990 -22.1003 -2.3492 0.8356
47.1695 -7.2923 -2.5014 0.8260
47.7044 -1.5584 -2.5014 0.8260
43.8522 9.2917 -2.3492 0.8356
29.2851 10.0154 -1.6220 0.8834
29.3491 14.1864 -1.7084 0.8776
13.3925 8.6027 -0.8342 0.9382
10.4093 8.6211 -0.7083 0.9473
8.1800 8.6348 -0.6233 0.9535
4.8574 8.5447 -0.5151 0.9614
3.6097 8.6295 -0.4902 0.9632
1.3533 8.6767 -0.4602 0.9654
-2.9284 8.6005 -0.4761 0.9643
-12.1935 25.3129 -1.4725 0.8936
-5.5844 8.7193 -0.5426 0.9594
-15.1244 8.6246 -0.9125 0.9326
-19.8198 8.3218 -1.1266 0.9175
-25.6153 7.2770 -1.3956 0.8988
-35.9088 1.2696 -1.8831 0.8660
-37.8000 -7.9033 -2.0238 0.8567
-42.4527 -14.3914 -2.3492 0.8356
-36.8412 -30.3458 -2.5014 0.8260
-5.4607 -19.1241 -1.0423 0.9234
-3.2519 -20.4879 -1.0872 0.9203
9.7055 -46.7327 -2.5014 0.8260
20.5984 -43.0563 -2.5014 0.8260
34.0811 -25.4632 -2.2296 0.8433
47.1297 -7.5455 -2.5014 0.8260
43.9014 9.0560 -2.3492 0.8356
10.5229 8.6204 -0.7129 0.9470
8.2680 8.6342 -0.6265 0.9532
10.8394 25.5272 -1.4534 0.8949
2.5007 8.6697 -0.4729 0.9645
1.4011 8.6764 -0.4606 0.9654
-0.7069 8.6689 -0.4558 0.9658
-12.0798 25.4252 -1.4752 0.8934
-5.5183 8.7189 -0.5408 0.9595
-9.1037 8.7410 -0.6614 0.9507
-19.8190 8.4470 -1.1291 0.9173
-45.2218 1.8421 -2.3719 0.8342
-37.9676 -7.7258 -2.0306 0.8562
-40.3651 -25.4716 -2.5014 0.8260
-37.0037 -30.1475 -2.5014 0.8260
-21.6377 -22.4752 -1.6350 0.8825
-16.5782 -22.0038 -1.4438 0.8955
-11.5459 -19.9353 -1.2073 0.9119
-0.6795 -16.1484 -0.8471 0.9373
9.4544 -46.7841 -2.5014 0.8260
20.3670 -43.1663 -2.5014 0.8260
24.0115 -38.1646 -2.3631 0.8348
28.2665 -34.7901 -2.3492 0.8356
41.1892 -17.6860 -2.3492 0.8356
41.5329 -12.1614 -2.2680 0.8408
47.6850 -2.0706 -2.5014 0.8260
43.9494 8.8202 -2.3492 0.8356
29.2802 9.6637 -1.6159 0.8838
29.3427 13.7964 -1.6993 0.8782
13.7111 8.6008 -0.8482 0.9372
10.6381 8.6196 -0.7176 0.9466
8.3568 8.6337 -0.6297 0.9530
4.9829 8.5505 -0.5186 0.9611
11.0035 25.5317 -1.4570 0.8946
-0.6602 8.6711 -0.4557 0.9658
-1.7206 8.6336 -0.4614 0.9654
-7.0529 8.7284 -0.5881 0.9560
-11.5245 8.7559 -0.7585 0.9437
-14.7833 8.6418 -0.8974 0.9337
-24.1623 7.1456 -1.3205 0.9040
-45.2176 2.0853 -2.3723 0.8342
-45.0134 -3.3663 -2.3656 0.8346
-38.1364 -7.5471 -2.0374 0.8558
-42.6048 -13.9347 -2.3492 0.8356
-40.5013 -25.2544 -2.5014 0.8260
-16.6540 -21.8591 -1.4402 0.8958
-8.3954 -19.3370 -1.1048 0.9190
-5.6771 -19.1025 -1.0444 0.9233
-3.4562 -20.3601 -1.0823 0.9206
-1.0258 -21.6134 -1.1340 0.9170
3.2829 -44.7053 -2.3492 0.8356
9.2030 -46.8342 -2.5014 0.8260
24.0039 -38.6110 -2.3827 0.8335
31.3951 -30.6341 -2.2988 0.8389
34.0776 -26.0355 -2.2475 0.8422
38.6379 -22.7257 -2.3492 0.8356
41.0936 -17.9070 -2.3492 0.8356
41.2215 -12.3110 -2.2546 0.8417
47.0459 -8.0513 -2.5014 0.8260
47.6064 3.4317 -2.5014 0.8260
43.9962 8.5840 -2.3492 0.8356
13.8745 8.5998 -0.8555 0.9367
10.7548 8.6189 -0.7223 0.9463
8.4465 8.6331 -0.6330 0.9528
1.4968 8.6758 -0.4614 0.9654
-2.7770 8.6078 -0.4740 0.9644
-5.3875 8.7181 -0.5371 0.9598
-14.6169 8.6502 -0.8901 0.9342
-19.5836 8.5964 -1.1209 0.9179
-23.7953 7.1763 -1.3025 0.9052
-44.7555 7.7830 -2.3807 0.8336
-34.2830 1.7655 -1.7991 0.8715
-45.0321 -3.1245 -2.3657 0.8346
-38.3064 -7.3672 -2.0443 0.8553
-17.0753 -22.1641 -1.4663 0.8940
-8.4915 -19.2744 -1.1038 0.9191
-5.7797 -19.0718 -1.0444 0.9233
-3.5376 -20.1818 -1.0738 0.9212
14.5325 -45.4638 -2.5014 0.8260
19.9020 -43.3826 -2.5014 0.8260
38.5153 -22.9329 -2.3492 0.8356
40.9969 -18.1273 -2.3492 0.8356
41.0787 -12.5091 -2.2504 0.8420
14.0407 8.5987 -0.8629 0.9362
10.8730 8.6182 -0.7271 0.9459
6.6593 8.5961 -0.5699 0.9574
5.1101 8.5562 -0.5223 0.9609
0.4822 8.6821 -0.4557 0.9658
-0.5668 8.6755 -0.4556 0.9658
-1.6243 8.6331 -0.4604 0.9654
-3.9080 8.5795 -0.4941 0.9629
-11.2691 8.7543 -0.7479 0.9444
-19.3346 8.6113 -1.1092 0.9187
-44.7258 8.0255 -2.3814 0.8336
-38.4774 -7.1861 -2.0514 0.8549
-42.7520 -13.4763 -2.3492 0.8356
-33.6532 -33.8468 -2.5014 0.8260
-17.4488 -22.3991 -1.4880 0.8925
-5.8669 -18.9917 -1.0417 0.9235
-1.2475 -21.4225 -1.1246 0.9176
8.6995 -46.9304 -2.5014 0.8260
14.2883 -45.5411 -2.5014 0.8260
19.6688 -43.4889 -2.5014 0.8260
23.9882 -39.5263 -2.4231 0.8309
27.7024 -35.2409 -2.3492 0.8356
31.7449 -31.6482 -2.3492 0.8356
40.8989 -18.3474 -2.3492 0.8356
41.0044 -12.7274 -2.2501 0.8420
46.9567 -8.5561 -2.5014 0.8260
47.6405 2.9201 -2.5014 0.8260
29.5054 9.2135 -1.6199 0.8835
29.3333 13.2192 -1.6862 0.8791
10.9929 8.6175 -0.7320 0.9456
8.6288 8.6320 -0.6396 0.9523
6.7363 8.5997 -0.5725 0.9572
5.1744 8.5592 -0.5242 0.9607
3.8414 8.5324 -0.4904 0.9632
2.7034 8.6684 -0.4759 0.9643
-0.5202 8.6777 -0.4556 0.9658
-2.6768 8.6127 -0.4727 0.9645
-3.8525 8.5793 -0.4929 0.9630
-5.2585 8.7173 -0.5335 0.9600
-6.8223 8.7270 -0.5805 0.9566
-8.7184 8.7386 -0.6469 0.9518
-11.1441 8.7535 -0.7427 0.9448
-14.2920 8.6665 -0.8760 0.9352
-19.0909 8.6259 -1.0979 0.9195
-22.8625 7.1637 -1.2556 0.9085
-44.6948 8.2679 -2.3821 0.8335
-45.0652 -2.6409 -2.3658 0.8346
-42.6677 -7.7317 -2.2725 0.8406
-42.8238 -13.2464 -2.3492 0.8356
-40.9028 -24.5988 -2.5014 0.8260
-37.6427 -29.3457 -2.5014 0.8260
-12.0480 -19.8085 -1.2151 0.9113
-8.7353 -19.2642 -1.1085 0.9188
-3.7545 -20.1446 -1.0739 0.9212
1.5740 -27.4918 -1.4431 0.8956
19.4350 -43.5938 -2.5014 0.8260
23.9801 -39.9956 -2.4440 0.8296
31.5745 -31.8182 -2.3492 0.8356
34.0722 -26.9115 -2.2755 0.8404
38.2668 -23.3453 -2.3492 0.8356
40.7998 -18.5667 -2.3492 0.8356
40.9780 -12.9608 -2.2524 0.8419
47.6295 -3.0945 -2.5014 0.8260
30.0608 9.2101 -1.6477 0.8817
5.2392 8.5621 -0.5261 0.9606
2.7544 8.6681 -0.4767 0.9642
1.6409 8.6750 -0.4627 0.9653
0.3915 5.9038 -0.3101 0.9766
-0.4736 8.6798 -0.4556 0.9658
-1.5284 8.6325 -0.4594 0.9655
-2.6269 8.6151 -0.4720 0.9646
-5.1946 8.7170 -0.5318 0.9602
-6.7467 8.7265 -0.5781 0.9568
-8.6247 8.7380 -0.6434 0.9520
-11.0207 8.7528 -0.7376 0.9452
-18.8522 8.6402 -1.0868 0.9203
-22.5887 7.2114 -1.2427 0.9094
-45.1870 3.0577 -2.3736 0.8341
-42.4067 -7.4493 -2.2565 0.8416
-43.6717 -19.2593 -2.5014 0.8260
-37.7997 -29.1432 -2.5014 0.8260
-34.0147 -33.4835 -2.5014 0.8260
-18.1354 -22.7717 -1.5256 0.8899
-12.2495 -19.8983 -1.2246 0.9107
-8.9238 -19.4023 -1.1192 0.9180
-6.0912 -18.9919 -1.0453 0.9232
-3.8756 -20.1915 -1.0775 0.9209
-1.4721 -21.3306 -1.1205 0.9179
1.3583 -26.1886 -1.3743 0.9003
8.1949 -47.0211 -2.5014 0.8260
13.7982 -45.6919 -2.5014 0.8260
19.2005 -43.6976 -2.5014 0.8260
23.9719 -40.4734 -2.4653 0.8283
31.4032 -31.9872 -2.3492 0.8356
32.3981 -25.8731 -2.1729 0.8470
38.1409 -23.5504 -2.3492 0.8356
40.9883 -13.2068 -2.2569 0.8416
47.6122 -3.3501 -2.5014 0.8260
29.3273 12.8393 -1.6778 0.8796
15.1415 8.9407 -0.9215 0.9320
11.2375 8.6160 -0.7421 0.9449
6.8925 8.6071 -0.5779 0.9568
5.3045 8.5651 -0.5280 0.9604
2.8057 8.6678 -0.4775 0.9642
0.4216 5.8795 -0.3089 0.9767
-1.4806 8.6326 -0.4590 0.9655
-5.1311 8.7166 -0.5301 0.9603
-6.6718 8.7260 -0.5757 0.9570
-10.8991 8.7520 -0.7326 0.9455
-13.9770 8.6822 -0.8623 0.9362
-45.1760 3.3008 -2.3739 0.8341
-42.3585 -7.2066 -2.2518 0.8419
-43.7712 -19.0229 -2.5012 0.8260
-4.9426 -15.1307 -0.8342 0.9382
-3.9924 -20.2132 -1.0798 0.9208
7.9423 -47.0645 -2.5014 0.8260
13.5525 -45.7654 -2.5014 0.8260
31.2309 -32.1555 -2.3492 0.8356
34.0686 -27.5080 -2.2948 0.8391
26.8376 -16.7708 -1.6585 0.8809
40.5980 -19.0038 -2.3492 0.8356
46.8128 -9.3114 -2.5014 0.8260
47.6814 2.1523 -2.5014 0.8260
28.0600 8.2685 -1.5331 0.8894
15.1966 8.8635 -0.9220 0.9320
11.3624 8.6152 -0.7473 0.9445
5.3702 8.5681 -0.5299 0.9603
0.4533 5.8777 -0.3089 0.9767
-0.3803 8.6842 -0.4556 0.9658
-3.6873 8.5788 -0.4894 0.9633
-5.0681 8.7162 -0.5284 0.9604
-8.4402 8.7369 -0.6366 0.9525
1.2581 8.6773 -0.7671 0.9654
0.2020 8.6838 -0.7599 0.9657
-3.0228 8.5747 -0.7954 0.9642
-5.7179 8.7202 -0.9123 0.9590
-7.3700 8.7303 -0.9996 0.9552
-9.4043 8.7428 -1.1234 0.9497
-12.1028 8.7917 -1.3087 0.9417
-19.8496 8.0847 -1.8751 0.9175
-25.9774 7.0793 -2.3556 0.8975
-26.8435 0.6605 -2.3492 0.8978
-27.2651 -2.6290 -2.3964 0.8958
-26.9776 -9.4696 -2.5014 0.8915
-21.8722 -18.4138 -2.5014 0.8915
-18.3092 -19.6414 -2.3492 0.8978
-10.8926 -19.5259 -1.9561 0.9141
-7.8504 -19.2006 -1.8148 0.9201
-5.3193 -19.4163 -1.7613 0.9223
2.5413 -26.7311 -2.3492 0.8978
6.1142 -27.9299 -2.5014 0.8915
9.4334 -26.9903 -2.5014 0.8915
15.6135 -23.9516 -2.5014 0.8915
20.8878 -19.5234 -2.5014 0.8915
23.0870 -16.8657 -2.5014 0.8915
24.9502 -13.9625 -2.5014 0.8915
27.5651 -7.5915 -2.5014 0.8915
28.2787 -4.2165 -2.5014 0.8915
28.4666 2.6677 -2.5014 0.8915
25.3599 8.8254 -2.3492 0.8978
10.2970 8.6217 -1.1750 0.9475
6.2845 8.5785 -0.9304 0.9582
4.7821 8.5185 -0.8547 0.9615
2.4003 8.6703 -0.7871 0.9645
1.3057 8.6770 -0.7677 0.9654
0.2487 8.6835 -0.7600 0.9657
-9.3029 8.7422 -1.1169 0.9500
-11.9217 8.7583 -1.2942 0.9423
-15.0611 8.4816 -1.5123 0.9329
-25.2064 7.0148 -2.2891 0.9003
-21.1135 3.2061 -1.8684 0.9178
-26.9832 -2.4556 -2.3705 0.8969
-27.9543 -6.0016 -2.5014 0.8915
-21.9708 -18.2961 -2.5014 0.8915
-11.0410 -19.5447 -1.9639 0.9138
-7.9534 -19.1582 -1.8148 0.9201
-5.4289 -19.4070 -1.7631 0.9223
-0.6723 -21.4629 -1.8787 0.9174
5.9641 -27.9623 -2.5014 0.8915
9.2883 -27.0405 -2.5014 0.8915
12.4773 -25.7251 -2.5014 0.8915
18.2666 -21.9953 -2.5014 0.8915
24.8749 -14.0963 -2.5014 0.8915
26.3915 -10.9979 -2.5014 0.8915
27.5239 -7.7394 -2.5014 0.8915
28.5761 -0.9335 -2.5014 0.8915
26.2685 5.5659 -2.3492 0.8978
25.4069 8.6890 -2.3492 0.8978
13.3925 8.6027 -1.3926 0.9381
10.4093 8.6211 -1.1825 0.9472
8.1800 8.6348 -1.0406 0.9534
6.3582 8.5820 -0.9344 0.9580
4.8440 8.5212 -0.8575 0.9614
2.4505 8.6700 -0.7882 0.9645
0.2953 8.6832 -0.7601 0.9657
-0.7535 8.6667 -0.7611 0.9657
-5.5844 8.7193 -0.9059 0.9593
-7.2100 8.7293 -0.9905 0.9556
-21.1596 3.3295 -1.8740 0.9176
-26.8349 0.9488 -2.3492 0.8978
-27.9861 -5.8514 -2.5014 0.8915
-25.7751 -12.3735 -2.5014 0.8915
-24.0973 -15.3877 -2.5014 0.8915
-11.1907 -19.5636 -1.9718 0.9135
-8.0798 -19.1712 -1.8201 0.9199
2.2540 -26.7569 -2.3492 0.8978
5.8138 -27.9940 -2.5014 0.8915
12.3389 -25.7917 -2.5014 0.8915
20.6769 -19.7467 -2.5014 0.8915
22.9045 -17.1127 -2.5014 0.8915
24.7988 -14.2297 -2.5014 0.8915
27.4819 -7.8871 -2.5014 0.8915
28.2318 -4.5199 -2.5014 0.8915
26.2980 5.4248 -2.3492 0.8978
25.4532 8.5525 -2.3492 0.8978
13.5505 8.6017 -1.4042 0.9376
10.5229 8.6204 -1.1901 0.9468
4.9063 8.5240 -0.8605 0.9613
2.5007 8.6697 -0.7894 0.9644
1.4011 8.6764 -0.7689 0.9653
0.3420 8.6829 -0.7602 0.9657
-2.8708 8.5821 -0.7917 0.9643
-5.5183 8.7189 -0.9028 0.9594
-7.1311 8.7289 -0.9861 0.9558
-9.1037 8.7410 -1.1042 0.9506
-11.6550 8.7567 -1.2754 0.9431
-19.3406 8.2431 -1.8394 0.9190
-24.8323 7.1990 -2.2620 0.9014
-21.2058 3.4535 -1.8797 0.9173
-26.8294 1.0929 -2.3492 0.8978
-26.7657 -2.1463 -2.3492 0.8978
-28.0172 -5.7010 -2.5014 0.8915
-27.1266 -9.0337 -2.5014 0.8915
-24.1796 -15.2581 -2.5014 0.8915
-8.2083 -19.1874 -1.8258 0.9196
-5.5508 -19.0516 -1.7361 0.9234
-3.3521 -20.4102 -1.8096 0.9203
5.6634 -28.0248 -2.5014 0.8915
15.2256 -24.2001 -2.5014 0.8915
18.0293 -22.1903 -2.5014 0.8915
20.5705 -19.8574 -2.5014 0.8915
22.8123 -17.2354 -2.5014 0.8915
24.7220 -14.3626 -2.5014 0.8915
27.4392 -8.0346 -2.5014 0.8915
28.5644 -1.2404 -2.5014 0.8915
28.5059 2.2088 -2.5014 0.8915
26.3267 5.2835 -2.3492 0.8978
25.4988 8.4157 -2.3492 0.8978
6.5074 8.5890 -0.9428 0.9577
4.9691 8.5268 -0.8634 0.9611
8.4076 19.5084 -1.8585 0.9182
1.4489 8.6761 -0.7696 0.9653
0.3887 8.6826 -0.7604 0.9657
-2.8205 8.5846 -0.7906 0.9644
-3.9993 8.5355 -0.8247 0.9629
-5.4527 8.7185 -0.8997 0.9596
-7.0529 8.7284 -0.9818 0.9559
-9.0057 8.7404 -1.0980 0.9509
-11.5245 8.7559 -1.2663 0.9435
-14.5934 8.5308 -1.4789 0.9344
-28.0474 -5.5505 -2.5014 0.8915
-27.1747 -8.8880 -2.5014 0.8915
-24.2612 -15.1280 -2.5014 0.8915
-19.7221 -20.2664 -2.4741 0.8927
-11.4938 -19.6018 -1.9880 0.9128
-3.4588 -20.3754 -1.8081 0.9204
-1.0101 -21.2837 -1.8642 0.9180
1.9665 -26.7795 -2.3492 0.8978
8.8514 -27.1867 -2.5014 0.8915
15.0954 -24.2815 -2.5014 0.8915
17.9099 -22.2867 -2.5014 0.8915
26.2109 -11.4216 -2.5014 0.8915
28.1816 -4.8229 -2.5014 0.8915
28.5573 -1.3938 -2.5014 0.8915
26.3547 5.1420 -2.3492 0.8978
25.5436 8.2786 -2.3492 0.8978
24.3833 11.3052 -2.3514 0.8977
10.7548 8.6189 -1.2058 0.9462
8.4465 8.6331 -1.0567 0.9527
6.5830 8.5925 -0.9470 0.9575
5.0323 8.5296 -0.8664 0.9610
3.7865 8.6577 -0.8267 0.9628
1.4968 8.6758 -0.7702 0.9653
-0.6135 8.6733 -0.7607 0.9657
-1.6705 8.6237 -0.7685 0.9653
-3.9435 8.5355 -0.8226 0.9630
-5.3875 8.7181 -0.8966 0.9597
-8.9089 8.7398 -1.0919 0.9511
-19.0117 8.3453 -1.8165 0.9200
-23.8504 7.1929 -2.1795 0.9048
-26.8161 1.3810 -2.3492 0.8978
-27.2221 -8.7419 -2.5014 0.8915
-25.9712 -11.9566 -2.5014 0.8915
-22.3587 -17.8199 -2.5014 0.8915
-5.7735 -19.0514 -1.7416 0.9232
-3.5711 -20.3730 -1.8096 0.9203
5.0358 -26.3752 -2.3492 0.8978
8.7053 -27.2338 -2.5014 0.8915
14.9648 -24.3622 -2.5014 0.8915
17.7899 -22.3826 -2.5014 0.8915
24.5663 -14.6273 -2.5014 0.8915
26.1492 -11.5622 -2.5014 0.8915
28.1553 -4.9742 -2.5014 0.8915
28.5279 1.9024 -2.5014 0.8915
25.5877 8.1413 -2.3492 0.8978
24.4385 11.1716 -2.3509 0.8977
14.0407 8.5987 -1.4405 0.9360
10.8730 8.6182 -1.2138 0.9458
6.6593 8.5961 -0.9513 0.9573
1.5447 8.6755 -0.7709 0.9652
0.4822 8.6821 -0.7608 0.9657
-1.6229 8.6259 -0.7679 0.9654
-5.3228 8.7177 -0.8936 0.9598
-6.8985 8.7274 -0.9733 0.9563
-23.3860 7.1901 -2.1405 0.9064
-21.3464 3.8304 -1.8974 0.9166
-22.5852 1.2847 -1.9791 0.9132
-26.7968 -1.7147 -2.3492 0.8978
-24.4223 -14.8666 -2.5014 0.8915
-8.5986 -19.2367 -1.8435 0.9189
-3.6814 -20.3591 -1.8101 0.9203
-1.2325 -21.1657 -1.8549 0.9184
1.6554 -26.4263 -2.3165 0.8991
4.8941 -26.4019 -2.3492 0.8978
20.2479 -20.1862 -2.5014 0.8915
22.5317 -17.6007 -2.5014 0.8915
24.4874 -14.7590 -2.5014 0.8915
28.5407 -1.7005 -2.5014 0.8915
28.5378 1.7492 -2.5014 0.8915
26.4084 4.8587 -2.3492 0.8978
14.1554 8.5648 -1.4475 0.9357
8.6288 8.6320 -1.0678 0.9522
8.3941 18.6447 -1.7889 0.9212
2.7034 8.6684 -0.7944 0.9642
1.5928 8.6753 -0.7717 0.9652
-1.5755 8.6281 -0.7673 0.9654
-2.6703 8.5919 -0.7872 0.9645
-3.8327 8.5353 -0.8186 0.9631
-5.2585 8.7173 -0.8907 0.9599
-6.8223 8.7270 -0.9691 0.9565
-8.7184 8.7386 -1.0800 0.9516
-11.1441 8.7535 -1.2398 0.9447
-14.1197 8.5621 -1.4447 0.9358
-18.6906 8.4450 -1.7944 0.9209
-22.9379 7.1873 -2.1030 0.9080
-21.3655 3.9524 -1.9010 0.9165
-22.3661 1.3929 -1.9606 0.9139
-26.8057 -1.5708 -2.3492 0.8978
-28.1332 -5.0980 -2.5014 0.8915
-20.2603 -20.1592 -2.5005 0.8916
-11.9579 -19.6603 -2.0132 0.9117
8.4123 -27.3257 -2.5014 0.8915
