ply
format ascii 1.0
element vertex 1551
property float32 x
property float32 y
property float32 z
property float32 I
end_header
0.4479 -16.1583 0.2822 0.9374
31.1230 -42.5989 0.9209 0.8097
36.6436 -39.2063 0.9367 0.8068
37.2917 -24.3186 0.7771 0.8369
51.8359 -18.1355 0.9593 0.8028
16.1643 8.9995 0.3229 0.9287
9.2742 8.6280 0.2211 0.9506
7.2746 8.6222 0.1969 0.9559
3.0545 8.6663 0.1604 0.9639
6.3606 64.9915 1.1398 0.7701
-1.2542 8.6646 0.1528 0.9656
-2.3439 8.6575 0.1566 0.9648
-6.3121 8.7238 0.1880 0.9578
-8.0887 8.7347 0.2078 0.9535
-54.7758 -14.6944 0.9899 0.7970
-62.2417 -34.2783 1.2403 0.7526
-20.6521 -31.1953 0.6530 0.8610
-9.0456 -25.2913 0.4688 0.8981
-6.4437 -28.4381 0.5090 0.8899
-3.2033 -31.2429 0.5482 0.8819
31.0365 -56.6648 1.1277 0.7722
36.5430 -24.3140 0.7661 0.8390
51.5816 -18.5827 0.9570 0.8030
53.9994 7.4351 0.9510 0.8041
50.6376 20.1159 0.9511 0.8041
12.0758 8.6108 0.2589 0.9424
9.4463 8.6270 0.2233 0.9501
7.4112 8.6215 0.1984 0.9555
3.1445 8.6657 0.1609 0.9638
0.9263 8.6417 0.1517 0.9658
-0.1202 8.6646 0.1513 0.9659
-1.1732 8.6685 0.1527 0.9656
-3.4353 8.7061 0.1634 0.9632
-7.9394 8.7338 0.2060 0.9539
-17.2266 8.7733 0.3374 0.9256
-24.1697 8.8336 0.4492 0.9022
-54.7471 -14.1466 0.9870 0.7975
-21.0671 -31.1928 0.6570 0.8602
-16.7810 -32.7629 0.6425 0.8631
-13.0218 -35.3760 0.6580 0.8600
-6.6866 -28.2960 0.5075 0.8902
0.7924 -85.6098 1.4944 0.7100
34.0452 -87.4609 1.6382 0.6870
31.2694 -44.5006 0.9493 0.8045
35.2999 -39.1938 0.9207 0.8098
35.8154 -24.3095 0.7556 0.8410
50.7442 19.6179 0.9496 0.8044
12.3125 8.6094 0.2622 0.9417
7.5500 8.6208 0.2000 0.9552
4.4849 8.6575 0.1702 0.9617
3.2351 8.6651 0.1614 0.9637
-0.0402 8.6642 0.1512 0.9659
-3.3426 8.7056 0.1628 0.9634
-6.0691 8.7223 0.1855 0.9584
-7.7926 8.7329 0.2043 0.9543
-9.9402 8.7461 0.2311 0.9484
-12.7647 8.7503 0.2701 0.9400
-23.4839 8.8294 0.4379 0.9045
-18.6261 2.2141 0.3274 0.9277
-54.7185 -13.6018 0.9842 0.7981
-16.5450 -31.5804 0.6223 0.8671
-13.3928 -35.3737 0.6602 0.8596
33.1167 -87.4552 1.6323 0.6879
45.8627 -87.5288 1.7248 0.6735
35.2619 -24.4120 0.7486 0.8423
61.3385 -15.2437 1.1032 0.7766
34.7633 8.4714 0.6245 0.8666
53.2856 20.0374 0.9937 0.7963
16.4392 8.5654 0.3236 0.9285
7.6910 8.6200 0.2016 0.9548
4.5863 8.6568 0.1710 0.9616
3.3263 8.6646 0.1620 0.9636
-1.0109 8.6702 0.1524 0.9657
-4.5141 8.7128 0.1713 0.9615
-5.9499 8.7216 0.1843 0.9586
-9.7559 8.7450 0.2287 0.9489
13.3454 8.6030 -0.2772 0.9385
8.1311 8.6084 -0.2067 0.9537
6.3379 8.5796 -0.1862 0.9582
3.6109 8.6628 -0.1638 0.9631
0.2856 8.6587 -0.1512 0.9659
-1.8217 8.6172 -0.1537 0.9654
-2.9424 8.6187 -0.1590 0.9642
-4.2040 8.7109 -0.1688 0.9620
-9.2122 8.7416 -0.2217 0.9505
-11.7473 8.7198 -0.2554 0.9432
-15.3822 8.7642 -0.3090 0.9316
-21.0091 8.8142 -0.3977 0.9129
-52.4457 8.2449 -0.9267 0.8086
-46.3997 -9.6973 -0.8274 0.8273
-72.2549 -24.4815 -1.3316 0.7370
-62.5993 -30.0333 -1.2119 0.7575
-72.3527 -46.1707 -1.4981 0.7094
-17.1181 -22.9507 -0.4998 0.8918
-8.3142 -19.6901 -0.3731 0.9180
-5.5828 -19.4964 -0.3540 0.9221
-3.2535 -20.3891 -0.3604 0.9207
-0.8045 -21.3967 -0.3737 0.9179
2.1491 -25.8116 -0.4521 0.9016
31.3738 -93.3046 -1.7182 0.6745
41.7359 -87.5081 -1.6923 0.6785
30.3175 -47.7523 -0.9873 0.7975
35.2047 -33.7165 -0.8509 0.8228
35.2495 -26.4182 -0.7689 0.8384
42.2811 -24.3493 -0.8516 0.8227
57.5160 -24.4429 -1.0908 0.7788
66.2165 13.5204 -1.1797 0.7631
13.6171 8.6013 -0.2811 0.9376
10.5723 8.6200 -0.2381 0.9469
3.7049 8.6623 -0.1644 0.9630
2.5259 8.6695 -0.1576 0.9645
1.4256 8.6763 -0.1535 0.9654
0.3658 8.6625 -0.1513 0.9659
-0.6799 8.6479 -0.1514 0.9659
-2.8537 8.6182 -0.1585 0.9643
-4.1050 8.7103 -0.1681 0.9622
-5.4792 8.7187 -0.1797 0.9596
-15.6049 19.2295 -0.4323 0.9057
-9.0425 8.7406 -0.2195 0.9509
-11.5367 8.7297 -0.2525 0.9438
-49.8451 14.6473 -0.9068 0.8123
-52.4425 8.7409 -0.9280 0.8084
-46.0617 -9.1839 -0.8198 0.8287
-63.0896 -29.5556 -1.2161 0.7568
-17.7876 -23.3949 -0.5130 0.8891
-3.4355 -20.3229 -0.3598 0.9209
1.7791 -24.0497 -0.4209 0.9080
30.9833 -95.0369 -1.7448 0.6704
40.7462 -87.5020 -1.6848 0.6797
35.2009 -34.3411 -0.8584 0.8214
35.2464 -26.9272 -0.7742 0.8374
41.3838 -24.3438 -0.8381 0.8252
56.0524 -24.4339 -1.0673 0.7830
83.6203 -24.9920 -1.5234 0.7053
50.6879 9.8634 -0.9014 0.8134
35.5329 16.4466 -0.6834 0.8550
13.8967 8.5996 -0.2853 0.9367
10.7722 8.6188 -0.2408 0.9463
8.4518 8.6235 -0.2108 0.9528
6.5952 8.5917 -0.1891 0.9576
5.0664 8.5675 -0.1737 0.9610
3.7995 8.6617 -0.1651 0.9629
2.6127 8.6690 -0.1580 0.9644
-0.5996 8.6474 -0.1513 0.9659
-1.6577 8.6250 -0.1533 0.9655
-2.7656 8.6177 -0.1580 0.9644
-4.0069 8.7097 -0.1673 0.9624
-6.9335 8.7069 -0.1943 0.9564
-11.3307 8.7394 -0.2498 0.9444
-14.5874 8.6718 -0.2962 0.9344
-19.9533 8.8077 -0.3807 0.9164
-26.8473 8.1591 -0.4898 0.8938
-52.4393 9.2384 -0.9294 0.8081
-86.2706 4.6400 -1.5080 0.7078
-56.5619 -18.0078 -1.0361 0.7886
-18.0894 -23.3416 -0.5155 0.8886
-12.1657 -20.3577 -0.4140 0.9095
-6.0214 -19.6504 -0.3587 0.9211
-1.1982 -21.3589 -0.3734 0.9180
26.3035 -33.3458 -0.7413 0.8437
35.1969 -34.9770 -0.8661 0.8199
27.9549 -16.7935 -0.5692 0.8777
54.6504 -24.4253 -1.0449 0.7870
79.9841 -24.7114 -1.4612 0.7154
52.8257 9.7744 -0.9377 0.8066
14.1846 8.5979 -0.2895 0.9358
8.6046 8.6188 -0.2126 0.9524
5.1732 8.5667 -0.1747 0.9608
1.5903 8.6753 -0.1539 0.9653
-0.5195 8.6469 -0.1512 0.9659
-1.5760 8.6289 -0.1531 0.9655
-3.9097 8.7091 -0.1666 0.9625
-5.2565 8.7173 -0.1777 0.9601
-6.8188 8.7269 -0.1933 0.9567
-8.7128 8.7386 -0.2154 0.9518
-19.4585 8.8046 -0.3728 0.9181
-53.6576 9.9644 -0.9526 0.8039
-56.4385 -17.3967 -1.0309 0.7896
-58.1281 -34.8680 -1.1832 0.7625
-54.1717 -42.1263 -1.1978 0.7599
-19.1374 -24.2287 -0.5389 0.8838
-9.0747 -19.9329 -0.3823 0.9161
-6.3116 -33.5563 -0.5960 0.8723
-1.3930 -21.3137 -0.3728 0.9181
35.2204 -79.4337 -1.5167 0.7064
25.8431 -33.3912 -0.7370 0.8446
35.2400 -27.9671 -0.7853 0.8353
71.9850 3.8247 -1.2583 0.7495
1.6731 8.6748 -0.1542 0.9653
-0.4394 8.6464 -0.1511 0.9660
-2.5909 8.6168 -0.1571 0.9646
-6.6895 8.7262 -0.1919 0.9570
-8.5525 8.7376 -0.2134 0.9523
-27.0592 8.7721 -0.4965 0.8924
-86.1939 16.8307 -1.5329 0.7037
-53.6949 3.8827 -0.9397 0.8062
-86.3261 -4.1873 -1.5086 0.7077
-72.2832 -12.3426 -1.2800 0.7458
-72.3408 -31.4783 -1.3771 0.7293
-13.0594 -20.9647 -0.4311 0.9059
-9.3153 -19.9707 -0.3846 0.9156
-6.6323 -33.5543 -0.5970 0.8721
-1.5629 -20.9422 -0.3666 0.9194
1.0372 -22.4524 -0.3923 0.9140
31.0580 -53.1568 -1.0746 0.7817
26.7105 -35.1777 -0.7710 0.8380
37.7426 -38.9170 -0.9463 0.8050
35.2368 -28.4982 -0.7910 0.8342
74.9867 -24.6922 -1.3780 0.7292
71.9917 3.1592 -1.2578 0.7495
6.9866 8.5980 -0.1934 0.9566
5.3904 8.5651 -0.1766 0.9603
2.8762 8.6674 -0.1594 0.9641
-0.3594 8.6459 -0.1510 0.9660
-2.5043 8.6163 -0.1566 0.9647
-5.0387 8.7160 -0.1757 0.9605
-6.5619 8.7254 -0.1906 0.9573
-26.4574 8.8476 -0.4870 0.8944
-53.6918 4.3808 -0.9403 0.8061
-86.3211 -3.3890 -1.5079 0.7078
-72.2197 -11.6468 -1.2769 0.7463
-60.6503 -45.3933 -1.3223 0.7385
-56.9327 -54.4552 -1.3751 0.7297
-21.3378 -26.0129 -0.5873 0.8741
-13.2601 -20.8555 -0.4314 0.9059
-6.5560 -19.4556 -0.3584 0.9211
-4.0830 -19.6990 -0.3512 0.9227
-2.8177 -33.5777 -0.5882 0.8739
0.8275 -22.3943 -0.3912 0.9142
36.8332 -87.3880 -1.6553 0.6843
30.3690 -40.7718 -0.8874 0.8160
37.0459 -38.9105 -0.9378 0.8066
35.2335 -29.0374 -0.7969 0.8331
38.0618 -24.3233 -0.7884 0.8347
61.3107 -12.8552 -1.0934 0.7783
77.8043 2.6954 -1.3589 0.7324
52.8165 8.2680 -0.9331 0.8075
43.4360 18.1898 -0.8220 0.8283
15.1031 8.5922 -0.3033 0.9328
7.1185 8.5971 -0.1948 0.9563
2.9651 8.6668 -0.1599 0.9640
1.8395 8.6737 -0.1548 0.9651
0.7667 8.6574 -0.1517 0.9658
-1.3322 8.6405 -0.1526 0.9656
-2.4182 8.6158 -0.1562 0.9648
-4.9316 8.7153 -0.1748 0.9607
-6.4362 8.7246 -0.1892 0.9576
-8.2405 8.7357 -0.2096 0.9531
-10.5174 8.7497 -0.2388 0.9467
-13.4589 8.6886 -0.2796 0.9379
-17.8745 8.6917 -0.3469 0.9236
-23.7006 8.1696 -0.4376 0.9046
-86.1835 18.4860 -1.5385 0.7028
-53.8944 4.8983 -0.9446 0.8053
-72.2984 -10.9762 -1.2764 0.7464
-56.5050 -15.7185 -1.0237 0.7909
-72.4242 -29.9376 -1.3679 0.7309
-61.4262 -34.5714 -1.2303 0.7543
-60.3663 -44.3178 -1.3072 0.7411
-31.3087 -37.4583 -0.8521 0.8226
-9.8109 -20.0584 -0.3898 0.9145
-6.8358 -19.6841 -0.3637 0.9200
-7.2773 -33.5504 -0.5992 0.8717
-1.9399 -20.8113 -0.3648 0.9198
0.4479 -16.1582 -0.2821 0.9374
37.2917 -24.3186 -0.7771 0.8369
50.6731 7.4542 -0.8940 0.8147
31.0215 8.4756 -0.5613 0.8793
11.8450 8.6122 -0.2556 0.9431
6.3606 64.9915 -1.1398 0.7701
-0.1997 8.6450 -0.1509 0.9660
-6.3121 8.7238 -0.1880 0.9578
-8.0887 8.7347 -0.2078 0.9535
-10.3208 8.7485 -0.2362 0.9473
-23.0157 8.1718 -0.4263 0.9069
-54.5157 -14.6246 -0.9852 0.7979
-62.3693 -34.3485 -1.2428 0.7521
-13.9540 -21.0777 -0.4412 0.9038
-6.9607 -19.4621 -0.3608 0.9206
-4.4565 -19.6679 -0.3520 0.9225
0.4046 -21.8927 -0.3822 0.9161
34.9438 -87.3764 -1.6426 0.6863
30.0006 -54.7734 -1.0901 0.7789
26.2647 -36.6544 -0.7871 0.8349
35.7680 -38.9841 -0.9235 0.8092
32.2301 8.4870 -0.5818 0.8752
12.0758 8.6108 -0.2589 0.9424
7.3886 8.5952 -0.1978 0.9557
3.8480 5.7546 -0.1208 0.9727
4.3844 8.6581 -0.1694 0.9619
2.0072 8.6727 -0.1554 0.9650
-0.1199 8.6445 -0.1509 0.9660
-1.1704 8.6482 -0.1523 0.9657
-2.2473 8.6149 -0.1554 0.9650
-3.4353 8.7061 -0.1634 0.9632
-17.1364 8.7274 -0.3357 0.9259
-53.6827 5.8797 -0.9426 0.8057
-86.2608 -0.9972 -1.5058 0.7081
-72.3035 -9.6155 -1.2732 0.7469
-72.4176 -28.3818 -1.3577 0.7326
-56.5715 -51.1880 -1.3317 0.7370
-14.4958 -21.4631 -0.4521 0.9016
-7.2190 -19.6118 -0.3648 0.9198
-4.5975 -19.4553 -0.3489 0.9231
-2.3220 -20.7579 -0.3646 0.9198
0.2031 -21.9477 -0.3831 0.9159
25.7539 -36.6512 -0.7819 0.8359
35.1056 -38.9780 -0.9156 0.8107
35.8154 -24.3095 -0.7556 0.8410
33.4518 8.4794 -0.6024 0.8710
46.5720 18.0049 -0.8715 0.8189
12.3125 8.6094 -0.2622 0.9417
7.5268 8.5942 -0.1994 0.9553
1.0114 8.6788 -0.1525 0.9656
-1.0895 8.6504 -0.1522 0.9657
-2.1625 8.6144 -0.1550 0.9651
-6.0691 8.7223 -0.1855 0.9584
-7.7926 8.7329 -0.2043 0.9543
-12.7117 8.7140 -0.2690 0.9402
-16.7667 8.7348 -0.3300 0.9272
-86.1677 20.9930 -1.5480 0.7013
-54.4484 -13.5346 -0.9793 0.7990
-60.0543 -41.5809 -1.2750 0.7466
-15.0636 -21.8661 -0.4635 0.8992
-7.5025 -19.8162 -0.3699 0.9187
-4.7691 -19.3809 -0.3484 0.9233
-2.5099 -20.7063 -0.3641 0.9199
31.1071 -45.1493 -0.9570 0.8030
34.4540 -38.9719 -0.9080 0.8121
46.2638 -24.3737 -0.9127 0.8112
52.9419 19.9081 -0.9873 0.7975
7.6672 8.5933 -0.2010 0.9550
4.5863 8.6568 -0.1710 0.9616
3.3263 8.6646 -0.1620 0.9636
1.0926 8.6783 -0.1527 0.9656
0.0396 8.6472 -0.1509 0.9660
-3.2478 8.6976 -0.1621 0.9635
-4.5141 8.7128 -0.1713 0.9615
-5.9499 8.7216 -0.1843 0.9586
-9.7559 8.7450 -0.2287 0.9489
13.3454 8.6030 -0.8321 0.9384
8.1311 8.6084 -0.6206 0.9537
6.3189 8.5539 -0.5573 0.9583
4.8856 8.6210 -0.5193 0.9611
2.4395 8.6700 -0.4720 0.9646
0.2856 8.6587 -0.4540 0.9659
-0.7585 8.6282 -0.4539 0.9659
-1.8174 8.5969 -0.4605 0.9654
-2.9278 8.5761 -0.4749 0.9644
-7.2186 8.7294 -0.5936 0.9556
-44.8808 7.0556 -2.3810 0.8336
-33.6910 1.1891 -1.7668 0.8737
-45.0161 -3.8526 -2.3678 0.8345
-36.9147 -7.7150 -1.9764 0.8598
-43.0326 -20.6458 -2.5014 0.8260
-36.8521 -30.3312 -2.5014 0.8260
-32.9335 -34.5462 -2.5014 0.8260
-8.2187 -19.4640 -1.1073 0.9189
-5.4405 -18.9992 -1.0357 0.9239
-0.7901 -21.0129 -1.1020 0.9192
15.2120 -45.2399 -2.5014 0.8260
20.5465 -43.0801 -2.5014 0.8260
28.4057 -34.6754 -2.3492 0.8357
32.3728 -31.0045 -2.3492 0.8356
41.2540 -17.5320 -2.3492 0.8357
47.5734 3.8505 -2.5014 0.8260
43.9187 8.9675 -2.3492 0.8356
30.3804 10.1375 -1.6785 0.8796
30.4457 14.4346 -1.7658 0.8737
13.6171 8.6013 -0.8441 0.9375
3.7049 8.6623 -0.4937 0.9630
1.4256 8.6763 -0.4608 0.9654
0.3658 8.6625 -0.4544 0.9659
-0.6783 8.6277 -0.4536 0.9659
-1.7355 8.6009 -0.4598 0.9655
-2.8396 8.5757 -0.4734 0.9645
-4.1050 8.7103 -0.5046 0.9622
-5.4792 8.7187 -0.5397 0.9596
-15.0650 18.5642 -1.2530 0.9087
-9.0425 8.7406 -0.6591 0.9509
-11.5367 8.7297 -0.7582 0.9437
-19.1100 8.2256 -1.0903 0.9200
-44.8221 7.4708 -2.3814 0.8336
-45.2695 2.0160 -2.3748 0.8340
-43.2213 -20.2479 -2.5014 0.8260
-37.1303 -29.9899 -2.5014 0.8260
-17.4051 -22.8916 -1.5071 0.8912
-8.4473 -19.5012 -1.1138 0.9184
-3.3477 -19.8034 -1.0526 0.9227
1.7563 -23.7416 -1.2476 0.9090
14.7939 -45.3783 -2.5014 0.8260
20.1481 -43.2679 -2.5014 0.8260
25.0397 -40.2554 -2.4845 0.8270
35.1420 -26.8475 -2.3177 0.8377
38.6359 -22.7273 -2.3492 0.8357
47.0428 -8.0641 -2.5014 0.8260
47.6714 -2.3434 -2.5014 0.8260
47.6069 3.4114 -2.5014 0.8260
30.3761 9.8256 -1.6732 0.8800
30.4400 14.0894 -1.7579 0.8743
13.8967 8.5996 -0.8565 0.9366
6.5752 8.5655 -0.5659 0.9577
3.7995 8.6617 -0.4957 0.9628
2.6127 8.6690 -0.4745 0.9644
1.5078 8.6758 -0.4615 0.9653
-0.5982 8.6272 -0.4532 0.9660
-4.0069 8.7097 -0.5024 0.9623
-5.3672 8.7180 -0.5365 0.9598
-8.8761 8.7396 -0.6528 0.9513
-11.3306 8.7394 -0.7499 0.9443
-18.7506 8.2768 -1.0742 0.9212
-23.6523 7.1881 -1.2955 0.9057
-44.7595 7.8855 -2.3819 0.8336
-45.2597 2.4342 -2.3754 0.8340
-45.1072 -3.0232 -2.3693 0.8344
-37.4820 -7.1143 -1.9994 0.8583
-40.7018 -24.9284 -2.5014 0.8260
-37.4055 -29.6459 -2.5014 0.8260
-33.5653 -33.9326 -2.5014 0.8260
-18.0239 -23.2571 -1.5420 0.8888
-12.0211 -20.1158 -1.2281 0.9104
8.7922 -46.9122 -2.5014 0.8260
14.3746 -45.5129 -2.5014 0.8260
19.7481 -43.4519 -2.5014 0.8260
27.7610 -35.1936 -2.3492 0.8357
27.8962 -16.7582 -1.7055 0.8778
40.9235 -18.2902 -2.3492 0.8357
45.5555 -14.0745 -2.4988 0.8261
46.9664 -8.4979 -2.5014 0.8260
47.6478 -2.7831 -2.5014 0.8260
31.3822 5.8067 -1.6726 0.8800
30.3719 9.5156 -1.6680 0.8803
30.4345 13.7473 -1.7502 0.8748
10.9768 8.6176 -0.7314 0.9456
8.6046 8.6188 -0.6383 0.9524
3.8949 8.6611 -0.4977 0.9627
2.7001 8.6684 -0.4758 0.9643
1.5903 8.6753 -0.4622 0.9653
-1.5723 8.6087 -0.4586 0.9656
-5.2565 8.7173 -0.5335 0.9600
-6.8188 8.7269 -0.5804 0.9566
-8.7128 8.7386 -0.6467 0.9518
-11.1291 8.7488 -0.7419 0.9449
-23.9499 7.5206 -1.3156 0.9043
-44.6927 8.2996 -2.3823 0.8335
-45.2459 2.8523 -2.3759 0.8339
-45.1350 -2.6070 -2.3694 0.8344
-42.8360 -13.2039 -2.3492 0.8357
-40.9300 -24.5518 -2.5014 0.8260
-37.6774 -29.2996 -2.5014 0.8260
-18.9848 -24.0356 -1.6052 0.8845
-12.4034 -20.3272 -1.2480 0.9090
-1.3793 -21.1045 -1.1084 0.9188
1.2236 -22.0705 -1.1584 0.9153
8.3589 -46.9913 -2.5014 0.8260
19.3463 -43.6323 -2.5014 0.8260
38.1735 -23.4140 -2.3469 0.8358
40.7530 -18.6671 -2.3492 0.8357
47.6618 2.5324 -2.5014 0.8260
44.1501 7.7485 -2.3492 0.8356
14.4814 8.5960 -0.8826 0.9348
1.6731 8.6748 -0.4630 0.9652
0.6071 8.6738 -0.4557 0.9658
-0.4384 8.6263 -0.4527 0.9660
-1.4911 8.6126 -0.4581 0.9656
-2.5782 8.5747 -0.4693 0.9648
-8.5525 8.7376 -0.6408 0.9522
-10.8885 8.7235 -0.7312 0.9456
-18.5487 8.6000 -1.0715 0.9214
-44.6345 8.7156 -2.3834 0.8335
-45.2281 3.2705 -2.3765 0.8339
-45.1587 -2.1904 -2.3694 0.8344
-41.2031 -7.0355 -2.1906 0.8458
-43.0332 -18.7254 -2.4595 0.8286
-12.7793 -20.5151 -1.2667 0.9077
-3.8770 -19.6144 -1.0478 0.9230
1.0178 -22.0324 -1.1559 0.9154
18.9429 -43.8089 -2.5014 0.8260
24.0781 -41.2104 -2.5014 0.8260
31.2067 -32.1777 -2.3492 0.8357
34.8528 -28.1877 -2.3492 0.8357
36.4934 -22.8496 -2.2565 0.8416
40.5791 -19.0422 -2.3492 0.8357
43.6959 -14.3885 -2.4110 0.8317
46.8016 -9.3630 -2.5014 0.8260
47.6831 2.0925 -2.5014 0.8260
44.2196 7.3409 -2.3492 0.8357
30.4238 13.0720 -1.7354 0.8758
6.9658 8.5724 -0.5789 0.9567
5.3608 8.5180 -0.5275 0.9605
4.0882 8.6599 -0.5019 0.9624
-0.3587 8.6285 -0.4526 0.9660
-1.4100 8.6164 -0.4576 0.9656
-2.4921 8.5743 -0.4680 0.9649
-5.0387 8.7160 -0.5276 0.9605
-8.3951 8.7366 -0.6350 0.9526
-10.7185 8.7509 -0.7252 0.9461
-21.5707 7.2135 -1.1920 0.9129
-43.0724 -12.4112 -2.3492 0.8356
-42.6062 -18.0739 -2.4255 0.8308
-34.4917 -32.9907 -2.5014 0.8260
-13.1167 -20.6301 -1.2812 0.9067
-1.7255 -20.5615 -1.0814 0.9207
18.5379 -43.9818 -2.5014 0.8260
30.9085 -32.4642 -2.3492 0.8357
42.4448 -14.4119 -2.3492 0.8357
46.7132 -9.7945 -2.5014 0.8260
44.2855 6.9325 -2.3492 0.8356
29.1325 8.2491 -1.5868 0.8858
30.4186 12.7385 -1.7283 0.8763
11.6200 8.6136 -0.7580 0.9437
5.4704 8.5170 -0.5305 0.9603
4.1860 8.6593 -0.5041 0.9622
1.8395 8.6737 -0.4647 0.9651
-1.3291 8.6203 -0.4571 0.9657
-4.9316 8.7153 -0.5248 0.9607
-8.2405 8.7357 -0.6294 0.9530
-17.7804 8.6459 -1.0362 0.9239
-21.4575 7.3964 -1.1895 0.9131
-44.5095 9.5471 -2.3857 0.8333
-45.1678 4.1051 -2.3769 0.8339
-45.2008 -1.3571 -2.3699 0.8343
-41.5939 -23.4095 -2.5014 0.8260
-34.7945 -32.6711 -2.5014 0.8260
-13.4143 -20.6744 -1.2916 0.9060
-9.6806 -19.7920 -1.1547 0.9155
-6.6415 -19.1243 -1.0610 0.9221
7.0552 -47.2047 -2.5014 0.8260
12.6855 -46.0123 -2.5014 0.8260
23.3136 -41.6477 -2.5014 0.8260
30.6076 -32.7481 -2.3492 0.8357
32.8288 -27.5681 -2.2467 0.8422
37.1294 -24.2128 -2.3231 0.8373
40.2207 -19.7878 -2.3492 0.8357
42.3100 -14.8030 -2.3492 0.8357
46.6209 -10.2250 -2.5014 0.8260
47.7136 1.2122 -2.5014 0.8260
44.3476 6.5237 -2.3492 0.8356
11.8450 8.6122 -0.7675 0.9430
9.2742 8.6280 -0.6639 0.9505
3.0545 8.6663 -0.4816 0.9639
4.6193 47.1994 -2.4854 0.8270
-0.1995 8.6359 -0.4527 0.9660
-2.3212 8.5736 -0.4655 0.9650
-4.8256 8.7147 -0.5221 0.9609
-6.3121 8.7238 -0.5643 0.9578
-8.0887 8.7347 -0.6239 0.9534
-10.3208 8.7485 -0.7091 0.9472
-17.4147 8.6678 -1.0195 0.9250
-32.9031 3.2969 -1.7330 0.8759
-39.8725 -5.6775 -2.1107 0.8510
-37.6235 -10.0931 -2.0415 0.8555
-41.7287 -16.7999 -2.3575 0.8351
-41.8081 -23.0248 -2.5014 0.8260
-38.7329 -27.8894 -2.5014 0.8260
-35.0945 -32.3486 -2.5014 0.8260
-9.8128 -19.6020 -1.1488 0.9159
-4.3466 -19.1832 -1.0308 0.9242
-2.0906 -20.3903 -1.0742 0.9212
0.4017 -21.7337 -1.1392 0.9166
5.4029 -38.5822 -2.0417 0.8555
12.2604 -46.1274 -2.5014 0.8260
17.7232 -44.3164 -2.5014 0.8260
26.1085 -36.4364 -2.3492 0.8357
30.3042 -33.0291 -2.3492 0.8357
40.0365 -20.1580 -2.3492 0.8357
42.1716 -15.1927 -2.3492 0.8357
46.5245 -10.6548 -2.5014 0.8260
21.5732 8.5700 -1.2165 0.9112
7.3692 8.5727 -0.5925 0.9557
4.3844 8.6581 -0.5086 0.9619
-0.1198 8.6397 -0.4528 0.9660
-1.1677 8.6280 -0.4563 0.9657
-2.2373 8.5768 -0.4645 0.9651
-3.4353 8.7061 -0.4905 0.9632
-4.7208 8.7140 -0.5194 0.9611
-6.1898 8.7231 -0.5606 0.9581
-7.9394 8.7338 -0.6186 0.9538
-20.9069 2.2899 -1.1022 0.9192
-39.4516 -5.2466 -2.0858 0.8526
-37.1341 -9.5955 -2.0100 0.8576
-41.7341 -16.3563 -2.3492 0.8357
-29.3766 -33.8568 -2.3492 0.8356
-14.3815 -21.2938 -1.3466 0.9022
0.1997 -21.5737 -1.1307 0.9172
5.8067 -44.4471 -2.3492 0.8357
11.8342 -46.2386 -2.5014 0.8260
39.8487 -20.5267 -2.3492 0.8357
42.0297 -15.5811 -2.3492 0.8357
47.4208 -5.4154 -2.5014 0.8260
47.7278 0.3315 -2.5014 0.8260
16.2596 8.6635 -0.9655 0.9289
12.3125 8.6094 -0.7874 0.9416
9.6220 8.6259 -0.6772 0.9496
3.8957 5.7112 -0.3623 0.9727
1.0114 8.6788 -0.4579 0.9656
-1.0870 8.6301 -0.4559 0.9658
-3.3426 8.7056 -0.4887 0.9633
-7.7926 8.7329 -0.6134 0.9542
-9.9402 8.7461 -0.6939 0.9483
-44.2926 10.7910 -2.3892 0.8331
-18.6155 2.2129 -0.9825 0.9277
-36.6100 -9.1004 -1.9770 0.8598
-42.2258 -22.2494 -2.5014 0.8260
-35.6854 -31.6956 -2.5014 0.8260
-29.6877 -33.5843 -2.3492 0.8356
-14.6607 -21.2813 -1.3543 0.9017
-10.4695 -19.9837 -1.1823 0.9136
-7.3395 -19.3857 -1.0863 0.9203
-4.6925 -19.0695 -1.0292 0.9244
5.3964 -44.4988 -2.3492 0.8357
11.4071 -46.3458 -2.5014 0.8260
16.9024 -44.6359 -2.5014 0.8260
25.4317 -36.9120 -2.3492 0.8357
33.5157 -29.7652 -2.3492 0.8356
35.1575 -24.3397 -2.2410 0.8426
41.8841 -15.9683 -2.3492 0.8357
46.3200 -11.5114 -2.5014 0.8260
47.3688 -5.8526 -2.5014 0.8260
47.7289 -0.1088 -2.5014 0.8260
44.5112 5.2937 -2.3492 0.8356
34.7633 8.4714 -1.8752 0.8665
12.5221 8.5850 -0.7957 0.9410
7.6610 8.5864 -0.6031 0.9550
3.9786 5.7186 -0.3651 0.9725
4.5863 8.6568 -0.5134 0.9615
3.3263 8.6646 -0.4864 0.9635
1.4760 5.8811 -0.3178 0.9760
1.0926 8.6783 -0.4584 0.9656
0.0396 8.6472 -0.4532 0.9660
-1.0061 8.6296 -0.4553 0.9658
-2.0710 8.5848 -0.4628 0.9652
-3.2478 8.6976 -0.4866 0.9635
-5.9499 8.7216 -0.5533 0.9586
-7.6482 8.7320 -0.6083 0.9546
-9.7559 8.7450 -0.6866 0.9489
10.3768 8.6213 -1.1803 0.9473
8.1292 8.6064 -1.0357 0.9536
3.6109 8.6628 -0.8211 0.9630
2.4395 8.6700 -0.7880 0.9645
0.2856 8.6587 -0.7580 0.9658
-1.8131 8.5767 -0.7669 0.9654
-5.5925 8.7194 -0.9063 0.9593
-7.2186 8.7294 -0.9910 0.9555
-11.6724 8.6642 -1.2718 0.9433
-14.6218 8.3310 -1.4723 0.9347
-19.5557 8.2044 -1.8554 0.9184
-25.6024 7.2675 -2.3284 0.8986
-26.5253 4.1700 -2.3492 0.8978
-26.7533 -2.2896 -2.3492 0.8978
-25.7775 -12.3673 -2.5014 0.8915
-8.1591 -19.3227 -1.8350 0.9192
-3.1951 -20.0229 -1.7739 0.9218
-0.7837 -20.8432 -1.8248 0.9197
2.0056 -24.0884 -2.1148 0.9075
5.3235 -25.7690 -2.3021 0.8997
9.1123 -27.0998 -2.5014 0.8915
12.3078 -25.8060 -2.5014 0.8915
18.1181 -22.1171 -2.5014 0.8915
20.6484 -19.7756 -2.5014 0.8915
22.8785 -17.1466 -2.5014 0.8915
24.7760 -14.2682 -2.5014 0.8915
27.4678 -7.9341 -2.5014 0.8915
28.2231 -4.5704 -2.5014 0.8915
28.4976 2.3065 -2.5014 0.8915
25.4705 8.4992 -2.3492 0.8978
13.6171 8.6013 -1.4091 0.9374
8.2858 8.6117 -1.0455 0.9531
6.4266 8.5338 -0.9346 0.9580
4.9076 8.4765 -0.8569 0.9614
3.7049 8.6623 -0.8243 0.9629
2.5259 8.6695 -0.7900 0.9644
1.4256 8.6763 -0.7693 0.9653
0.3658 8.6625 -0.7585 0.9658
-0.6772 8.6135 -0.7559 0.9659
-1.7314 8.5806 -0.7658 0.9655
-2.8256 8.5335 -0.7864 0.9645
-4.1050 8.7103 -0.8424 0.9621
-5.4792 8.7187 -0.9009 0.9595
-16.5737 20.4233 -2.3011 0.8998
-11.4677 8.6775 -1.2582 0.9439
-14.4195 8.3929 -1.4597 0.9352
-19.1100 8.2256 -1.8202 0.9199
-26.4915 4.4155 -2.3497 0.8978
-26.7733 -2.0427 -2.3492 0.8978
-24.2425 -15.1570 -2.5014 0.8915
-22.2419 -17.9646 -2.5014 0.8915
-19.9180 -20.5111 -2.5014 0.8915
-11.6331 -19.8808 -2.0152 0.9117
-8.3821 -19.3508 -1.8450 0.9188
-3.3495 -19.8138 -1.7581 0.9225
1.7109 -23.1277 -2.0289 0.9111
8.8619 -27.1827 -2.5014 0.8915
17.9133 -22.2833 -2.5014 0.8915
20.4651 -19.9652 -2.5014 0.8915
24.6433 -14.4962 -2.5014 0.8915
26.2089 -11.4248 -2.5014 0.8915
28.5176 2.0435 -2.5014 0.8915
25.5478 8.2638 -2.3492 0.8978
13.8967 8.5996 -1.4298 0.9365
1.5078 8.6758 -0.7704 0.9653
0.4461 8.6662 -0.7592 0.9658
-2.7385 8.5333 -0.7841 0.9647
-4.0069 8.7097 -0.8388 0.9622
-11.2890 8.7073 -1.2473 0.9444
-14.2207 8.4538 -1.4474 0.9357
-18.5682 8.1963 -1.7757 0.9217
-23.6643 7.1918 -2.1639 0.9055
-26.8124 1.4421 -2.3492 0.8978
-28.0893 -5.3315 -2.5014 0.8915
-26.0014 -11.8895 -2.5014 0.8915
-22.4068 -17.7586 -2.5014 0.8915
-20.1064 -20.3264 -2.5014 0.8915
-8.6077 -19.3792 -1.8552 0.9184
1.4391 -22.2418 -1.9500 0.9144
4.9463 -26.3916 -2.3492 0.8978
14.8764 -24.4157 -2.5014 0.8915
17.7069 -22.4477 -2.5014 0.8915
22.5582 -17.5658 -2.5014 0.8915
28.5353 1.7803 -2.5014 0.8915
26.4029 4.8854 -2.3492 0.8978
14.1846 8.5979 -1.4512 0.9356
8.6046 8.6188 -1.0655 0.9523
6.6857 8.5451 -0.9492 0.9574
5.1187 8.4764 -0.8663 0.9610
3.8949 8.6611 -0.8308 0.9626
1.5903 8.6753 -0.7716 0.9652
0.5265 8.6700 -0.7599 0.9657
-1.5686 8.5885 -0.7638 0.9656
-2.6527 8.5358 -0.7820 0.9647
-5.2565 8.7173 -0.8906 0.9600
-11.1168 8.7392 -1.2371 0.9448
-14.0202 8.5107 -1.4349 0.9363
-22.8873 7.1870 -2.0988 0.9082
-26.4216 4.9066 -2.3511 0.8977
-21.3969 1.3489 -1.8757 0.9175
-27.3222 -8.4218 -2.5014 0.8915
-26.1100 -11.6491 -2.5014 0.8915
-24.5180 -14.7071 -2.5014 0.8915
-20.2931 -20.1401 -2.5014 0.8915
-12.3573 -20.2516 -2.0756 0.9091
-8.8357 -19.4080 -1.8657 0.9179
-6.1236 -19.3449 -1.7752 0.9218
-1.3528 -20.6987 -1.8148 0.9201
1.2144 -21.9029 -1.9192 0.9157
8.3588 -27.3416 -2.5014 0.8915
14.6505 -24.5519 -2.5014 0.8915
22.3952 -17.7732 -2.5014 0.8915
25.9936 -11.9065 -2.5014 0.8915
27.2377 -8.6913 -2.5014 0.8915
28.5255 -1.9304 -2.5014 0.8915
28.5505 1.5170 -2.5014 0.8915
15.6174 2.7409 -1.3872 0.9383
5.2290 8.4813 -0.8717 0.9608
3.9912 8.6605 -0.8343 0.9624
2.7879 8.6679 -0.7966 0.9641
0.6071 8.6738 -0.7607 0.9657
-0.4383 8.6247 -0.7555 0.9659
-2.5678 8.5400 -0.7802 0.9648
-3.8133 8.7085 -0.8317 0.9625
-10.8885 8.7235 -1.2206 0.9455
-22.1559 7.1825 -2.0377 0.9107
-26.3831 5.1517 -2.3518 0.8977
-26.7812 1.9366 -2.3492 0.8978
-28.1828 -4.8123 -2.5014 0.8915
-26.2163 -11.4077 -2.5014 0.8915
-24.6527 -14.4802 -2.5014 0.8915
-22.7306 -17.3421 -2.5014 0.8915
-16.8369 -20.9165 -2.3492 0.8978
-6.2718 -19.1956 -1.7668 0.9221
-3.8568 -19.5123 -1.7401 0.9232
-1.5438 -20.6854 -1.8148 0.9201
4.4584 -26.4784 -2.3492 0.8978
11.3472 -26.2426 -2.5014 0.8915
14.4233 -24.6860 -2.5014 0.8915
19.9047 -20.5240 -2.5014 0.8915
22.2303 -17.9790 -2.5014 0.8915
24.2326 -15.1727 -2.5014 0.8915
25.8827 -12.1458 -2.5014 0.8915
27.1564 -8.9423 -2.5014 0.8915
28.5065 -2.1936 -2.5014 0.8915
26.5593 4.4091 -2.3554 0.8975
25.7668 7.5535 -2.3492 0.8978
8.9398 8.6301 -1.0871 0.9513
6.9500 8.5530 -0.9642 0.9567
-0.3587 8.6285 -0.7555 0.9659
-1.4067 8.5963 -0.7621 0.9656
-3.7177 8.7079 -0.8284 0.9627
-6.5619 8.7254 -0.9552 0.9571
-8.3951 8.7366 -1.0600 0.9525
-21.5065 7.1920 -1.9840 0.9130
-26.3423 5.3965 -2.3525 0.8977
-27.4730 -7.9163 -2.5014 0.8915
-26.3205 -11.1653 -2.5014 0.8915
-22.8897 -17.1316 -2.5014 0.8915
-13.1266 -20.6456 -2.1404 0.9064
-9.2998 -19.4665 -1.8875 0.9170
-6.5224 -19.3559 -1.7870 0.9213
-1.7228 -20.5301 -1.8025 0.9206
0.8013 -21.6838 -1.8984 0.9166
11.1047 -26.3461 -2.5014 0.8915
14.1949 -24.8180 -2.5014 0.8915
19.7145 -20.7068 -2.5014 0.8915
22.0634 -18.1834 -2.5014 0.8915
27.0727 -9.1924 -2.5014 0.8915
28.4850 -2.4565 -2.5014 0.8915
28.5736 0.9899 -2.5014 0.8915
26.5988 4.1638 -2.3554 0.8975
15.1031 8.5922 -1.5202 0.9326
9.1054 8.6291 -1.0975 0.9509
7.0874 8.5594 -0.9722 0.9564
5.4539 8.4912 -0.8829 0.9603
4.1860 8.6593 -0.8415 0.9621
1.8395 8.6737 -0.7757 0.9650
0.7667 8.6574 -0.7604 0.9657
-0.2791 8.6322 -0.7556 0.9659
-1.3260 8.6001 -0.7613 0.9657
-2.3992 8.5482 -0.7768 0.9650
-3.6228 8.7073 -0.8251 0.9628
-4.9316 8.7153 -0.8761 0.9606
-8.2405 8.7357 -1.0507 0.9529
-26.2992 5.6411 -2.3532 0.8976
-26.7409 2.4304 -2.3492 0.8978
-26.8390 -0.8058 -2.3492 0.8978
-26.4223 -10.9221 -2.5014 0.8915
-20.8427 -19.5707 -2.5014 0.8915
-17.2200 -20.6023 -2.3492 0.8978
-13.5295 -20.8519 -2.1747 0.9050
-9.5360 -19.4963 -1.8988 0.9165
-6.7334 -19.3890 -1.7957 0.9209
-1.9193 -20.5903 -1.8092 0.9203
3.9691 -26.5561 -2.3492 0.8978
7.5989 -27.5625 -2.5014 0.8915
10.8610 -26.4475 -2.5014 0.8915
13.9654 -24.9479 -2.5014 0.8915
25.6541 -12.6213 -2.5014 0.8915
26.9867 -9.4419 -2.5014 0.8915
27.9270 -6.1250 -2.5014 0.8915
28.5815 0.7261 -2.5014 0.8915
26.6361 3.9183 -2.3554 0.8975
16.1643 8.9995 -1.6186 0.9284
11.8450 8.6122 -1.2813 0.9429
9.2742 8.6280 -1.1082 0.9504
7.2271 8.5660 -0.9805 0.9560
5.5685 8.4962 -0.8887 0.9600
4.2847 8.6587 -0.8452 0.9620
3.0545 8.6663 -0.8039 0.9638
-3.5287 8.7067 -0.8219 0.9630
-4.8256 8.7147 -0.8715 0.9608
-8.0887 8.7347 -1.0415 0.9533
-13.0199 8.5764 -1.3640 0.9393
-21.4968 7.6325 -1.9958 0.9125
-26.8453 -0.5582 -2.3492 0.8978
-28.2338 -4.0203 -2.4951 0.8918
-27.6144 -7.4079 -2.5014 0.8915
-25.0440 -13.7924 -2.5014 0.8915
-21.0224 -19.3775 -2.5014 0.8915
-17.4093 -20.4426 -2.3492 0.8978
-4.3687 -19.2803 -1.7296 0.9237
0.3968 -21.4693 -1.8786 0.9174
3.7238 -26.5916 -2.3492 0.8978
10.6166 -26.5466 -2.5014 0.8915
13.7345 -25.0758 -2.5014 0.8915
16.6529 -23.2403 -2.5014 0.8915
21.7241 -18.5875 -2.5014 0.8915
23.8034 -15.8376 -2.5014 0.8915
25.5366 -12.8574 -2.5014 0.8915
26.8985 -9.6904 -2.5014 0.8915
27.8693 -6.3825 -2.5014 0.8915
28.5870 0.4624 -2.5014 0.8915
25.9660 6.8375 -2.3492 0.8978
24.9542 9.9131 -2.3492 0.8978
12.0758 8.6108 -1.2976 0.9422
9.4463 8.6270 -1.1192 0.9499
3.8480 5.7545 -0.6056 0.9726
2.0072 8.6727 -0.7788 0.9649
0.9263 8.6417 -0.7604 0.9657
-1.1650 8.6079 -0.7600 0.9657
-4.7208 8.7140 -0.8671 0.9610
-6.1898 8.7231 -0.9358 0.9580
-10.1285 8.7473 -1.1708 0.9477
-20.8545 2.2841 -1.8354 0.9192
-26.8493 -0.3104 -2.3492 0.8978
-26.6194 -10.4326 -2.5014 0.8915
-25.1702 -13.5607 -2.5014 0.8915
-21.2003 -19.1828 -2.5014 0.8915
-17.5973 -20.2810 -2.3492 0.8978
-7.1430 -19.4053 -1.8091 0.9203
-4.5184 -19.1208 -1.7189 0.9241
0.1977 -21.3637 -1.8692 0.9178
7.0890 -27.6980 -2.5014 0.8915
13.5026 -25.2014 -2.5014 0.8915
16.4377 -23.3930 -2.5014 0.8915
19.1339 -21.2445 -2.5014 0.8915
21.5517 -18.7871 -2.5014 0.8915
25.4169 -13.0926 -2.5014 0.8915
28.5901 0.1986 -2.5014 0.8915
28.3583 3.6383 -2.5014 0.8915
25.0446 9.6824 -2.3492 0.8978
9.6220 8.6259 -1.1306 0.9494
7.5138 8.5795 -0.9978 0.9552
1.0114 8.6788 -0.7644 0.9655
-0.0401 8.6434 -0.7562 0.9659
-1.0844 8.6098 -0.7592 0.9658
-2.1489 8.5604 -0.7722 0.9652
-7.7926 8.7329 -1.0240 0.9541
-26.1560 6.3724 -2.3553 0.8975
-26.8510 -0.0627 -2.3492 0.8978
-27.4231 -3.3898 -2.4175 0.8950
-27.7464 -6.8971 -2.5014 0.8915
-26.7145 -10.1866 -2.5014 0.8915
-14.8202 -21.5128 -2.2855 0.9004
-10.2621 -19.5879 -1.9347 0.9150
-7.3446 -19.3991 -1.8148 0.9201
3.2326 -26.6558 -2.3492 0.8978
6.8331 -27.7622 -2.5014 0.8915
10.1249 -26.7380 -2.5014 0.8915
18.9370 -21.4202 -2.5014 0.8915
23.5071 -16.2741 -2.5014 0.8915
27.7468 -6.8956 -2.5014 0.8915
28.3750 -3.5058 -2.5014 0.8915
28.5907 -0.0652 -2.5014 0.8915
25.1329 9.4509 -2.3492 0.8978
16.4392 8.5654 -1.6218 0.9283
12.5221 8.5850 -1.3283 0.9409
9.8012 8.6248 -1.1422 0.9489
7.6610 8.5864 -1.0068 0.9548
3.9785 5.7185 -0.6095 0.9724
4.5863 8.6568 -0.8571 0.9614
3.3263 8.6646 -0.8120 0.9634
1.4757 5.8801 -0.5304 0.9760
1.0926 8.6783 -0.7652 0.9655
0.0396 8.6472 -0.7565 0.9659
-1.0038 8.6094 -0.7583 0.9658
-2.0661 8.5644 -0.7708 0.9652
-3.2478 8.6976 -0.8123 0.9634
13.3454 8.6030 -1.9496 0.9380
8.0515 8.5241 -1.4397 0.9538
-0.7560 8.6003 -1.0601 0.9658
-1.8067 8.5462 -1.0725 0.9654
-2.8924 8.4725 -1.0992 0.9646
-4.2040 8.7109 -1.1876 0.9618
-7.2186 8.7294 -1.3908 0.9554
-11.6422 8.6418 -1.7802 0.9432
-15.3293 8.7341 -2.1663 0.9314
-18.4053 5.2245 -2.3492 0.9258
-18.9003 2.9713 -2.3492 0.9258
-19.5162 0.6888 -2.3978 0.9243
-19.9412 -4.1676 -2.5014 0.9212
-19.2946 -6.5374 -2.5014 0.9212
-17.1733 -10.9588 -2.5014 0.9212
-15.7295 -12.9462 -2.5014 0.9212
-12.1758 -16.3243 -2.5005 0.9212
-9.5098 -16.6016 -2.3492 0.9258
-5.2670 -18.3932 -2.3492 0.9258
-3.0149 -18.8934 -2.3492 0.9258
-0.7189 -19.1189 -2.3492 0.9258
1.5875 -19.0664 -2.3492 0.9258
3.8708 -18.7368 -2.3492 0.9258
6.4929 -19.3096 -2.5014 0.9212
12.9099 -15.7593 -2.5014 0.9212
14.7128 -14.0909 -2.5014 0.9212
16.3018 -12.2176 -2.5014 0.9212
17.6538 -10.1667 -2.5014 0.9212
18.7492 -7.9679 -2.5014 0.9212
19.5719 -5.6534 -2.5014 0.9212
20.1100 -3.2566 -2.5014 0.9212
19.7655 4.0358 -2.4770 0.9219
17.2879 8.1963 -2.3492 0.9258
13.6171 8.6013 -1.9776 0.9372
9.6777 16.7155 -2.3716 0.9251
2.5259 8.6695 -1.1087 0.9643
1.4256 8.6763 -1.0796 0.9652
-0.6764 8.6043 -1.0597 0.9658
-2.8116 8.4911 -1.0982 0.9646
-5.4792 8.7187 -1.2644 0.9594
-12.1579 14.9819 -2.3690 0.9252
-9.0425 8.7406 -1.5442 0.9506
-17.5736 7.5643 -2.3492 0.9258
-20.3130 -1.5498 -2.5014 0.9212
-19.9788 -3.9834 -2.5014 0.9212
-19.3541 -6.3591 -2.5014 0.9212
-18.4480 -8.6424 -2.5014 0.9212
-17.2737 -10.8000 -2.5014 0.9212
-12.3301 -16.2169 -2.5014 0.9212
-9.6626 -16.5132 -2.3492 0.9258
-7.6048 -17.5561 -2.3492 0.9258
-3.1890 -18.8648 -2.3492 0.9258
1.4115 -19.0803 -2.3492 0.9258
3.6977 -18.7717 -2.3492 0.9258
6.3145 -19.3687 -2.5014 0.9212
10.7601 -17.2985 -2.5014 0.9212
16.1884 -12.3675 -2.5014 0.9212
17.5593 -10.3291 -2.5014 0.9212
18.6749 -8.1406 -2.5014 0.9212
20.0791 -3.4420 -2.5014 0.9212
20.3475 -1.0002 -2.5014 0.9212
20.3199 1.4561 -2.5014 0.9212
8.5781 2.7747 -1.1070 0.9643
17.3628 8.0365 -2.3492 0.9258
10.7722 8.6188 -1.6939 0.9459
8.4217 8.5928 -1.4773 0.9527
3.7995 8.6617 -1.1613 0.9626
1.5078 8.6758 -1.0812 0.9651
-0.5969 8.6082 -1.0595 0.9658
-1.6442 8.5548 -1.0696 0.9655
-4.0069 8.7097 -1.1772 0.9621
-5.3672 8.7180 -1.2570 0.9596
-11.2890 8.7073 -1.7505 0.9442
-17.5031 7.7261 -2.3492 0.9258
-18.3057 5.5633 -2.3492 0.9258
-18.8423 3.3195 -2.3492 0.9258
-19.1048 1.0275 -2.3492 0.9258
-20.3264 -1.3623 -2.5014 0.9212
-20.0147 -3.7989 -2.5014 0.9212
-19.4119 -6.1803 -2.5014 0.9212
-18.5270 -8.4717 -2.5014 0.9212
-14.3266 -14.4834 -2.5014 0.9212
-12.4792 -16.1025 -2.5014 0.9212
-9.8145 -16.4233 -2.3492 0.9258
-7.7664 -17.4852 -2.3492 0.9258
-5.6055 -18.2929 -2.3492 0.9258
-3.3630 -18.8346 -2.3492 0.9258
1.2354 -19.0925 -2.3492 0.9258
3.5244 -18.8050 -2.3492 0.9258
6.1355 -19.4261 -2.5014 0.9212
12.6169 -15.9948 -2.5014 0.9212
14.4503 -14.3600 -2.5014 0.9212
16.0736 -12.5163 -2.5014 0.9212
17.4632 -10.4907 -2.5014 0.9212
19.4642 -6.0135 -2.5014 0.9212
20.3325 1.2686 -2.5014 0.9212
8.5917 2.6918 -1.1055 0.9644
17.4362 7.8759 -2.3492 0.9258
14.1846 8.5979 -2.0366 0.9353
8.6046 8.6188 -1.4954 0.9521
6.6227 8.4646 -1.3196 0.9576
5.0597 8.3787 -1.2018 0.9613
3.8949 8.6611 -1.1660 0.9625
-0.5174 8.6121 -1.0593 0.9658
-1.5633 8.5591 -1.0683 0.9655
-2.6417 8.5007 -1.0930 0.9648
-3.9097 8.7091 -1.1721 0.9623
-6.8188 8.7269 -1.3598 0.9563
-11.1168 8.7392 -1.7362 0.9446
-17.4281 7.8859 -2.3488 0.9258
-18.2536 5.7320 -2.3492 0.9258
-18.8108 3.4932 -2.3492 0.9258
-19.0945 1.2037 -2.3492 0.9258
-20.3381 -1.1747 -2.5014 0.9212
-20.0489 -3.6141 -2.5014 0.9212
-18.6043 -8.3005 -2.5014 0.9212
-9.9656 -16.3321 -2.3492 0.9258
-5.7740 -18.2404 -2.3492 0.9258
-3.5366 -18.8027 -2.3492 0.9258
-1.2478 -19.0917 -2.3492 0.9258
1.0592 -19.1031 -2.3492 0.9258
3.3507 -18.8367 -2.3492 0.9258
5.9560 -19.4819 -2.5014 0.9212
10.4390 -17.4941 -2.5014 0.9212
12.4687 -16.1105 -2.5014 0.9212
14.3172 -14.4927 -2.5014 0.9212
17.3657 -10.6514 -2.5014 0.9212
18.5214 -8.4838 -2.5014 0.9212
20.0122 -3.8119 -2.5014 0.9212
20.3255 -1.3755 -2.5014 0.9212
20.3433 1.0809 -2.5014 0.9212
14.4814 8.5960 -2.0678 0.9344
8.7685 8.6224 -1.5100 0.9516
5.1819 8.4049 -1.2124 0.9610
3.9912 8.6605 -1.1709 0.9623
2.7879 8.6679 -1.1180 0.9640
0.6065 8.6650 -1.0665 0.9656
-1.4825 8.5633 -1.0671 0.9656
-2.5574 8.5054 -1.0905 0.9648
-5.1470 8.7167 -1.2429 0.9600
-6.6895 8.7262 -1.3500 0.9567
-18.2000 5.9001 -2.3492 0.9258
-18.7778 3.6667 -2.3492 0.9258
-19.0826 1.3799 -2.3492 0.9258
-20.3481 -0.9870 -2.5014 0.9212
-19.5227 -5.8210 -2.5014 0.9212
-18.6801 -8.1284 -2.5014 0.9212
-17.5660 -10.3177 -2.5014 0.9212
-12.7742 -15.8694 -2.5014 0.9212
-3.7099 -18.7693 -2.3492 0.9258
0.8829 -19.1121 -2.3492 0.9258
3.1768 -18.8669 -2.3492 0.9258
8.0853 -18.6988 -2.5014 0.9212
10.2772 -17.5897 -2.5014 0.9212
17.2667 -10.8112 -2.5014 0.9212
18.4424 -8.6543 -2.5014 0.9212
19.3499 -6.3717 -2.5014 0.9212
20.3524 0.8931 -2.5014 0.9212
20.0970 3.3363 -2.5014 0.9212
17.5785 7.5529 -2.3492 0.9258
14.7874 8.5942 -2.1000 0.9334
2.8762 8.6674 -1.1213 0.9639
1.7562 8.6742 -1.0867 0.9650
-5.0387 8.7160 -1.2361 0.9602
-6.5619 8.7254 -1.3405 0.9570
-13.2874 8.4052 -1.9305 0.9386
-17.2866 8.2095 -2.3497 0.9258
-18.1448 6.0678 -2.3492 0.9258
-18.7432 3.8397 -2.3492 0.9258
-19.0691 1.5559 -2.3492 0.9258
-20.1122 -3.2435 -2.5014 0.9212
-18.7543 -7.9557 -2.5014 0.9212
-16.3098 -12.2069 -2.5014 0.9212
-14.7219 -14.0813 -2.5014 0.9212
-10.2654 -16.1454 -2.3492 0.9258
-3.8830 -18.7343 -2.3492 0.9258
-1.5999 -19.0654 -2.3492 0.9258
0.5932 -16.0542 -1.9726 0.9373
3.0026 -18.8954 -2.3492 0.9258
5.5915 -19.5744 -2.4996 0.9212
18.3618 -8.8241 -2.5014 0.9212
19.2904 -6.5499 -2.5014 0.9212
20.2967 -1.7504 -2.5014 0.9212
20.3598 0.7054 -2.5014 0.9212
20.1269 3.1507 -2.5014 0.9212
8.6997 2.4634 -1.1102 0.9642
15.1031 8.5922 -2.1335 0.9324
11.6200 8.6136 -1.7760 0.9434
9.1054 8.6291 -1.5403 0.9507
-0.2788 8.6237 -1.0594 0.9658
-1.3216 8.5717 -1.0649 0.9657
-3.6228 8.7073 -1.1580 0.9627
-17.2136 8.3703 -2.3502 0.9258
-20.3628 -0.6114 -2.5014 0.9212
-20.1412 -3.0578 -2.5014 0.9212
-17.7534 -9.9918 -2.5014 0.9212
-13.0649 -15.6310 -2.5014 0.9212
-10.4766 -16.1467 -2.3633 0.9254
-8.4064 -17.1867 -2.3492 0.9258
-6.2766 -18.0736 -2.3492 0.9258
-4.0557 -18.6976 -2.3492 0.9258
0.4446 -16.0408 -1.9703 0.9374
2.8281 -18.9223 -2.3492 0.9258
5.4040 -19.6011 -2.4965 0.9213
12.0181 -16.4494 -2.5014 0.9212
13.9106 -14.8834 -2.5014 0.9212
17.0642 -11.1279 -2.5014 0.9212
18.2796 -8.9932 -2.5014 0.9212
20.3654 0.5174 -2.5014 0.9212
8.7479 2.3901 -1.1135 0.9641
8.6199 3.5167 -1.1431 0.9632
16.1643 8.9995 -2.2716 0.9282
7.1547 8.4802 -1.3623 0.9563
5.5258 8.4310 -1.2377 0.9602
4.2847 8.6587 -1.1862 0.9618
1.8890 19.3017 -2.3813 0.9248
-0.1993 8.6275 -1.0596 0.9658
-2.3065 8.5192 -1.0837 0.9651
-4.8256 8.7147 -1.2231 0.9606
-6.3121 8.7238 -1.3221 0.9575
-8.0887 8.7347 -1.4617 0.9532
-10.3208 8.7485 -1.6612 0.9469
-17.1391 8.5306 -2.3507 0.9257
-18.0297 6.4015 -2.3492 0.9258
-18.8980 -7.6083 -2.5014 0.9212
-17.8448 -9.8276 -2.5014 0.9212
-13.2085 -15.5098 -2.5014 0.9212
2.6534 -18.9475 -2.3492 0.9258
5.2005 -19.5657 -2.4858 0.9217
11.8658 -16.5596 -2.5014 0.9212
20.2609 -2.1245 -2.5014 0.9212
8.7964 2.3163 -1.1169 0.9640
7.2931 8.4842 -1.3737 0.9559
4.3844 8.6581 -1.1916 0.9616
3.1445 8.6657 -1.1319 0.9635
2.0072 8.6727 -1.0930 0.9648
0.9263 8.6417 -1.0671 0.9656
-2.2235 8.5237 -1.0816 0.9651
-4.7208 8.7140 -1.2169 0.9608
-6.1898 8.7231 -1.3133 0.9578
-7.9394 8.7338 -1.4492 0.9535
-10.1285 8.7473 -1.6432 0.9475
-12.6115 8.4752 -1.8657 0.9406
-18.6297 4.3570 -2.3492 0.9258
-19.7242 -5.0967 -2.5014 0.9212
-18.9673 -7.4336 -2.5014 0.9212
-17.9347 -9.6625 -2.5014 0.9212
-16.6414 -11.7509 -2.5014 0.9212
-13.3511 -15.3873 -2.5014 0.9212
-11.0280 -16.3286 -2.4193 0.9237
-6.6091 -17.9547 -2.3492 0.9258
-4.4000 -18.6196 -2.3492 0.9258
2.4784 -18.9712 -2.3492 0.9258
4.8696 -19.0264 -2.4114 0.9239
9.6211 -17.9570 -2.5014 0.9212
11.7125 -16.6684 -2.5014 0.9212
16.8560 -11.4409 -2.5014 0.9212
19.1017 -7.0813 -2.5014 0.9212
20.2405 -2.3114 -2.5014 0.9212
20.3715 0.1415 -2.5014 0.9212
20.2064 2.5925 -2.5014 0.9212
16.3642 8.7192 -2.2767 0.9280
3.8957 5.7111 -0.8488 0.9725
4.4849 8.6575 -1.1972 0.9615
1.0114 8.6788 -1.0728 0.9654
-1.0812 8.5840 -1.0623 0.9657
-16.9854 8.8488 -2.3516 0.9257
-17.9085 6.7332 -2.3492 0.9258
-18.5887 4.5288 -2.3492 0.9258
-18.4050 2.1879 -2.2758 0.9280
-19.7704 -4.9145 -2.5014 0.9212
-11.3136 -16.4227 -2.4486 0.9228
-6.7744 -17.8930 -2.3492 0.9258
-2.3023 -18.9934 -2.3492 0.9258
4.5858 -18.6315 -2.3559 0.9256
7.2144 -19.0518 -2.5014 0.9212
11.5582 -16.7758 -2.5014 0.9212
19.0355 -7.2573 -2.5014 0.9212
19.7706 -4.9133 -2.5014 0.9212
20.2183 -2.4981 -2.5014 0.9212
20.3720 -0.0464 -2.5014 0.9212
20.2295 2.4059 -2.5014 0.9212
16.4392 8.5654 -2.2760 0.9280
12.5221 8.5850 -1.8642 0.9406
9.8012 8.6248 -1.6030 0.9487
7.5770 8.4923 -1.3974 0.9552
4.5863 8.6568 -1.2029 0.9613
3.3263 8.6646 -1.1396 0.9633
1.4755 5.8790 -0.7442 0.9759
1.0926 8.6783 -1.0740 0.9654
-2.0584 8.5327 -1.0777 0.9652
-5.9499 8.7216 -1.2963 0.9583
10.3768 8.6213 -2.1367 0.9468
8.0515 8.5241 -1.8571 0.9536
6.1786 8.3640 -1.6470 0.9588
4.8856 8.6210 -1.5695 0.9607
3.6109 8.6628 -1.4865 0.9627
0.2835 8.5942 -1.3619 0.9658
-0.7498 8.5292 -1.3561 0.9659
-1.7916 8.4747 -1.3719 0.9655
-2.8362 8.3076 -1.3904 0.9651
-4.2040 8.7109 -1.5319 0.9616
-9.2122 8.7416 -2.0114 0.9499
-13.6771 5.7381 -2.3492 0.9417
-14.2683 4.0502 -2.3492 0.9417
-14.8798 2.3392 -2.3857 0.9408
-15.7832 0.5571 -2.5014 0.9380
-15.4590 -3.2308 -2.5014 0.9380
-14.9578 -5.0680 -2.5014 0.9380
-14.2390 -6.8315 -2.5014 0.9380
-10.8973 -11.4310 -2.5014 0.9380
-7.8499 -13.7039 -2.5014 0.9380
-6.1412 -14.5438 -2.5005 0.9381
-4.1905 -14.6339 -2.4109 0.9402
-2.3418 -14.6753 -2.3538 0.9416
1.3069 -15.6960 -2.4946 0.9382
5.0335 -14.9694 -2.5014 0.9380
6.7986 -14.2547 -2.5014 0.9380
8.4649 -13.3328 -2.5014 0.9380
10.0081 -12.2171 -2.5014 0.9380
11.4058 -10.9237 -2.5014 0.9380
12.6377 -9.4714 -2.5014 0.9380
14.5349 -6.1770 -2.5014 0.9380
15.5899 -2.5246 -2.5014 0.9380
15.7805 -0.6298 -2.5014 0.9380
10.0380 2.0496 -1.6227 0.9594
13.4021 6.3541 -2.3492 0.9417
12.5399 7.9209 -2.3492 0.9417
6.3010 8.3671 -1.6590 0.9585
7.4572 12.8802 -2.3573 0.9415
3.7049 8.6623 -1.4922 0.9626
2.5259 8.6695 -1.4302 0.9641
0.3635 8.6091 -1.3648 0.9657
-0.6708 8.5331 -1.3557 0.9659
-1.7109 8.4791 -1.3700 0.9656
-2.7580 8.3291 -1.3896 0.9651
-5.4792 8.7187 -1.6310 0.9592
-9.3695 11.5458 -2.3550 0.9416
-9.0425 8.7406 -1.9919 0.9503
-14.6302 2.4385 -2.3492 0.9417
-15.7774 0.7026 -2.5014 0.9380
-15.4882 -3.0881 -2.5014 0.9380
-15.0039 -4.9298 -2.5014 0.9380
-13.3911 -8.3725 -2.5014 0.9380
-12.2860 -9.9233 -2.5014 0.9380
-11.0023 -11.3299 -2.5014 0.9380
-9.5587 -12.5718 -2.5014 0.9380
-7.9760 -13.6309 -2.5014 0.9380
-0.7017 -14.9792 -2.3751 0.9411
1.1598 -15.6775 -2.4899 0.9383
3.0523 -15.4952 -2.5014 0.9380
4.8952 -15.0152 -2.5014 0.9380
6.6668 -14.3169 -2.5014 0.9380
8.3415 -13.4104 -2.5014 0.9380
11.3045 -11.0284 -2.5014 0.9380
15.5660 -2.6683 -2.5014 0.9380
15.7740 -0.7754 -2.5014 0.9380
7.9222 2.5625 -1.3188 0.9668
12.6124 7.8049 -2.3492 0.9417
10.7722 8.6188 -2.1850 0.9457
8.4217 8.5928 -1.9056 0.9524
6.4252 8.3701 -1.6713 0.9582
1.5078 8.6758 -1.3947 0.9650
0.4439 8.6240 -1.3677 0.9656
-0.5919 8.5370 -1.3554 0.9659
-2.6798 8.3504 -1.3890 0.9651
-4.0069 8.7097 -1.5185 0.9619
-5.3672 8.7180 -1.6215 0.9594
-6.9335 8.7069 -1.7629 0.9559
-13.5689 5.9896 -2.3492 0.9417
-14.1912 4.3128 -2.3492 0.9417
-15.7702 0.8482 -2.5014 0.9380
-15.7577 -1.0561 -2.5014 0.9380
-15.5160 -2.9450 -2.5014 0.9380
-15.0487 -4.7911 -2.5014 0.9380
-13.4678 -8.2485 -2.5014 0.9380
-11.1064 -11.2279 -2.5014 0.9380
-8.1015 -13.5567 -2.5014 0.9380
-6.4108 -14.4333 -2.5014 0.9380
-2.6146 -14.6434 -2.3560 0.9415
-0.8384 -14.9447 -2.3707 0.9412
8.2174 -13.4868 -2.5014 0.9380
11.2023 -11.1323 -2.5014 0.9380
12.4608 -9.7030 -2.5014 0.9380
13.5380 -8.1327 -2.5014 0.9380
14.4185 -6.4441 -2.5014 0.9380
15.0893 -4.6619 -2.5014 0.9380
15.7661 -0.9209 -2.5014 0.9380
7.9611 3.5960 -1.3836 0.9652
10.9768 8.6176 -2.2103 0.9451
6.5512 8.3732 -1.6839 0.9579
3.8949 8.6611 -1.5041 0.9623
1.5903 8.6753 -1.3969 0.9649
0.5246 8.6390 -1.3708 0.9656
-1.5502 8.4877 -1.3666 0.9657
-2.6017 8.3716 -1.3885 0.9651
-8.7128 8.7386 -1.9545 0.9513
-12.6789 7.6965 -2.3492 0.9417
-13.5131 6.1145 -2.3492 0.9417
-15.7617 0.9936 -2.5014 0.9380
-15.7667 -0.9107 -2.5014 0.9380
-15.5425 -2.8017 -2.5014 0.9380
-15.0923 -4.6521 -2.5014 0.9380
-14.4227 -6.4348 -2.5014 0.9380
-12.4671 -9.6949 -2.5014 0.9380
-9.7890 -12.3933 -2.5014 0.9380
-6.5438 -14.3735 -2.5014 0.9380
-4.6466 -14.6789 -2.4386 0.9395
0.8614 -15.5365 -2.4645 0.9389
2.7659 -15.5489 -2.5014 0.9380
6.4015 -14.4374 -2.5014 0.9380
8.0927 -13.5620 -2.5014 0.9380
9.6661 -12.4894 -2.5014 0.9380
12.3707 -9.8176 -2.5014 0.9380
14.3584 -6.5769 -2.5014 0.9380
15.5141 -2.9551 -2.5014 0.9380
7.8883 3.4759 -1.3653 0.9657
12.7543 7.5708 -2.3492 0.9417
8.7685 8.6224 -1.9478 0.9514
6.6791 8.3763 -1.6968 0.9575
2.7879 8.6679 -1.4421 0.9638
1.6731 8.6748 -1.3993 0.9649
-2.5235 8.3928 -1.3881 0.9651
-3.8133 8.7085 -1.5057 0.9622
-6.6895 8.7262 -1.7415 0.9564
-10.8885 8.7235 -2.2098 0.9451
-12.6074 7.8131 -2.3492 0.9417
-14.1092 4.5739 -2.3492 0.9417
-14.5571 2.8425 -2.3492 0.9417
-15.7519 1.1390 -2.5014 0.9380
-15.5677 -2.6582 -2.5014 0.9380
-13.6177 -7.9986 -2.5014 0.9380
-12.5560 -9.5795 -2.5014 0.9380
-9.9030 -12.3024 -2.5014 0.9380
-8.3502 -13.4050 -2.5014 0.9380
-6.6761 -14.3125 -2.5014 0.9380
-4.8010 -14.6941 -2.4484 0.9393
-2.8913 -14.6277 -2.3616 0.9414
2.6223 -15.5738 -2.5014 0.9380
6.2680 -14.4959 -2.5014 0.9380
7.9672 -13.6361 -2.5014 0.9380
12.2796 -9.9313 -2.5014 0.9380
13.3856 -8.3811 -2.5014 0.9380
14.2971 -6.7091 -2.5014 0.9380
15.0007 -4.9395 -2.5014 0.9380
15.4861 -3.0981 -2.5014 0.9380
15.7465 -1.2117 -2.5014 0.9380
15.5798 2.5864 -2.5014 0.9380
8.0229 2.3519 -1.3242 0.9667
7.8559 3.3754 -1.3542 0.9660
12.8236 7.4529 -2.3492 0.9417
8.9398 8.6301 -1.9680 0.9509
5.1607 8.2002 -1.5346 0.9615
4.0882 8.6599 -1.5168 0.9620
0.6872 8.6691 -1.3774 0.9654
-0.3554 8.5486 -1.3551 0.9659
-2.4455 8.4139 -1.3878 0.9651
-3.7177 8.7079 -1.4996 0.9624
-5.0387 8.7160 -1.5946 0.9600
-10.7185 8.7509 -2.1916 0.9455
-13.3980 6.3628 -2.3492 0.9417
-15.1756 -4.3728 -2.5014 0.9380
-14.5389 -6.1675 -2.5014 0.9380
-13.6909 -7.8726 -2.5014 0.9380
-12.6439 -9.4632 -2.5014 0.9380
-10.0160 -12.2105 -2.5014 0.9380
-8.4736 -13.3273 -2.5014 0.9380
-6.8079 -14.2503 -2.5014 0.9380
-4.9592 -14.7167 -2.4597 0.9390
4.3378 -15.1856 -2.5014 0.9380
6.1340 -14.5531 -2.5014 0.9380
7.8410 -13.7090 -2.5014 0.9380
9.4340 -12.6656 -2.5014 0.9380
10.8899 -11.4380 -2.5014 0.9380
14.9544 -5.0777 -2.5014 0.9380
15.7346 -1.3569 -2.5014 0.9380
15.7835 0.5468 -2.5014 0.9380
15.6030 2.4425 -2.5014 0.9380
8.0918 2.2913 -1.3320 0.9665
12.8918 7.3342 -2.3492 0.9417
9.1054 8.6291 -1.9869 0.9505
5.2825 8.2244 -1.5482 0.9612
2.9651 8.6668 -1.4508 0.9636
0.7667 8.6574 -1.3766 0.9654
-0.2765 8.5524 -1.3553 0.9659
-2.3674 8.4349 -1.3876 0.9651
-4.9316 8.7153 -1.5860 0.9603
-6.4362 8.7246 -1.7172 0.9570
-10.5174 8.7497 -2.1669 0.9461
-12.4611 8.0444 -2.3492 0.9417
-14.5022 3.1107 -2.3492 0.9417
-15.7859 -0.4739 -2.5014 0.9380
-15.6141 -2.3705 -2.5014 0.9380
-15.2153 -4.2325 -2.5014 0.9380
-14.5952 -6.0331 -2.5014 0.9380
-13.7630 -7.7460 -2.5014 0.9380
-11.5131 -10.8105 -2.5014 0.9380
-6.9391 -14.1869 -2.5014 0.9380
-5.1203 -14.7441 -2.4721 0.9387
-3.1704 -14.6164 -2.3689 0.9412
-1.3813 -14.8184 -2.3572 0.9415
2.3345 -15.6195 -2.5014 0.9380
5.9994 -14.6091 -2.5014 0.9380
10.7839 -11.5381 -2.5014 0.9380
12.0943 -10.1562 -2.5014 0.9380
14.9070 -5.2155 -2.5014 0.9380
15.7879 0.4011 -2.5014 0.9380
15.6249 2.2985 -2.5014 0.9380
7.8078 3.1854 -1.3356 0.9664
12.9590 7.2149 -2.3492 0.9417
11.9963 8.7223 -2.3492 0.9417
9.2742 8.6280 -2.0063 0.9500
7.0750 8.3857 -1.7377 0.9565
4.2847 8.6587 -1.5301 0.9616
3.0545 8.6663 -1.4554 0.9635
-0.1976 8.5562 -1.3555 0.9659
-2.2870 8.4472 -1.3861 0.9652
-3.5287 8.7067 -1.4880 0.9627
-6.3121 8.7238 -1.7055 0.9573
-12.3863 8.1591 -2.3492 0.9417
-13.2783 6.6089 -2.3492 0.9417
-13.9772 4.9627 -2.3492 0.9417
-14.4729 3.2443 -2.3492 0.9417
-15.7896 -0.3283 -2.5014 0.9380
-15.6353 -2.2263 -2.5014 0.9380
-14.6503 -5.8982 -2.5014 0.9380
-13.8338 -7.6187 -2.5014 0.9380
-12.8163 -9.2283 -2.5014 0.9380
-11.6124 -10.7038 -2.5014 0.9380
-7.0697 -14.1223 -2.5014 0.9380
-3.3106 -14.6107 -2.3728 0.9411
-1.5169 -14.7949 -2.3556 0.9415
4.0568 -15.2631 -2.5014 0.9380
5.8644 -14.6638 -2.5014 0.9380
9.1988 -12.8375 -2.5014 0.9380
12.0000 -10.2674 -2.5014 0.9380
14.1059 -7.1022 -2.5014 0.9380
15.7069 -1.6470 -2.5014 0.9380
15.7910 0.2555 -2.5014 0.9380
15.6454 2.1542 -2.5014 0.9380
8.3342 2.1946 -1.3650 0.9657
7.8103 3.1027 -1.3311 0.9665
13.0250 7.0951 -2.3492 0.9417
12.0763 8.6112 -2.3492 0.9417
9.4463 8.6270 -2.0262 0.9495
7.2112 8.3889 -1.7521 0.9562
3.8479 5.7544 -1.0964 0.9724
4.3844 8.6581 -1.5371 0.9615
2.0072 8.6727 -1.4099 0.9646
-0.1187 8.5599 -1.3559 0.9659
-1.1516 8.5087 -1.3599 0.9658
-3.4353 8.7061 -1.4824 0.9628
-6.1898 8.7231 -1.6941 0.9576
-10.1285 8.7473 -2.1196 0.9472
-13.9308 5.0915 -2.3492 0.9417
-15.6868 1.7181 -2.4994 0.9381
-15.6552 -2.0820 -2.5014 0.9380
-15.2908 -3.9511 -2.5014 0.9380
-14.7041 -5.7628 -2.5014 0.9380
-13.9036 -7.4907 -2.5014 0.9380
-12.9009 -9.1097 -2.5014 0.9380
-11.7107 -10.5962 -2.5014 0.9380
-10.3502 -11.9287 -2.5014 0.9380
-7.1996 -14.0564 -2.5014 0.9380
-3.4521 -14.6085 -2.3775 0.9410
-1.6523 -14.7716 -2.3542 0.9416
2.0458 -15.6595 -2.5013 0.9380
9.0799 -12.9219 -2.5014 0.9380
11.9048 -10.3776 -2.5014 0.9380
14.0398 -7.2321 -2.5014 0.9380
15.3613 -3.6674 -2.5014 0.9380
15.6910 -1.7919 -2.5014 0.9380
8.4921 2.1526 -1.3876 0.9651
7.8122 3.0202 -1.3266 0.9666
13.0899 6.9746 -2.3492 0.9417
7.3517 8.3944 -1.7673 0.9558
3.8818 5.6908 -1.0910 0.9725
2.0916 8.6722 -1.4129 0.9645
-0.0397 8.5637 -1.3564 0.9659
-1.0722 8.5128 -1.3589 0.9658
-2.1228 8.4564 -1.3809 0.9653
-4.6169 8.7134 -1.5618 0.9609
-7.7926 8.7329 -1.8538 0.9537
-12.2336 8.3862 -2.3492 0.9417
-13.8832 5.2198 -2.3492 0.9417
-15.7930 -0.0369 -2.5014 0.9380
-15.6737 -1.9374 -2.5014 0.9380
-11.8079 -10.4877 -2.5014 0.9380
-10.4598 -11.8327 -2.5014 0.9380
-8.9596 -13.0056 -2.5014 0.9380
-5.5783 -14.7338 -2.4953 0.9382
-3.5958 -14.6127 -2.3835 0.9409
1.9002 -15.6688 -2.4999 0.9381
10.4604 -11.8321 -2.5014 0.9380
11.8085 -10.4871 -2.5014 0.9380
13.9725 -7.3613 -2.5014 0.9380
14.7569 -5.6261 -2.5014 0.9380
15.3268 -3.8090 -2.5014 0.9380
15.6738 -1.9366 -2.5014 0.9380
15.7930 -0.0360 -2.5014 0.9380
8.7088 2.1222 -1.4197 0.9643
7.8140 2.9383 -1.3222 0.9668
9.8012 8.6248 -2.0678 0.9485
7.5170 8.4250 -1.7883 0.9553
4.5863 8.6568 -1.5516 0.9611
1.0926 8.6783 -1.3854 0.9652
-0.9930 8.5169 -1.3581 0.9659
-2.0411 8.4610 -1.3785 0.9654
-3.2478 8.6976 -1.4705 0.9631
-5.9499 8.7216 -1.6722 0.9581
-7.6482 8.7320 -1.8385 0.9541
-9.7559 8.7450 -2.0751 0.9483
10.1577 6.5481 -2.3492 0.9519
0.2835 8.5942 -1.6715 0.9656
-2.7815 8.1474 -1.6734 0.9655
