ply
format ascii 1.0
element vertex 1577
property float32 x
property float32 y
property float32 z
property float32 I
end_header
32.4778 -42.0630 12.2688 0.8040
58.9568 -27.0711 14.9775 0.7662
94.7076 16.5585 22.1966 0.6739
33.4954 25.7778 9.7579 0.8407
33.7582 54.7229 14.8443 0.7680
-9.7763 32.4990 7.8351 0.8699
-11.7919 26.9161 6.7842 0.8864
-14.3792 24.3387 6.5264 0.8904
-62.6466 -36.8772 16.7829 0.7420
-19.6091 -31.5615 8.5784 0.8585
-5.8979 -30.0501 7.0700 0.8819
-2.9647 -40.4856 9.3719 0.8465
24.7536 -42.2049 11.2960 0.8180
95.5514 16.0807 22.3700 0.6718
33.5926 41.5565 12.3367 0.8030
34.1761 54.6195 14.8750 0.7676
-11.5880 26.9149 6.7652 0.8867
-17.5562 23.1916 6.7153 0.8874
-53.7068 55.5331 17.8357 0.7282
-66.0089 53.5326 19.6210 0.7055
-57.3024 -16.7422 13.7824 0.7826
-48.2717 -28.0034 12.8839 0.7953
-19.8872 -31.5598 8.6121 0.8580
-3.2235 -40.4841 9.3761 0.8464
24.6454 -42.6392 11.3701 0.8169
58.9162 -27.9652 15.0564 0.7651
9.8428 5.6683 2.6223 0.9544
34.5967 54.5178 14.9069 0.7672
-13.9632 24.3362 6.4776 0.8912
-17.3243 23.1902 6.6829 0.8880
-53.0232 55.5289 17.7257 0.7296
-65.1936 53.5625 19.4795 0.7072
-56.6304 -16.1556 13.5958 0.7852
-50.9839 -29.1449 13.5580 0.7858
-15.0922 -31.4083 8.0449 0.8667
-10.6874 -31.4858 7.6764 0.8724
58.8957 -28.4159 15.0970 0.7646
9.9877 5.6674 2.6512 0.9540
33.4892 24.7701 9.6167 0.8428
1.9750 5.7581 1.4054 0.9753
-10.0464 35.8633 8.5984 0.8582
-11.2667 27.1129 6.7784 0.8864
-50.3847 53.4418 16.9568 0.7397
-56.3191 -41.3798 16.1346 0.7506
-26.4821 -40.8638 11.2420 0.8188
-15.3382 -31.4068 8.0693 0.8663
-10.9277 -31.5333 7.7048 0.8720
-7.2834 -33.6947 7.9587 0.8680
-1.4947 -16.1698 3.7490 0.9355
-51.3208 -25.1616 11.1102 0.7922
-13.8670 -33.6676 7.0777 0.8621
42.6208 -87.2820 18.8806 0.6731
35.6827 -42.7383 10.8223 0.7970
48.9622 -46.0188 13.0612 0.7605
58.9440 -43.3129 14.2182 0.7423
63.1247 13.5369 12.5491 0.7687
56.8025 19.5805 11.6789 0.7828
41.4058 20.1375 8.9499 0.8289
33.9718 21.9368 7.8605 0.8481
33.5558 35.5885 9.5078 0.8193
34.6259 46.9654 11.3421 0.7884
4.8935 8.6550 1.9326 0.9603
2.4292 8.6701 1.7502 0.9640
-0.7750 8.6898 1.6958 0.9651
-2.9847 8.7034 1.7885 0.9632
-4.2194 8.7110 1.8814 0.9613
-14.5967 22.6838 5.2433 0.8959
-19.2468 23.2020 5.8598 0.8844
-56.5332 53.4744 15.1261 0.7283
-7.9758 -28.1222 5.6820 0.8877
30.5282 -89.9521 18.4645 0.6790
25.7641 -40.3196 9.3008 0.8229
35.1807 -42.6860 10.7522 0.7982
48.9586 -46.6053 13.1390 0.7592
58.7609 -24.7505 12.3938 0.7712
57.9757 19.5733 11.8942 0.7793
42.1536 20.1707 9.0836 0.8266
33.5530 35.1351 9.4435 0.8204
4.9662 8.6545 1.9396 0.9602
0.3311 8.6830 1.6890 0.9652
-2.9228 8.7030 1.7845 0.9633
-14.5947 23.0009 5.2950 0.8949
-56.2580 53.8960 15.1439 0.7280
-68.3677 -13.9804 13.5644 0.7525
-51.6322 -24.5048 11.1093 0.7922
-18.6581 -32.2771 7.2469 0.8591
-14.3692 -33.6646 7.1149 0.8614
30.2249 -90.9550 18.6306 0.6767
25.0010 -39.6792 9.1162 0.8260
48.9550 -47.1989 13.2183 0.7580
58.9370 -44.4731 14.3518 0.7402
58.0965 -33.7066 13.0558 0.7606
58.8081 -25.2120 12.4374 0.7705
94.6931 19.0501 18.7753 0.6746
33.9680 21.3272 7.7963 0.8492
33.5849 34.7236 9.3901 0.8213
5.0394 8.6541 1.9466 0.9600
1.4464 8.6761 1.7097 0.9648
0.3865 8.6827 1.6894 0.9652
-0.6637 8.6891 1.6939 0.9651
-1.7350 8.6957 1.7236 0.9645
-4.0831 8.7101 1.8699 0.9616
-14.7908 23.6408 5.4206 0.8926
-68.0518 -13.4655 13.4844 0.7538
-56.7180 -18.5478 11.5994 0.7841
-65.7155 -30.6783 14.0972 0.7441
-18.6552 -31.8036 7.1670 0.8605
-10.9841 -25.2873 5.3590 0.8937
-9.2184 -30.9960 6.2858 0.8765
-5.7289 -33.7042 6.6454 0.8700
24.0812 -51.7987 11.1035 0.7923
24.7343 -39.8151 9.1111 0.8261
34.0294 -42.3760 10.5642 0.8013
48.9513 -47.7998 13.2991 0.7567
59.0805 19.1127 12.0701 0.7764
43.5498 20.1621 9.3284 0.8224
33.9662 21.0260 7.7650 0.8498
34.2076 44.5912 10.9243 0.7953
3.7952 8.6617 1.8382 0.9622
2.6082 8.6690 1.7597 0.9638
1.5031 8.6758 1.7115 0.9648
-18.5074 23.1975 5.7684 0.8861
-70.7432 -13.5311 14.0004 0.7457
-58.4098 -18.6907 11.9208 0.7789
-65.6658 -30.1479 14.0451 0.7450
-63.9543 -64.8730 17.7075 0.6899
-11.1895 -25.3183 5.3806 0.8933
-5.9495 -33.7029 6.6525 0.8698
23.7071 -51.8541 11.0829 0.7927
24.5534 -40.0905 9.1382 0.8257
48.9475 -48.4080 13.3815 0.7554
59.1518 -45.8274 14.5449 0.7372
58.8026 -26.0999 12.5054 0.7694
94.3394 17.7336 18.6589 0.6763
59.0779 18.6977 12.0450 0.7769
43.7788 19.9310 9.3501 0.8220
34.6030 44.5176 10.9600 0.7947
5.1873 8.6531 1.9611 0.9597
2.6684 8.6686 1.7630 0.9637
1.5599 8.6754 1.7134 0.9647
0.4972 8.6820 1.6904 0.9652
-0.3745 5.8886 1.1469 0.9762
-2.7388 8.7019 1.7733 0.9635
-14.5886 23.9913 5.4579 0.8919
-18.2660 23.1960 5.7390 0.8866
-55.8089 55.5460 15.3055 0.7255
-79.7287 -14.7249 15.7598 0.7187
-56.3439 -44.2240 13.9228 0.7469
-65.3454 -65.4463 17.9770 0.6860
-19.0591 -31.5649 7.1673 0.8605
-9.8969 -31.7918 6.4722 0.8731
-2.7769 -45.9353 8.9452 0.8290
23.4217 -52.1039 11.1042 0.7923
59.1183 -46.4061 14.6089 0.7362
58.7999 -26.5477 12.5405 0.7688
59.0754 18.2844 12.0205 0.7773
33.9625 20.4308 7.7041 0.8509
34.5484 34.3825 9.4744 0.8199
34.6073 43.9434 10.8726 0.7962
33.6777 55.3771 12.5985 0.7679
3.9269 8.6609 1.8485 0.9620
1.6169 8.6751 1.7153 0.9647
-1.5630 8.6946 1.7172 0.9646
-2.6780 8.7015 1.7697 0.9636
-3.8816 8.7089 1.8534 0.9619
-14.5865 24.3349 5.5149 0.8908
-55.0994 55.5416 15.2075 0.7270
-65.5679 -29.0990 13.9439 0.7465
-19.3329 -31.5632 7.1947 0.8600
-15.3901 -33.6583 7.1940 0.8600
-9.9171 -31.1571 6.3557 0.8753
-6.3646 -33.5559 6.6389 0.8701
-2.7152 -40.6250 7.9143 0.8471
38.6613 -87.4892 18.5926 0.6772
24.1899 -40.6489 9.1946 0.8247
48.7412 -49.4462 13.4960 0.7536
73.8318 -45.3845 16.8460 0.7025
58.7971 -26.9977 12.5762 0.7682
43.9560 19.3406 9.3347 0.8223
33.9607 20.1368 7.6745 0.8514
34.5002 26.5510 8.4622 0.8374
34.5457 33.9451 9.4143 0.8209
34.6038 43.3685 10.7846 0.7977
3.9933 8.6605 1.8538 0.9619
1.6740 8.6747 1.7173 0.9646
0.6079 8.6813 1.6916 0.9652
-0.4416 8.6878 1.6909 0.9652
-1.5059 8.6943 1.7152 0.9647
-2.6174 8.7011 1.7662 0.9637
-3.8152 8.7085 1.8481 0.9620
-79.4909 -13.6378 15.6772 0.7199
-55.6760 -16.6519 11.2960 0.7891
-6.6140 -33.6988 6.6754 0.8694
32.2348 -42.3015 10.3379 0.8052
48.9361 -50.2793 13.6382 0.7513
95.8276 16.1272 18.8889 0.6730
34.4981 26.2019 8.4206 0.8382
34.5431 33.5135 9.3553 0.8219
34.1761 54.6195 12.5240 0.7691
4.0601 8.6601 1.8592 0.9618
-1.4489 8.6939 1.7132 0.9647
-66.0523 53.5678 16.5308 0.7071
-80.2090 26.5168 16.4210 0.7088
-79.0186 -13.0399 15.5674 0.7216
-61.1559 -35.4778 13.7430 0.7497
-56.5228 -42.6470 13.7634 0.7494
-19.8872 -31.5598 7.2510 0.8590
-15.8409 -33.5106 7.2049 0.8598
-6.8365 -33.6974 6.6836 0.8693
-3.2235 -40.4841 7.8942 0.8475
31.8096 -42.2989 10.2876 0.8060
48.9321 -50.9194 13.7271 0.7499
59.0177 17.0396 11.9405 0.7786
34.5404 33.0870 9.2974 0.8229
34.5368 42.1730 10.5956 0.8008
1.9597 5.8343 1.1963 0.9752
1.7886 8.6740 1.7215 0.9646
-2.4970 8.7004 1.7595 0.9638
-3.6835 8.7077 1.8378 0.9622
-13.9632 24.3362 5.4538 0.8920
-17.3243 23.1902 5.6267 0.8887
-65.1935 53.5625 16.4008 0.7091
-57.5517 -16.4184 11.6332 0.7836
-57.2451 -42.6235 13.8730 0.7476
-21.4924 -33.6310 7.7581 0.8499
-16.1711 -33.6535 7.2576 0.8589
-11.4286 -33.6693 6.9114 0.8651
-7.0597 -33.6961 6.6921 0.8691
-1.3958 -16.2250 3.1655 0.9358
31.3886 -42.2963 10.2382 0.8068
48.9281 -51.5675 13.8176 0.7485
73.6205 -47.2135 17.0003 0.7002
58.7389 -28.3403 12.6771 0.7666
34.7461 19.7163 7.7655 0.8498
4.1949 8.6593 1.8703 0.9616
1.8460 8.6737 1.7238 0.9645
0.7746 8.6803 1.6940 0.9651
-1.3354 8.6932 1.7096 0.9648
-13.7575 24.3349 5.4338 0.8923
-50.3846 53.4417 14.2769 0.7413
-80.3456 7.2982 15.6819 0.7198
-78.7699 -11.9717 15.4872 0.7228
-57.0861 -15.8937 11.5185 0.7855
-66.1154 -37.2391 14.7499 0.7340
-11.5763 -33.4047 6.8721 0.8658
-7.2834 -33.6947 6.7009 0.8689
-80.4408 44.9765 14.5968 0.6885
-39.0675 -8.5080 6.3327 0.8505
-79.9832 -52.0093 15.1108 0.6795
-60.7085 -64.7976 14.0635 0.6980
-24.6162 -33.6118 6.5986 0.8447
-13.0161 -31.6019 5.4132 0.8707
-4.7564 -31.6237 5.0650 0.8785
-2.3831 -83.3633 13.2089 0.7134
28.1361 -81.2030 13.6115 0.7061
35.3681 -42.3614 8.7404 0.7997
59.1308 -33.3088 10.7491 0.7597
63.1246 13.5369 10.2253 0.7699
41.4059 20.1375 7.2925 0.8299
8.1418 8.6350 1.8797 0.9531
3.6003 8.6629 1.4858 0.9627
1.3333 8.6768 1.3904 0.9651
-1.8505 8.6964 1.4082 0.9646
-2.9847 8.7034 1.4573 0.9634
-7.2414 8.7295 1.7964 0.9551
-56.5332 53.4744 12.3250 0.7297
-80.5270 45.6994 14.6649 0.6873
-65.9505 -31.8158 11.5975 0.7434
-24.9447 -33.6098 6.6292 0.8441
-4.9621 -31.6224 5.0698 0.8784
-2.9137 -83.3601 13.2110 0.7133
30.5282 -89.9520 15.0451 0.6807
25.6881 -40.2005 7.5561 0.8243
59.1265 -44.0287 11.6759 0.7419
58.7591 -33.5933 10.7201 0.7602
58.8108 -24.7715 10.1073 0.7723
66.8261 13.8867 10.8103 0.7585
57.9757 19.5733 9.6916 0.7805
42.1537 20.1707 7.4015 0.8276
34.5113 28.3514 7.0740 0.8345
8.2444 8.6331 1.8907 0.9528
4.9662 8.6545 1.5804 0.9604
3.6649 8.6625 1.4897 0.9626
2.4887 8.6697 1.4286 0.9641
1.3898 8.6765 1.3917 0.9650
-0.7193 8.6895 1.3810 0.9653
-1.7927 8.6960 1.4063 0.9647
-2.9228 8.7030 1.4541 0.9635
-56.2580 53.8960 12.3395 0.7294
-80.3825 46.2956 14.6919 0.6868
-67.0930 -31.8425 11.7626 0.7403
-10.8592 -25.4413 4.3812 0.8940
-5.1682 -31.6212 5.0748 0.8783
-3.4444 -83.3568 13.2137 0.7133
30.3187 -91.2374 15.2276 0.6775
24.1178 -51.0263 8.9390 0.7957
25.4028 -40.3169 7.5474 0.8245
59.1228 -44.6133 11.7310 0.7408
58.9078 -25.2547 10.1514 0.7714
59.0830 19.5294 9.8558 0.7772
34.5091 27.9838 7.0369 0.8353
8.3404 8.6232 1.9001 0.9526
6.5448 8.6448 1.7173 0.9570
3.7299 8.6621 1.4937 0.9625
2.5483 8.6694 1.4312 0.9641
-0.6637 8.6891 1.3802 0.9653
-1.7350 8.6957 1.4044 0.9647
-2.8612 8.7026 1.4509 0.9636
-4.0831 8.7101 1.5236 0.9618
-5.4547 8.7186 1.6289 0.9592
-69.2954 -13.7116 11.1881 0.7512
-63.2175 -64.9467 14.3550 0.6928
-25.6108 -33.6057 6.6921 0.8427
-18.5172 -31.5682 5.7966 0.8622
-10.9897 -25.3000 4.3688 0.8943
-9.4140 -31.6537 5.2305 0.8748
-5.3746 -31.6199 5.0799 0.8782
30.5047 -93.7858 15.6202 0.6707
23.8118 -51.2192 8.9461 0.7955
44.8261 -43.7717 9.9232 0.7759
59.1192 -45.2035 11.7871 0.7398
59.2542 -25.8505 10.2392 0.7697
29.5857 5.7565 4.7737 0.8851
33.9662 21.0260 6.3270 0.8506
34.5068 27.6201 7.0005 0.8361
1.5031 8.6758 1.3946 0.9650
-1.6775 8.6953 1.4026 0.9648
-2.7999 8.7022 1.4479 0.9637
-4.0155 8.7097 1.5190 0.9619
-5.3776 8.7181 1.6224 0.9594
-6.9632 8.7278 1.7684 0.9558
-62.6825 -11.9894 10.1079 0.7722
-63.9825 -64.9016 14.4347 0.6914
-25.9487 -33.6037 6.7244 0.8420
-18.7871 -31.5666 5.8181 0.8618
-9.4267 -30.9741 5.1280 0.8771
-5.5857 -31.6423 5.0891 0.8780
24.8667 -40.6020 7.5410 0.8246
32.5333 -41.0448 8.2953 0.8089
59.1156 -45.7993 11.8442 0.7387
59.2514 -26.2991 10.2674 0.7691
43.7789 19.9310 7.6187 0.8230
33.9643 20.7273 6.3020 0.8512
8.5633 8.6312 1.9257 0.9520
6.7154 8.6396 1.7331 0.9567
5.1873 8.6531 1.5979 0.9600
3.8609 8.6613 1.5019 0.9623
2.6684 8.6686 1.4366 0.9639
1.5599 8.6754 1.3961 0.9649
0.4972 8.6820 1.3773 0.9654
-0.3744 5.8877 0.9344 0.9764
-1.6201 8.6950 1.4009 0.9648
-3.9483 8.7093 1.5145 0.9620
-5.3010 8.7176 1.6160 0.9595
-6.8724 8.7273 1.7594 0.9560
-80.6253 48.5073 14.9028 0.6831
-79.0555 24.4724 13.1074 0.7152
-79.0278 4.6514 12.5384 0.7257
-19.0590 -31.5649 5.8401 0.8613
-14.2200 -31.6295 5.4926 0.8690
-9.7727 -31.3928 5.2075 0.8753
-5.7932 -31.6410 5.0948 0.8779
-2.8807 -47.6529 7.5613 0.8242
23.5698 -52.4333 9.1051 0.7923
31.9564 -40.8482 8.2143 0.8106
58.9460 -35.7199 10.9165 0.7564
59.2486 -26.7503 10.2962 0.7685
29.6035 5.3700 4.7653 0.8853
43.9219 19.6599 7.6215 0.8229
34.5024 26.9039 6.9296 0.8376
8.6734 8.6317 1.9381 0.9517
34.6073 43.9435 8.8592 0.7973
5.2621 8.6527 1.6040 0.9598
2.7287 8.6683 1.4393 0.9639
-1.5630 8.6946 1.3992 0.9649
-2.6780 8.7015 1.4420 0.9638
-5.2251 8.7171 1.6097 0.9597
-8.6687 8.7383 1.9495 0.9514
-80.7439 49.2804 14.9823 0.6817
-79.1268 25.0469 13.1453 0.7145
-68.1457 -30.2430 11.8084 0.7394
-26.6345 -33.5995 6.7908 0.8406
-19.3329 -31.5632 5.8624 0.8608
-2.7152 -40.6251 6.4487 0.8480
22.9425 -51.9181 8.9901 0.7946
24.2855 -40.8096 7.5215 0.8250
53.9671 -42.9199 10.9211 0.7563
59.2459 -27.2038 10.3255 0.7680
59.1730 17.9029 9.7916 0.7785
43.9560 19.3407 7.6061 0.8233
33.9607 20.1368 6.2533 0.8522
34.5002 26.5510 6.8951 0.8384
6.8888 8.6336 1.7494 0.9563
5.3375 8.6522 1.6102 0.9597
1.6740 8.6747 1.3993 0.9649
-3.8152 8.7085 1.5058 0.9622
-6.6935 8.7262 1.7419 0.9564
-8.5585 8.7376 1.9372 0.9517
-79.0825 5.6648 12.5575 0.7254
-78.5178 -13.4708 12.6177 0.7242
-19.6091 -31.5615 5.8851 0.8603
-6.2097 -31.6385 5.1067 0.8776
-2.7298 -37.2786 5.9201 0.8595
22.2948 -51.3333 8.8641 0.7972
41.0760 -42.2035 9.3277 0.7878
59.1090 -36.8546 11.0326 0.7542
59.2430 -27.6599 10.3555 0.7674
93.8331 15.7915 15.0707 0.6802
33.9589 19.8448 6.2296 0.8527
34.4981 26.2019 6.8613 0.8391
8.8955 8.6304 1.9630 0.9510
6.9859 8.6421 1.7601 0.9560
5.4135 8.6518 1.6164 0.9595
4.0601 8.6601 1.5149 0.9620
1.7312 8.6744 1.4010 0.9648
-5.0666 8.7017 1.5948 0.9600
-6.6054 8.7256 1.7333 0.9566
-8.4474 8.7346 1.9246 0.9520
-66.0522 53.5677 13.4696 0.7086
-2.6966 -33.8668 5.3810 0.8715
22.0862 -51.7509 8.9118 0.7962
23.7748 -41.1330 7.5248 0.8250
31.4728 -41.8512 8.2937 0.8089
59.2402 -28.1190 10.3861 0.7668
59.5186 17.1842 9.8119 0.7781
45.0756 19.1527 7.7570 0.8201
34.2421 19.7194 6.2585 0.8521
34.4960 25.8559 6.8280 0.8398
34.5405 33.0870 7.5757 0.8239
7.0768 8.6415 1.7691 0.9558
1.9586 5.8309 0.9743 0.9754
-0.3309 8.6871 1.3769 0.9654
-3.6835 8.7077 1.4975 0.9624
-13.9632 24.3362 4.4439 0.8926
-8.3252 8.7186 1.9093 0.9524
-65.1935 53.5625 13.3637 0.7106
-52.5245 17.7356 8.7805 0.7989
-57.8850 -43.1000 11.4304 0.7466
-20.1901 -31.5931 5.9384 0.8591
-10.7416 -31.6456 5.2930 0.8734
-6.6281 -31.6359 5.1194 0.8773
23.4614 -41.1935 7.5084 0.8253
31.1649 -41.9949 8.2828 0.8091
58.9332 -37.7943 11.0887 0.7531
45.8727 19.1478 7.8731 0.8177
34.7461 19.7163 6.3275 0.8506
7.1686 8.6410 1.7783 0.9555
4.1949 8.6593 1.5239 0.9618
1.9745 5.7568 0.9639 0.9757
0.7746 8.6803 1.3803 0.9653
-0.2756 8.6867 1.3765 0.9654
-2.4371 8.7000 1.4310 0.9641
-13.7575 24.3349 4.4276 0.8930
-8.2265 8.7257 1.8994 0.9526
-64.3488 53.5573 13.2601 0.7124
-52.1871 17.9924 8.7431 0.7997
-79.2378 -12.0428 12.6941 0.7228
-58.3890 -16.2565 9.5997 0.7823
-57.7445 -42.4271 11.3491 0.7481
-15.4433 -31.6220 5.5738 0.8672
-10.9662 -31.6442 5.3044 0.8732
-1.4928 -16.1494 2.5687 0.9364
-11.9995 8.7588 1.8241 0.9419
-36.4356 -7.9348 4.5786 0.8605
-51.1811 -25.0931 6.9989 0.7948
-80.9462 -52.6355 11.8554 0.6777
-60.6656 -64.7518 10.8947 0.6994
-23.9072 -32.6437 4.9681 0.8495
-13.8670 -33.6677 4.4708 0.8635
-9.3217 -33.6823 4.2911 0.8686
-5.0700 -33.7083 4.1854 0.8716
-2.4076 -84.2202 10.3452 0.7121
21.1314 -43.2745 5.9131 0.8236
25.9495 -40.0460 5.8591 0.8251
35.2059 -42.1671 6.7448 0.8014
57.4400 -42.2077 8.7521 0.7503
58.7123 -33.0730 8.2740 0.7622
36.6713 -15.1724 4.8728 0.8522
65.7737 -1.9849 8.0797 0.7671
65.8227 5.9759 8.1152 0.7662
63.1245 13.5369 7.9269 0.7709
57.0875 19.6787 7.4142 0.7840
41.4059 20.1375 5.6534 0.8306
10.3595 8.6214 1.6548 0.9471
8.1418 8.6350 1.4572 0.9533
4.8935 8.6550 1.2208 0.9607
3.6003 8.6629 1.1519 0.9629
2.4292 8.6701 1.1055 0.9644
1.3333 8.6768 1.0779 0.9652
-0.7750 8.6898 1.0712 0.9655
-9.2419 8.7418 1.5620 0.9500
-81.0866 46.0170 11.4477 0.6868
-82.2184 -52.7217 11.9924 0.6746
-14.1175 -33.6661 4.4824 0.8632
-5.2892 -33.7070 4.1893 0.8715
-2.9436 -84.2169 10.3468 0.7121
21.0513 -43.8149 5.9685 0.8221
56.6861 -42.2115 8.6779 0.7521
63.1500 -18.0186 8.0633 0.7675
65.7219 -10.4199 8.1704 0.7648
63.4262 -2.3180 7.7929 0.7743
63.3473 5.3452 7.8057 0.7740
65.0967 13.5273 8.1636 0.7649
58.1793 19.6420 7.5396 0.7808
14.0967 8.9762 2.0520 0.9349
10.4935 8.6205 1.6675 0.9467
8.2456 8.6344 1.4659 0.9530
6.4592 8.6453 1.3251 0.9574
4.9662 8.6545 1.2252 0.9606
3.6649 8.6625 1.1549 0.9628
-0.7193 8.6895 1.0706 0.9655
-1.7927 8.6960 1.0902 0.9649
-2.9228 8.7030 1.1272 0.9637
-5.5325 8.7190 1.2679 0.9592
-9.1242 8.7411 1.5515 0.9504
-11.6819 8.7568 1.7926 0.9429
-24.3205 -32.3371 4.9681 0.8495
-3.4798 -84.2136 10.3490 0.7120
26.7957 -80.6355 10.4331 0.7100
22.6860 -47.9970 6.5184 0.8074
24.5369 -38.9426 5.6515 0.8307
55.9338 -42.2069 8.6037 0.7540
58.7560 -34.0893 8.3406 0.7605
58.8081 -25.2119 7.8563 0.7727
84.6393 -24.7335 10.8270 0.7009
63.2441 -2.7142 7.7725 0.7748
65.8175 5.1323 8.1059 0.7664
65.8674 13.2510 8.2495 0.7628
59.0830 19.5294 7.6405 0.7782
33.9681 21.3272 4.9247 0.8507
8.3506 8.6337 1.4748 0.9527
2.5483 8.6694 1.1095 0.9642
1.4464 8.6761 1.0800 0.9652
-2.8612 8.7026 1.1248 0.9638
-11.5272 8.7559 1.7774 0.9433
-66.2039 -30.9062 8.9710 0.7449
-10.0160 -33.6780 4.3141 0.8680
-5.7289 -33.7043 4.1977 0.8713
-4.0818 -85.5828 10.5202 0.7080
24.8036 -39.9266 5.7713 0.8274
58.8054 -25.6547 7.8776 0.7722
82.8013 -24.7688 10.6118 0.7059
63.3338 -10.8688 7.8901 0.7718
63.2416 -3.1170 7.7745 0.7748
59.1807 19.1451 7.6372 0.7783
33.9662 21.0261 4.9049 0.8513
34.5068 27.6201 5.4270 0.8368
8.4568 8.6331 1.4839 0.9525
5.1130 8.6536 1.2341 0.9603
3.7952 8.6617 1.1611 0.9626
2.6082 8.6690 1.1116 0.9642
1.5031 8.6758 1.0811 0.9651
0.4418 8.6823 1.0674 0.9656
-0.4136 5.9094 0.7274 0.9764
-1.6775 8.6953 1.0873 0.9649
-4.0155 8.7097 1.1776 0.9621
-5.3776 8.7181 1.2577 0.9596
-54.7704 53.8235 9.4287 0.7338
-24.7298 -32.0252 4.9681 0.8495
-5.9495 -33.7029 4.2022 0.8712
27.9037 -87.6809 11.2979 0.6902
22.1521 -48.4529 6.5415 0.8068
23.9530 -39.1102 5.6312 0.8312
32.3795 -40.8508 6.4004 0.8105
42.7896 -42.3179 7.3893 0.7846
55.3541 -42.8852 8.5977 0.7541
63.2779 -19.3680 8.1253 0.7659
63.3268 -11.2827 7.8980 0.7716
65.7634 -3.6608 8.0872 0.7669
59.0779 18.6977 7.6085 0.7790
33.9644 20.7273 4.8855 0.8518
8.5644 8.6324 1.4931 0.9522
5.1873 8.6531 1.2388 0.9602
3.8609 8.6613 1.1643 0.9625
2.6684 8.6686 1.1137 0.9641
0.4972 8.6820 1.0678 0.9656
-0.3744 5.8866 0.7242 0.9765
-5.3010 8.7176 1.2527 0.9597
-11.2253 8.7540 1.7479 0.9442
-67.9714 -30.6843 9.1568 0.7404
-22.4673 -22.5020 3.9043 0.8797
-19.0590 -31.5649 4.5274 0.8619
-15.1328 -33.6599 4.5314 0.8618
21.9025 -48.7242 6.5592 0.8063
23.8116 -39.4405 5.6568 0.8305
31.9564 -40.8482 6.3680 0.8114
63.2743 -19.8079 8.1409 0.7655
65.7113 -12.1392 8.2048 0.7639
65.7608 -4.0803 8.0899 0.7668
59.0754 18.2844 7.5930 0.7794
8.6734 8.6317 1.5025 0.9519
5.2621 8.6527 1.2435 0.9600
3.9269 8.6609 1.1676 0.9624
2.7287 8.6683 1.1158 0.9640
1.6169 8.6751 1.0835 0.9651
0.5525 8.6816 1.0681 0.9655
-0.3374 5.8973 0.7253 0.9765
-5.2251 8.7171 1.2479 0.9599
-25.1351 -31.7080 4.9681 0.8495
-19.3329 -31.5632 4.5447 0.8614
-15.3901 -33.6583 4.5443 0.8614
-6.3646 -33.5559 4.1936 0.8714
26.7663 -87.9642 11.2896 0.6904
23.7195 -39.8584 5.6950 0.8295
53.1366 -42.2594 8.3361 0.7606
77.7740 -24.8913 10.0267 0.7196
65.7086 -12.5715 8.2143 0.7637
43.9560 19.3406 5.8965 0.8240
33.9607 20.1368 4.8478 0.8529
11.1959 8.6162 1.7346 0.9447
8.7838 8.6310 1.5120 0.9516
6.8888 8.6336 1.3562 0.9565
5.3375 8.6522 1.2482 0.9599
3.9933 8.6605 1.1710 0.9623
-0.4416 8.6878 1.0681 0.9656
-1.5059 8.6943 1.0834 0.9651
-3.8152 8.7085 1.1674 0.9624
-8.5585 8.7376 1.5018 0.9519
-10.9334 8.7522 1.7196 0.9451
-81.4839 -13.9797 10.1511 0.7166
-25.3363 -31.5475 4.9681 0.8495
-19.6091 -31.5616 4.5623 0.8609
-15.6488 -33.6568 4.5574 0.8611
-2.9551 -40.3539 4.9681 0.8495
26.0728 -87.6827 11.2320 0.6917
31.5283 -41.3743 6.3870 0.8109
58.7404 -36.6248 8.4995 0.7566
58.7944 -27.4504 7.9671 0.7699
33.9589 19.8448 4.8294 0.8534
11.3432 8.6153 1.7489 0.9442
8.8955 8.6304 1.5218 0.9513
6.9859 8.6421 1.3644 0.9562
4.0601 8.6601 1.1744 0.9622
1.7312 8.6744 1.0861 0.9650
0.6635 8.6810 1.0690 0.9655
-1.4489 8.6939 1.0822 0.9651
-2.5571 8.7007 1.1135 0.9641
-6.6054 8.7256 1.3437 0.9569
-10.7909 8.7513 1.7059 0.9455
-80.2401 -13.2414 9.9855 0.7205
-59.7902 -17.4690 7.6482 0.7780
-11.1909 -33.6708 4.3566 0.8668
21.4158 -50.1801 6.6990 0.8026
51.7827 -42.2688 8.2074 0.7639
58.7916 -27.9060 7.9906 0.7693
63.1846 -21.1116 8.1797 0.7645
63.1813 -12.9231 7.9183 0.7711
63.2762 2.5110 7.7755 0.7748
59.4385 17.1611 7.5962 0.7793
34.2421 19.7194 4.8517 0.8528
11.4930 8.6144 1.7636 0.9438
5.4900 8.6513 1.2581 0.9595
1.9585 5.8305 0.7552 0.9755
1.7886 8.6740 1.0874 0.9649
0.7190 8.6806 1.0695 0.9655
-1.3921 8.6936 1.0810 0.9651
-8.3421 8.7363 1.4832 0.9525
-59.9360 -17.0986 7.6528 0.7779
-58.2068 -43.3396 8.9104 0.7464
-25.9841 -31.5244 5.0161 0.8482
-7.0598 -33.6961 4.2272 0.8704
23.2351 -40.7962 5.7646 0.8276
51.1104 -42.2648 8.1433 0.7655
72.8057 -24.8419 9.4455 0.7334
65.7505 -5.7617 8.1041 0.7664
9.1234 8.6290 1.5419 0.9507
7.1686 8.6410 1.3786 0.9558
5.5673 8.6508 1.2631 0.9594
4.1949 8.6593 1.1814 0.9620
1.9745 5.7567 0.7473 0.9758
0.7746 8.6803 1.0700 0.9655
-0.2756 8.6867 1.0671 0.9656
-1.3354 8.6932 1.0799 0.9652
-2.4371 8.7000 1.1093 0.9642
-3.6183 8.7073 1.1578 0.9627
-13.7575 24.3349 3.4324 0.8935
-6.4316 8.7246 1.3309 0.9573
-10.5127 8.7496 1.6794 0.9464
-80.4909 27.7505 10.4539 0.7096
-82.2286 -12.4974 10.2123 0.7152
-58.4111 -16.2627 7.4448 0.7832
-80.5459 -33.3205 10.7026 0.7038
-64.9193 -36.5653 9.1485 0.7406
-58.0555 -42.6556 8.8456 0.7480
-26.3208 -31.5223 5.0423 0.8475
-21.7936 -33.6291 4.9204 0.8509
-16.4346 -33.6519 4.5984 0.8599
-11.5763 -33.4047 4.3409 0.8672
-7.2834 -33.6947 4.2327 0.8703
-1.4518 -15.7062 1.9367 0.9384
-15.7059 8.7816 1.5743 0.9303
-60.9690 -65.0756 7.8017 0.6990
-18.6641 -33.2567 3.3365 0.8580
-8.7614 -31.6578 2.8738 0.8764
26.9479 -77.7738 7.2012 0.7186
21.4933 -44.0156 4.2855 0.8215
26.0533 -40.2063 4.1915 0.8250
35.3628 -42.3550 4.8274 0.8013
56.3416 -41.4005 6.1169 0.7552
59.2105 -33.3537 5.9456 0.7612
36.6937 -15.1816 3.4742 0.8526
63.2017 -9.6087 5.5930 0.7736
63.2961 5.7465 5.5605 0.7748
10.3595 8.6214 1.1791 0.9473
8.1418 8.6350 1.0383 0.9535
6.3743 8.6458 0.9398 0.9578
2.4292 8.6701 0.7877 0.9645
1.3333 8.6768 0.7680 0.9654
0.2759 8.6833 0.7601 0.9657
-0.7750 8.6898 0.7633 0.9656
-2.9847 8.7034 0.8050 0.9637
-5.6109 8.7195 0.9072 0.9592
-9.2419 8.7418 1.1130 0.9502
-11.8393 8.7578 1.2884 0.9426
-51.3851 -24.7891 4.9913 0.7953
-24.9447 -33.6098 3.6619 0.8453
-8.9683 -31.6216 2.8756 0.8764
26.7660 -78.8668 7.2865 0.7158
21.2053 -44.1354 4.2839 0.8215
34.7359 -42.1463 4.7783 0.8031
56.1156 -41.7867 6.1211 0.7551
58.7591 -33.5934 5.9216 0.7620
63.1500 -18.0186 5.7454 0.7682
63.2936 5.3406 5.5571 0.7749
63.3417 13.1626 5.6601 0.7712
13.5090 8.6020 1.4011 0.9377
10.4935 8.6205 1.1881 0.9469
6.4592 8.6453 0.9442 0.9576
4.9662 8.6545 0.8730 0.9607
2.4887 8.6697 0.7891 0.9644
0.3312 8.6830 0.7602 0.9657
-2.9228 8.7030 0.8032 0.9638
-4.1510 8.7105 0.8442 0.9620
-5.5325 8.7190 0.9034 0.9594
-7.1477 8.7290 0.9871 0.9557
-11.6819 8.7568 1.2773 0.9431
-15.2423 8.7787 1.5389 0.9318
-18.6581 -32.2771 3.2617 0.8610
-8.2225 -28.3050 2.5787 0.8884
-3.4799 -84.2136 7.3740 0.7129
25.1888 -39.9772 4.1339 0.8272
33.2385 -40.8560 4.6079 0.8094
58.9079 -25.2547 5.6074 0.7731
63.1966 -10.4320 5.6038 0.7732
63.3391 12.7424 5.6525 0.7715
8.3506 8.6337 1.0509 0.9529
3.7299 8.6621 0.8251 0.9628
2.5483 8.6694 0.7906 0.9644
1.4464 8.6761 0.7695 0.9653
0.3865 8.6827 0.7604 0.9657
-5.4547 8.7186 0.8998 0.9595
-9.0042 8.7366 1.0976 0.9509
-11.5272 8.7559 1.2664 0.9435
-20.3713 8.8102 1.9418 0.9147
-25.6108 -33.6058 3.6966 0.8440
-18.6552 -31.8036 3.2258 0.8624
-10.9851 -25.2896 2.4123 0.8952
-4.1570 -24.4562 2.1703 0.9052
-3.7443 -78.5062 6.8762 0.7294
26.4956 -81.4599 7.4943 0.7090
23.2729 -50.0601 4.8298 0.8012
24.8832 -40.0548 4.1255 0.8275
41.8761 -40.8910 5.1207 0.7906
63.2886 4.5303 5.5512 0.7751
59.0805 19.1127 5.4326 0.7793
43.5499 20.1621 4.1986 0.8247
13.8922 8.5996 1.4294 0.9365
8.4568 8.6331 1.0573 0.9526
6.6313 8.6443 0.9532 0.9572
2.6082 8.6690 0.7920 0.9643
1.5031 8.6758 0.7703 0.9653
0.4418 8.6823 0.7606 0.9657
-0.4134 5.9074 0.5181 0.9765
-1.6775 8.6953 0.7748 0.9651
-5.3776 8.7181 0.8962 0.9597
-6.9632 8.7278 0.9768 0.9562
-11.3750 8.7549 1.2558 0.9440
-14.7991 8.7760 1.5053 0.9332
-19.9754 8.7903 1.9094 0.9161
-25.9487 -33.6037 3.7145 0.8433
-18.7871 -31.5666 3.2138 0.8629
-13.9739 -31.6184 3.0244 0.8704
27.6760 -86.9654 7.9845 0.6932
22.9319 -50.1587 4.8252 0.8014
24.3494 -39.7573 4.0788 0.8293
32.5333 -41.0448 4.5822 0.8103
41.5487 -41.0907 5.1125 0.7909
58.8495 -35.1515 5.9972 0.7594
63.1915 -11.2586 5.6156 0.7728
59.5982 3.8854 5.2252 0.7868
63.3340 11.9053 5.6381 0.7720
59.0779 18.6977 5.4213 0.7797
14.0896 8.5984 1.4441 0.9359
8.5644 8.6324 1.0639 0.9523
6.7154 8.6396 0.9573 0.9570
5.1873 8.6531 0.8827 0.9603
2.6684 8.6686 0.7935 0.9642
1.5599 8.6754 0.7712 0.9652
-2.7388 8.7019 0.7981 0.9640
-3.9483 8.7093 0.8366 0.9623
-6.8724 8.7273 0.9719 0.9564
-11.2253 8.7540 1.2454 0.9444
-19.6707 8.8059 1.8855 0.9171
-26.2900 -33.6016 3.7326 0.8426
-14.2043 -31.5947 3.0307 0.8701
-5.7996 -31.6759 2.8174 0.8787
-2.8807 -47.6529 4.1767 0.8256
26.2889 -84.4621 7.7391 0.7010
22.5601 -50.1873 4.8140 0.8018
59.2487 -26.7503 5.6874 0.7703
58.5574 -18.3312 5.3683 0.7816
63.1890 -11.6732 5.6219 0.7726
63.2366 -3.9237 5.5431 0.7754
63.3314 11.4881 5.6312 0.7723
11.0508 8.6171 1.2260 0.9453
33.5994 42.6637 4.7511 0.8041
5.2621 8.6527 0.8860 0.9602
3.9269 8.6609 0.8320 0.9625
2.7287 8.6683 0.7951 0.9642
-1.5629 8.6946 0.7729 0.9652
-6.7825 8.7267 0.9670 0.9566
-11.0782 8.7531 1.2352 0.9449
-19.3354 8.8039 1.8587 0.9182
-26.6345 -33.5995 3.7511 0.8418
-14.4458 -31.5932 3.0393 0.8698
-10.0676 -31.6297 2.9040 0.8752
-6.0078 -31.6747 2.8206 0.8786
22.2602 -50.3740 4.8183 0.8016
41.3132 -41.9108 5.1487 0.7895
53.1593 -42.2774 5.9423 0.7613
59.2459 -27.2038 5.7036 0.7697
58.3551 -18.6763 5.3605 0.7819
63.2341 -4.3273 5.5452 0.7753
63.2812 3.3178 5.5440 0.7754
59.0728 17.8726 5.3996 0.7805
43.9560 19.3407 4.2015 0.8246
14.4971 8.5959 1.4745 0.9346
11.1959 8.6162 1.2360 0.9449
8.7838 8.6310 1.0774 0.9518
6.8888 8.6336 0.9663 0.9566
5.3375 8.6522 0.8894 0.9600
2.7796 8.6377 0.7939 0.9642
1.6740 8.6747 0.7729 0.9651
0.6079 8.6813 0.7614 0.9657
-0.4416 8.6878 0.7611 0.9657
-2.6175 8.7011 0.7949 0.9642
-3.8152 8.7085 0.8318 0.9625
-6.6935 8.7262 0.9622 0.9568
-19.0096 8.8019 1.8328 0.9193
-10.2956 -31.6484 2.9117 0.8749
25.4129 -85.4635 7.8006 0.6991
22.1766 -51.0610 4.8704 0.7997
24.2186 -41.2926 4.1882 0.8251
31.6548 -41.5403 4.5692 0.8108
52.4653 -42.2731 5.8947 0.7630
59.1887 -36.9043 6.1024 0.7557
59.2431 -27.6599 5.7202 0.7691
58.1538 -19.0203 5.3530 0.7822
63.2317 -4.7314 5.5475 0.7752
58.3842 9.8257 5.1798 0.7884
44.3021 19.1575 4.2228 0.8238
33.9589 19.8448 3.4411 0.8539
8.8955 8.6304 1.0843 0.9515
6.9859 8.6421 0.9722 0.9564
1.7312 8.6744 0.7739 0.9651
0.6634 8.6810 0.7617 0.9656
-0.3862 8.6874 0.7608 0.9657
-1.4489 8.6939 0.7711 0.9652
-6.6054 8.7256 0.9575 0.9570
-13.9680 8.7709 1.4430 0.9359
-6.4256 -31.6721 2.8274 0.8783
25.2183 -86.8271 7.9103 0.6956
23.9336 -41.4078 4.1843 0.8253
31.4728 -41.8512 4.5813 0.8104
51.7827 -42.2688 5.8481 0.7646
59.1855 -37.4269 6.1265 0.7549
57.8987 -19.3455 5.3408 0.7826
59.5964 2.3650 5.2181 0.7870
59.0678 17.0541 5.3788 0.7812
45.0756 19.1527 4.2848 0.8215
34.2421 19.7194 3.4570 0.8533
7.0768 8.6415 0.9772 0.9561
5.4901 8.6513 0.8964 0.9597
4.1273 8.6597 0.8393 0.9622
1.9583 5.8301 0.5381 0.9756
0.7190 8.6806 0.7621 0.9656
-2.4970 8.7004 0.7919 0.9643
-3.6835 8.7077 0.8272 0.9627
-13.9632 24.3362 2.4547 0.8935
-6.5181 8.7251 0.9528 0.9572
-13.7709 8.7697 1.4284 0.9365
-81.5056 -12.9185 7.2198 0.7180
-21.4925 -33.6310 3.4918 0.8519
-15.1789 -31.5887 3.0662 0.8687
-10.7417 -31.6457 2.9238 0.8744
24.4948 -86.3824 7.8554 0.6973
31.1649 -41.9948 4.5753 0.8106
40.2004 -42.3689 5.1098 0.7910
57.7246 -19.6962 5.3361 0.7828
63.1787 -13.3416 5.6493 0.7716
63.2267 -5.5406 5.5528 0.7750
63.2737 2.1078 5.5388 0.7755
57.7556 8.9661 5.1135 0.7908
45.8727 19.1478 4.3489 0.8191
34.9205 19.8153 3.5127 0.8511
11.6454 8.6135 1.2672 0.9435
9.1234 8.6290 1.0987 0.9508
7.1686 8.6410 0.9823 0.9559
5.5673 8.6508 0.9000 0.9595
1.8460 8.6737 0.7758 0.9650
0.7746 8.6803 0.7624 0.9656
-2.4371 8.7000 0.7905 0.9644
-13.7575 24.3349 2.4457 0.8938
-10.5126 8.7496 1.1966 0.9466
-13.5776 8.7685 1.4141 0.9372
-21.7936 -33.6291 3.5060 0.8514
-15.4262 -31.5872 3.0755 0.8684
-10.9662 -31.6443 2.9300 0.8742
-6.8456 -31.6695 2.8347 0.8780
-1.4924 -16.1454 1.4186 0.9370
24.1677 -87.3425 7.9286 0.6950
-15.7059 8.7816 0.9430 0.9305
-21.5043 8.8172 1.2180 0.9111
-36.4290 -7.9333 1.9539 0.8613
-60.8316 -64.9289 4.6628 0.7002
-23.0990 -31.5402 2.0488 0.8551
-13.5686 -24.1772 1.4530 0.8949
-8.2689 -29.8782 1.6247 0.8832
-1.7969 -62.8571 3.2955 0.7773
27.8569 -80.3974 4.4592 0.7112
24.5794 -50.3356 2.9357 0.7990
26.3989 -40.7395 2.5441 0.8233
33.3811 -24.5288 2.1709 0.8471
68.1768 -2.0575 3.5746 0.7609
68.1228 6.1847 3.5848 0.7603
57.0877 19.6788 3.1646 0.7852
13.3162 8.5988 0.8307 0.9385
2.4248 8.6544 0.4710 0.9646
1.3317 8.6667 0.4595 0.9655
-0.7743 8.6823 0.4568 0.9657
-1.8471 8.6806 0.4651 0.9651
-2.9830 8.6985 0.4819 0.9638
-4.2194 8.7110 0.5073 0.9620
-5.6109 8.7195 0.5434 0.9593
-7.2414 8.7295 0.5944 0.9556
-9.2419 8.7418 0.6667 0.9503
-21.1149 8.8148 1.1991 0.9124
-51.1910 -24.6955 2.9787 0.7964
-17.4150 -30.5738 1.8440 0.8685
-10.6803 -25.4695 1.4474 0.8953
-9.4669 -33.3796 1.8183 0.8702
-3.8240 -24.3693 1.2928 0.9059
24.2102 -50.3897 2.9298 0.7994
42.9819 -40.9159 3.1100 0.7884
33.3791 -24.8558 2.1811 0.8465
58.7591 -33.5934 3.5472 0.7625
58.8108 -24.7715 3.3444 0.7744
66.7469 -19.0449 3.6377 0.7573
68.2348 -10.8184 3.6207 0.7583
68.1797 -2.4917 3.5755 0.7609
67.1999 13.9643 3.5970 0.7596
42.1537 20.1707 2.4491 0.8293
13.5090 8.6020 0.8393 0.9379
8.2456 8.6344 0.6257 0.9533
4.9662 8.6545 0.5229 0.9608
2.4844 8.6549 0.4719 0.9646
0.3309 8.6773 0.4551 0.9658
-5.5325 8.7190 0.5412 0.9595
-7.1477 8.7290 0.5913 0.9558
-23.7184 -31.5364 2.0680 0.8538
-8.2469 -28.3889 1.5493 0.8883
-3.9633 -24.2491 1.2877 0.9063
28.1093 -84.5887 4.6715 0.6997
24.3440 -51.5049 2.9856 0.7960
26.1261 -41.4649 2.5685 0.8218
33.1831 -40.7880 2.7557 0.8101
42.4869 -40.9629 3.0930 0.7895
58.8557 -34.1470 3.5660 0.7614
68.2378 -11.2642 3.6246 0.7580
68.1285 5.3125 3.5813 0.7605
68.0473 13.6896 3.6377 0.7573
42.8426 20.1665 2.4816 0.8272
13.6987 8.6008 0.8477 0.9373
10.6239 8.6151 0.7168 0.9467
3.7299 8.6621 0.4943 0.9629
2.5442 8.6554 0.4728 0.9645
1.4445 8.6651 0.4604 0.9654
0.3862 8.6769 0.4552 0.9658
-2.8589 8.6955 0.4797 0.9640
-7.0550 8.7284 0.5882 0.9560
-35.0696 1.6168 1.8399 0.8688
-24.0323 -31.5345 2.0779 0.8532
-10.9808 -25.2796 1.4444 0.8955
-8.4016 -28.2495 1.5446 0.8887
27.2536 -83.7904 4.6177 0.7026
25.6227 -41.2452 2.5447 0.8233
32.7521 -40.7854 2.7414 0.8110
41.8947 -40.9092 3.0688 0.7909
66.7107 -19.9556 3.6492 0.7566
68.2407 -11.7109 3.6286 0.7578
68.1854 -3.3606 3.5778 0.7608
26.3464 8.5231 1.4512 0.8950
43.5499 20.1621 2.5151 0.8251
13.8922 8.5996 0.8563 0.9367
14.1410 11.3188 0.9493 0.9300
8.4568 8.6331 0.6333 0.9527
5.1130 8.6536 0.5268 0.9605
2.6043 8.6560 0.4737 0.9644
1.5011 8.6643 0.4608 0.9654
0.4415 8.6764 0.4553 0.9658
-0.4133 5.9055 0.3103 0.9766
-4.0155 8.7097 0.5026 0.9623
-5.3776 8.7181 0.5368 0.9598
-6.9632 8.7278 0.5851 0.9563
-51.3033 50.4163 3.7696 0.7497
-14.7991 8.7760 0.9017 0.9334
-20.0159 8.8080 1.1461 0.9161
-35.0239 1.8379 1.8381 0.8689
-24.3494 -31.5325 2.0879 0.8525
-13.5228 -30.5976 1.7532 0.8746
-8.6148 -28.3065 1.5507 0.8882
-5.8963 -33.4015 1.7776 0.8730
-2.7851 -51.5087 2.7034 0.8133
27.2734 -85.7006 4.7133 0.6975
23.5461 -51.5020 2.9678 0.7971
25.1701 -41.0975 2.5257 0.8245
32.3255 -40.7827 2.7273 0.8118
41.5620 -41.1038 3.0635 0.7913
33.3729 -25.8554 2.2125 0.8444
58.8495 -35.1515 3.5925 0.7599
59.2515 -26.2991 3.3974 0.7713
66.5824 -20.3794 3.6492 0.7566
68.1883 -3.7958 3.5791 0.7607
52.6179 9.8909 2.8059 0.8070
26.9189 8.5196 1.4797 0.8931
43.7789 19.9310 2.5209 0.8248
14.0896 8.5984 0.8650 0.9360
10.9082 8.6180 0.7286 0.9458
6.7154 8.6396 0.5735 0.9571
-0.3742 5.8846 0.3090 0.9767
-8.7804 8.7390 0.6492 0.9516
-11.2253 8.7540 0.7460 0.9446
-28.5916 8.8508 1.5686 0.8870
-9.2964 -29.8628 1.6391 0.8823
-6.1153 -33.4001 1.7795 0.8728
-2.7769 -45.9353 2.4118 0.8317
26.2892 -84.4631 4.6360 0.7016
33.3685 -26.1932 2.2232 0.8437
59.2487 -26.7503 3.4069 0.7708
68.1370 4.0069 3.5771 0.7608
27.5143 8.5159 1.5095 0.8910
43.9219 19.6599 2.5219 0.8247
11.0508 8.6171 0.7344 0.9454
8.6734 8.6317 0.6413 0.9522
33.5994 42.6637 2.8460 0.8045
5.2621 8.6527 0.5307 0.9602
3.9269 8.6609 0.4984 0.9626
2.7252 8.6571 0.4756 0.9643
1.6145 8.6627 0.4618 0.9653
-3.8816 8.7089 0.4997 0.9625
-5.2251 8.7171 0.5326 0.9601
-6.7825 8.7267 0.5792 0.9567
-8.6687 8.7383 0.6451 0.9519
-11.0782 8.7531 0.7399 0.9450
-27.9805 8.8570 1.5381 0.8891
-24.9929 -31.5286 2.1085 0.8512
-19.3329 -31.5632 1.9398 0.8622
24.7034 -41.5117 2.5316 0.8241
31.6651 -41.0104 2.7154 0.8126
41.2092 -41.8053 3.0764 0.7905
59.1122 -36.3364 3.6364 0.7574
68.2497 -13.0577 3.6417 0.7570
68.1399 3.5725 3.5760 0.7609
28.1345 8.5121 1.5405 0.8889
43.9560 19.3407 2.5168 0.8250
14.4970 8.5959 0.8833 0.9347
11.1959 8.6162 0.7404 0.9450
8.7838 8.6310 0.6454 0.9519
2.7796 8.6377 0.4755 0.9643
1.6715 8.6618 0.4623 0.9653
-0.4413 8.6815 0.4556 0.9658
-8.5585 8.7376 0.6410 0.9522
-10.9334 8.7522 0.7340 0.9454
-14.1694 8.7721 0.8734 0.9354
-27.3623 8.8532 1.5072 0.8912
-25.3195 -31.5266 2.1191 0.8505
-10.8560 -33.3711 1.8391 0.8689
-6.5549 -33.3974 1.7837 0.8726
22.2642 -51.2628 2.9290 0.7994
33.3532 -26.8738 2.2448 0.8423
59.1318 -19.3402 3.2605 0.7794
68.2527 -13.5086 3.6464 0.7568
68.1969 -5.1030 3.5840 0.7604
68.1427 3.1381 3.5750 0.7609
28.7802 8.5081 1.5728 0.8867
33.6506 14.5515 1.9214 0.8634
33.9589 19.8448 2.0613 0.8542
8.8955 8.6304 0.6495 0.9516
6.9859 8.6421 0.5824 0.9565
21.6690 65.8974 3.6355 0.7574
1.7285 8.6609 0.4629 0.9652
-1.4469 8.6820 0.4613 0.9654
-13.9680 8.7709 0.8644 0.9361
-59.5540 -17.4000 3.2516 0.7800
-19.8872 -31.5599 1.9550 0.8612
-14.4612 -30.5919 1.7734 0.8732
-11.1429 -33.5267 1.8516 0.8680
-2.9361 -36.8753 1.9387 0.8623
25.0384 -86.2078 4.7047 0.6980
22.1857 -51.9840 2.9621 0.7974
25.2649 -43.7110 2.6459 0.8169
40.5530 -42.2000 3.0673 0.7910
59.1058 -37.3765 3.6650 0.7557
59.2403 -28.1190 3.4366 0.7690
59.1292 -19.7566 3.2672 0.7790
68.2558 -13.9610 3.6512 0.7565
51.9494 8.4032 2.7579 0.8099
7.0768 8.6415 0.5854 0.9562
5.4900 8.6513 0.5370 0.9598
4.1273 8.6597 0.5027 0.9623
1.9582 5.8297 0.3224 0.9757
0.7184 8.6739 0.4561 0.9657
-1.3903 8.6821 0.4608 0.9654
-2.4932 8.6872 0.4737 0.9644
-6.5181 8.7251 0.5708 0.9573
-8.3421 8.7363 0.6331 0.9528
-13.7709 8.7697 0.8556 0.9367
-81.4354 -12.9074 4.3211 0.7187
-59.5822 -16.9976 3.2471 0.7802
-14.6992 -30.5904 1.7787 0.8729
-9.8294 -28.9581 1.6027 0.8847
-5.1185 -24.4305 1.3081 0.9049
-1.3920 -16.1805 0.8511 0.9370
31.1087 -41.9191 2.7357 0.8113
51.1104 -42.2648 3.4758 0.7667
58.9882 -28.4605 3.4326 0.7692
59.1266 -20.1745 3.2741 0.7786
68.2588 -14.4144 3.6562 0.7562
68.2027 -5.9766 3.5880 0.7602
52.1827 8.1009 2.7675 0.8094
30.1573 8.4997 1.6420 0.8821
33.6363 14.0402 1.9102 0.8642
11.6454 8.6135 0.7591 0.9436
7.1686 8.6410 0.5884 0.9560
5.5673 8.6508 0.5391 0.9596
0.7739 8.6733 0.4564 0.9657
-1.3337 8.6822 0.4604 0.9654
-3.6183 8.7073 0.4942 0.9629
-6.4316 8.7246 0.5680 0.9575
-10.5127 8.7496 0.7168 0.9467
-18.0841 8.7962 1.0539 0.9226
-81.0145 -2.4411 4.2477 0.7228
-26.3485 -31.5554 2.1545 0.8482
-20.4516 -31.5583 1.9708 0.8602
-14.9387 -30.5889 1.7841 0.8725
-5.4690 -25.3011 1.3566 0.9015
-1.4923 -16.1443 0.8497 0.9371
-11.9995 8.7588 0.2593 0.9423
-21.5043 8.8172 0.4057 0.9112
-51.0251 -25.0167 0.9919 0.7966
-81.5136 -53.0044 1.6972 0.6777
-60.7274 -64.8177 1.5504 0.7009
-22.8366 -31.1819 0.6746 0.8567
-13.0161 -31.6019 0.5966 0.8722
-8.6374 -31.2096 0.5652 0.8785
-5.0483 -33.5640 0.5924 0.8730
-1.9044 -66.6171 1.1633 0.7660
29.2386 -45.1219 0.9385 0.8065
32.7082 -39.1756 0.8908 0.8153
33.3218 -31.3187 0.7982 0.8328
33.3811 -24.5288 0.7231 0.8473
43.2360 -24.3551 0.8662 0.8199
63.1245 13.5369 1.1269 0.7724
56.8027 19.5806 1.0487 0.7863
41.4059 20.1375 0.8037 0.8318
10.3595 8.6214 0.2353 0.9475
4.8824 8.6353 0.1732 0.9611
3.5833 8.6220 0.1630 0.9633
2.4292 8.6701 0.1572 0.9646
1.3333 8.6768 0.1532 0.9655
0.2759 8.6833 0.1516 0.9658
-1.8460 8.6755 0.1548 0.9651
-2.9776 8.6828 0.1602 0.9639
-4.1998 8.6705 0.1682 0.9622
-7.2414 8.7295 0.1980 0.9556
-9.2419 8.7418 0.2221 0.9504
-21.1149 8.8148 0.3994 0.9125
-39.2199 -8.2803 0.6997 0.8518
-65.7024 -69.2400 1.6661 0.6826
-23.1413 -31.1800 0.6778 0.8561
-8.8510 -31.2083 0.5662 0.8783
-5.2666 -33.5626 0.5930 0.8729
-2.3182 -66.3239 1.1584 0.7668
30.5283 -89.9523 1.6581 0.6838
29.2238 -45.7338 0.9473 0.8048
32.2843 -39.1716 0.8860 0.8162
33.3791 -24.8558 0.7264 0.8466
42.5933 -24.3512 0.8564 0.8218
89.4444 7.5472 1.5668 0.6983
65.0966 13.5273 1.1605 0.7664
42.1537 20.1707 0.8157 0.8295
4.9550 8.6350 0.1738 0.9610
3.6476 8.6216 0.1634 0.9632
-0.7193 8.6895 0.1522 0.9657
-1.7883 8.6751 0.1546 0.9652
-5.5325 8.7190 0.1802 0.9595
-74.2775 -6.0296 1.3008 0.7422
-23.4489 -31.1782 0.6810 0.8555
-10.8011 -25.3051 0.4803 0.8958
-5.1044 -31.2312 0.5524 0.8811
-2.7515 -66.5875 1.1633 0.7660
41.3582 -87.5020 1.6894 0.6790
41.9649 -24.3473 0.8469 0.8236
89.4645 -14.7681 1.5827 0.6958
95.2588 7.4280 1.6678 0.6823
42.8425 20.1665 0.8265 0.8274
14.3052 8.9817 0.2948 0.9347
8.3506 8.6337 0.2097 0.9531
6.5362 8.6333 0.1890 0.9576
5.0280 8.6346 0.1744 0.9608
3.7123 8.6213 0.1638 0.9631
2.5483 8.6694 0.1577 0.9645
1.4464 8.6761 0.1535 0.9654
-0.6637 8.6891 0.1521 0.9657
-1.7308 8.6748 0.1544 0.9652
-4.0640 8.6695 0.1671 0.9624
-11.5272 8.7559 0.2527 0.9437
-14.9818 8.7560 0.3029 0.9329
-20.3457 8.7992 0.3869 0.9151
-74.5072 -5.5717 1.3042 0.7416
-23.7593 -31.1763 0.6842 0.8549
-8.4264 -28.3330 0.5160 0.8885
30.5047 -93.7858 1.7214 0.6740
40.6493 -87.4367 1.6831 0.6799
33.3267 -32.5428 0.8131 0.8300
41.3503 -24.3436 0.8376 0.8253
43.5499 20.1621 0.8377 0.8253
8.4568 8.6331 0.2109 0.9528
2.6082 8.6690 0.1580 0.9644
1.5031 8.6758 0.1537 0.9654
-1.6735 8.6744 0.1542 0.9653
-2.7933 8.6816 0.1592 0.9642
-3.9967 8.6690 0.1666 0.9625
-6.9632 8.7278 0.1949 0.9563
-14.7800 8.7647 0.2999 0.9336
-19.9889 8.7962 0.3812 0.9163
-15.6275 -35.3600 0.6748 0.8567
-8.6126 -28.2993 0.5163 0.8884
-5.5127 -31.2287 0.5535 0.8809
-2.7352 -50.5858 0.8843 0.8165
29.2115 -47.6962 0.9763 0.7995
33.3292 -32.9619 0.8182 0.8290
40.7490 -24.3399 0.8285 0.8271
55.0352 -24.4277 1.0510 0.7859
80.7292 -24.7094 1.4737 0.7134
49.4863 9.3022 0.8789 0.8176
26.9189 8.5196 0.4928 0.8932
14.4303 8.8063 0.2951 0.9346
8.5644 8.6324 0.2123 0.9525
6.7154 8.6396 0.1910 0.9572
5.1757 8.6337 0.1757 0.9605
3.8427 8.6206 0.1647 0.9629
2.6684 8.6686 0.1583 0.9644
1.5599 8.6754 0.1539 0.9654
-0.3742 5.8836 0.1029 0.9767
-1.6162 8.6740 0.1540 0.9653
-6.8724 8.7273 0.1939 0.9565
-8.7804 8.7390 0.2162 0.9516
-28.5916 8.8508 0.5224 0.8872
-58.5916 -18.3389 1.0716 0.7822
-22.4582 -22.4929 0.5548 0.8806
-24.3894 -31.1724 0.6909 0.8536
-15.8224 -35.1938 0.6735 0.8570
-2.3441 -38.7753 0.6781 0.8561
39.3284 -87.4899 1.6743 0.6813
29.4052 -48.7055 0.9931 0.7964
30.6328 -39.1562 0.8678 0.8196
33.3267 -33.3812 0.8233 0.8280
54.0915 -24.4219 1.0359 0.7887
47.7599 8.6635 0.8473 0.8235
27.5143 8.5159 0.5027 0.8912
43.9219 19.6599 0.8398 0.8249
11.0508 8.6171 0.2446 0.9455
8.6734 8.6317 0.2136 0.9522
3.9085 8.6203 0.1652 0.9628
2.7287 8.6683 0.1586 0.9643
1.6169 8.6751 0.1540 0.9653
-3.8634 8.6681 0.1656 0.9627
-11.0782 8.7531 0.2464 0.9451
-19.3061 8.7905 0.3703 0.9186
-58.0710 -17.7714 1.0600 0.7843
-66.3603 -29.4506 1.2673 0.7479
-2.3191 -34.6985 0.6070 0.8701
38.6599 -87.4859 1.6695 0.6821
33.3687 -26.5380 0.7442 0.8432
39.5725 -24.3253 0.8108 0.8304
49.1597 8.5950 0.8711 0.8190
28.1345 8.5121 0.5131 0.8891
3.9746 8.6199 0.1657 0.9627
2.7796 8.6377 0.1584 0.9643
0.6079 8.6813 0.1519 0.9658
-0.4416 8.6878 0.1518 0.9658
-5.1498 8.7167 0.1767 0.9603
-6.6935 8.7262 0.1920 0.9570
-8.5585 8.7376 0.2135 0.9522
-14.1500 8.7602 0.2905 0.9356
-25.0319 -31.1685 0.6978 0.8522
-6.1285 -31.2249 0.5554 0.8805
-2.9647 -40.4857 0.7086 0.8501
25.6592 -43.7489 0.8853 0.8164
33.3214 -34.2360 0.8339 0.8260
33.3666 -26.8846 0.7479 0.8425
38.9944 -24.3130 0.8021 0.8321
52.2839 -24.4108 1.0072 0.7939
75.2930 -24.6260 1.3827 0.7284
95.5449 -18.9103 1.7001 0.6773
49.3209 8.3004 0.8730 0.8187
28.7802 8.5081 0.5238 0.8869
46.4056 20.0671 0.8825 0.8169
11.3432 8.6153 0.2486 0.9446
6.9859 8.6421 0.1940 0.9565
5.4014 8.6325 0.1777 0.9601
21.3409 64.8994 1.1925 0.7609
1.7312 8.6744 0.1544 0.9652
0.6634 8.6810 0.1520 0.9658
-0.3862 8.6874 0.1518 0.9658
-1.4461 8.6772 0.1535 0.9654
-2.5510 8.6800 0.1579 0.9645
-6.6054 8.7256 0.1910 0.9572
-10.7909 8.7513 0.2425 0.9459
-13.9487 8.7587 0.2875 0.9362
-18.6771 8.7926 0.3603 0.9207
-26.7684 8.8495 0.4921 0.8933
-58.1074 -16.9773 1.0567 0.7849
-25.3580 -31.1665 0.7013 0.8515
-16.7120 -35.3534 0.6826 0.8552
-10.3693 -31.1990 0.5739 0.8768
37.3338 -87.4780 1.6602 0.6835
31.6941 -42.1454 0.9204 0.8098
38.4467 -24.3124 0.7940 0.8336
51.4167 -24.4054 0.9934 0.7964
95.9133 -19.6181 1.7088 0.6759
49.4959 8.0064 0.8752 0.8182
29.4536 8.5038 0.5351 0.8846
34.2422 19.7194 0.6897 0.8538
7.0768 8.6415 0.1950 0.9563
-0.3309 8.6871 0.1517 0.9658
-2.4910 8.6796 0.1576 0.9645
-3.6662 8.6667 0.1643 0.9631
-13.9632 24.3361 0.4897 0.8938
-6.5181 8.7251 0.1901 0.9574
-8.3421 8.7363 0.2108 0.9528
-10.6507 8.7505 0.2406 0.9463
-18.3684 8.7904 0.3554 0.9218
-26.1845 8.8416 0.4824 0.8953
-81.3860 -12.8996 1.4383 0.7192
-58.1254 -16.5820 1.0551 0.7852
-21.3997 -33.4859 0.6937 0.8530
-10.5896 -31.1976 0.5751 0.8765
-5.1185 -24.4305 0.4357 0.9050
-1.3920 -16.1803 0.2835 0.9371
35.0876 -83.6855 1.5839 0.6956
29.1896 -51.2511 1.0295 0.7898
31.2748 -42.1429 0.9160 0.8106
33.3160 -35.1132 0.8449 0.8240
33.3623 -27.5883 0.7557 0.8410
37.9177 -24.3169 0.7863 0.8351
50.5727 -24.4002 0.9801 0.7988
89.2333 -18.8436 1.5919 0.6943
30.1573 8.4997 0.5469 0.8822
34.7461 19.7163 0.6973 0.8523
5.5549 8.6316 0.1792 0.9598
4.1753 8.6189 0.1672 0.9624
1.9744 5.7565 0.1062 0.9759
0.7746 8.6803 0.1521 0.9657
-0.2756 8.6867 0.1517 0.9658
-2.4313 8.6793 0.1573 0.9646
-13.7575 24.3349 0.4879 0.8942
-8.2359 8.7357 0.2096 0.9531
-18.0678 8.7882 0.3507 0.9228
-25.6069 8.8284 0.4728 0.8973
-81.2525 7.3805 1.4241 0.7215
-81.0037 -2.4407 1.4146 0.7231
-21.6996 -33.4841 0.6965 0.8525
-11.9995 8.7588 -0.2593 0.9423
-50.9974 14.0265 -0.9232 0.8093
-54.3237 8.0824 -0.9587 0.8027
-50.9901 -24.9995 -0.9912 0.7968
-61.7297 -40.1398 -1.2852 0.7448
-15.2845 -20.8700 -0.4515 0.9017
-8.0171 -19.4649 -0.3675 0.9192
-3.2143 -21.3709 -0.3772 0.9172
23.7079 -36.5867 -0.7610 0.8400
43.2360 -24.3551 -0.8662 0.8199
36.6787 -15.1754 -0.6927 0.8532
96.5305 8.7637 -1.6919 0.6786
56.8027 19.5806 -1.0487 0.7863
4.8690 8.6116 -0.1727 0.9612
3.5651 8.5783 -0.1621 0.9635
0.2759 8.6833 -0.1516 0.9658
-1.8424 8.6586 -0.1545 0.9652
-2.9703 8.6614 -0.1598 0.9640
-4.1779 8.6252 -0.1673 0.9624
-5.6109 8.7195 -0.1810 0.9594
-9.2419 8.7418 -0.2221 0.9504
-11.8393 8.7578 -0.2570 0.9428
-21.1149 8.8148 -0.3994 0.9125
-50.9946 14.3752 -0.9248 0.8090
-88.1614 2.9413 -1.5397 0.7027
-74.1607 -25.3004 -1.3677 0.7309
-51.0126 -24.6094 -0.9886 0.7972
-65.7672 -69.3083 -1.6677 0.6823
-15.6902 -21.1406 -0.4595 0.9000
-5.6436 -19.8991 -0.3610 0.9206
-3.3187 -21.1498 -0.3737 0.9179
-0.7891 -22.5740 -0.3943 0.9136
38.5542 -80.2445 -1.5539 0.7004
29.2235 -45.7333 -0.9473 0.8048
32.1066 -38.9560 -0.8812 0.8171
33.3791 -24.8558 -0.7264 0.8466
42.5933 -24.3512 -0.8564 0.8218
87.4451 -24.9508 -1.5873 0.6950
57.9759 19.5733 -1.0681 0.7829
14.2428 9.0693 -0.2947 0.9347
10.4935 8.6205 -0.2370 0.9471
6.4471 8.6292 -0.1880 0.9578
4.9417 8.6119 -0.1733 0.9611
3.6291 8.5778 -0.1626 0.9634
-4.1102 8.6248 -0.1668 0.9625
-5.5325 8.7190 -0.1802 0.9595
-7.1477 8.7290 -0.1969 0.9559
-11.6819 8.7568 -0.2548 0.9433
-15.1210 8.7088 -0.3046 0.9326
-28.2380 8.1544 -0.5130 0.8891
-54.3192 8.7893 -0.9605 0.8024
-74.1149 -24.7597 -1.3640 0.7315
-15.8256 -21.0421 -0.4596 0.9000
-10.7969 -25.2952 -0.4801 0.8958
-3.4311 -20.9933 -0.3713 0.9184
-0.9290 -22.4804 -0.3927 0.9139
30.4284 -91.5672 -1.6842 0.6798
31.6895 -38.9521 -0.8765 0.8180
33.3343 -32.1386 -0.8082 0.8309
33.3770 -25.1858 -0.7298 0.8460
48.6192 -20.8438 -0.9233 0.8093
89.4493 -14.7656 -1.5822 0.6958
48.8076 9.8190 -0.8690 0.8194
25.7344 8.5063 -0.4731 0.8972
39.5914 18.6361 -0.7638 0.8394
14.3052 8.9817 -0.2948 0.9347
10.6239 8.6151 -0.2387 0.9468
6.5362 8.6333 -0.1890 0.9576
3.6934 8.5774 -0.1630 0.9633
2.5483 8.6694 -0.1577 0.9645
-1.7287 8.6640 -0.1542 0.9653
-2.8475 8.6607 -0.1591 0.9642
-14.9178 8.7186 -0.3016 0.9332
-20.1027 8.6941 -0.3823 0.9161
-54.3169 9.1437 -0.9614 0.8022
-75.8428 -5.6715 -1.3275 0.7377
-48.2389 -9.5451 -0.8583 0.8214
-8.4513 -28.4168 -0.5175 0.8882
-5.7044 -33.5600 -0.5942 0.8727
25.2228 -54.2544 -1.0443 0.7871
29.2158 -47.0290 -0.9664 0.8013
31.2769 -38.9482 -0.8719 0.8189
33.3750 -25.5190 -0.7333 0.8453
41.3503 -24.3436 -0.8376 0.8253
88.7395 -15.2288 -1.5716 0.6975
29.5697 5.7533 -0.5258 0.8865
25.9606 8.3983 -0.4763 0.8966
13.8382 11.0764 -0.3094 0.9315
6.6262 8.6376 -0.1900 0.9574
5.0878 8.6109 -0.1746 0.9608
3.7580 8.5769 -0.1635 0.9632
0.4418 8.6823 -0.1517 0.9658
-1.6720 8.6666 -0.1541 0.9653
-2.7864 8.6603 -0.1588 0.9643
-3.9760 8.6241 -0.1658 0.9627
-5.3776 8.7181 -0.1788 0.9598
-18.0144 17.7029 -0.4409 0.9039
-11.3750 8.7549 -0.2505 0.9442
-14.7120 8.7243 -0.2986 0.9339
-19.7713 8.7004 -0.3770 0.9172
-29.0292 8.7844 -0.5294 0.8857
-54.3146 9.4989 -0.9624 0.8020
-88.1508 4.6258 -1.5408 0.7025
-47.9754 -9.1763 -0.8526 0.8225
-16.6348 -21.5421 -0.4751 0.8968
-11.8270 -19.8721 -0.4037 0.9116
-5.9240 -33.5586 -0.5948 0.8726
29.5603 -92.8864 -1.7015 0.6771
24.7876 -54.2175 -1.0406 0.7878
28.5943 -46.6883 -0.9556 0.8033
30.8685 -38.9444 -0.8674 0.8197
33.3729 -25.8554 -0.7369 0.8446
55.0352 -24.4277 -1.0510 0.7859
81.6626 -24.9951 -1.4907 0.7106
14.4303 8.8063 -0.2951 0.9346
10.9082 8.6180 -0.2427 0.9459
8.5644 8.6324 -0.2123 0.9525
5.1617 8.6104 -0.1752 0.9606
3.8230 8.5765 -0.1639 0.9631
0.4972 8.6820 -0.1518 0.9658
-0.3741 5.8826 -0.1029 0.9767
-1.6154 8.6693 -0.1539 0.9653
-2.7257 8.6600 -0.1585 0.9643
-3.9096 8.6238 -0.1653 0.9628
-5.3010 8.7176 -0.1781 0.9600
-6.8724 8.7273 -0.1939 0.9565
-55.5370 10.0772 -0.9852 0.7979
-62.5541 3.6818 -1.0938 0.7783
-47.9572 -8.8571 -0.8512 0.8228
-65.1514 -29.4113 -1.2477 0.7513
-62.9292 -49.3927 -1.3964 0.7261
-12.1568 -20.1337 -0.4105 0.9102
-8.7826 -19.5351 -0.3739 0.9179
-6.1483 -19.7501 -0.3611 0.9206
-1.3403 -22.1708 -0.3877 0.9150
29.1124 -93.5334 -1.7099 0.6758
33.3267 -33.3812 -0.8233 0.8280
40.1604 -24.3362 -0.8197 0.8287
54.0915 -24.4219 -1.0359 0.7887
27.2456 8.4328 -0.4978 0.8922
40.9602 18.3342 -0.7833 0.8357
14.4929 8.7185 -0.2952 0.9346
11.0508 8.6171 -0.2446 0.9455
8.6734 8.6317 -0.2136 0.9522
5.2361 8.6099 -0.1759 0.9605
2.7287 8.6683 -0.1586 0.9643
1.6169 8.6751 -0.1540 0.9653
-0.3371 5.8926 -0.1030 0.9767
-1.5589 8.6719 -0.1538 0.9654
-3.8435 8.6234 -0.1648 0.9629
-8.6687 8.7383 -0.2148 0.9520
-11.0782 8.7531 -0.2464 0.9451
-19.1719 8.7295 -0.3677 0.9192
-55.5766 3.6258 -0.9721 0.8003
-88.2107 -4.9060 -1.5421 0.7023
-58.4801 -17.8966 -1.0675 0.7830
-17.5995 -22.2019 -0.4945 0.8928
-12.2420 -19.9865 -0.4091 0.9105
-6.3646 -33.5559 -0.5962 0.8723
-2.7153 -40.6260 -0.7107 0.8497
29.0995 -95.6319 -1.7448 0.6704
29.9976 -38.8508 -0.8567 0.8217
33.3241 -33.8061 -0.8286 0.8270
39.5846 -24.3327 -0.8110 0.8304
76.9685 -24.6335 -1.4106 0.7238
70.1566 3.6783 -1.2263 0.7550
50.9403 8.9063 -0.9026 0.8131
27.9232 8.4482 -0.5092 0.8898
33.9607 20.1368 -0.6892 0.8539
5.3111 8.6094 -0.1766 0.9603
3.9541 8.5755 -0.1648 0.9629
1.6740 8.6747 -0.1542 0.9653
-1.5024 8.6746 -0.1537 0.9654
-2.6049 8.6593 -0.1578 0.9645
-10.9334 8.7522 -0.2445 0.9455
-14.0869 8.7211 -0.2892 0.9359
-18.8834 8.7434 -0.3632 0.9201
-25.2339 8.1646 -0.4629 0.8993
-74.0768 -12.7089 -1.3119 0.7403
-12.5213 -20.1535 -0.4141 0.9094
-9.1098 -19.5930 -0.3772 0.9172
-6.3783 -19.6067 -0.3599 0.9208
-4.0485 -20.6272 -0.3669 0.9193
37.9962 -87.4851 -1.6649 0.6828
29.1986 -49.7835 -1.0074 0.7938
29.6025 -38.8471 -0.8525 0.8225
52.2839 -24.4108 -1.0072 0.7939
76.5928 -25.0511 -1.4066 0.7244
96.3468 -19.0690 -1.7144 0.6751
50.9382 8.5726 -0.9016 0.8133
42.2278 18.2605 -0.8030 0.8319
8.8955 8.6304 -0.2163 0.9516
6.9859 8.6421 -0.1940 0.9565
