ply
format ascii 1.0
element vertex 1572
property float32 x
property float32 y
property float32 z
property float32 I
end_header
15.3874 64.9359 10.5696 0.7632
-0.0729 8.6855 1.3757 0.9654
-3.3767 8.7058 1.4789 0.9629
-6.1103 8.7226 1.6868 0.9578
-7.8408 8.7332 1.8589 0.9536
-23.2383 2.7075 3.7055 0.9096
-81.5984 -10.2602 13.0257 0.7167
-81.9478 -31.4224 13.9007 0.7009
-58.1891 -40.4293 11.2224 0.7505
-24.2318 -21.5877 5.1401 0.8768
-7.7526 -31.6290 5.1578 0.8764
20.1143 -53.0675 8.9886 0.7947
21.7702 -41.5286 7.4265 0.8270
27.6883 -40.1806 7.7287 0.8207
61.0135 -42.2654 11.7557 0.7404
57.9212 -30.5448 10.3713 0.7671
58.2933 14.1367 9.5004 0.7843
52.9348 19.8311 8.9531 0.7954
37.9278 19.6967 6.7689 0.8411
33.1195 22.6349 6.3536 0.8500
6.0331 8.6380 1.6688 0.9582
4.6078 8.6567 1.5532 0.9611
3.3467 8.6645 1.4711 0.9631
1.1128 8.6782 1.3857 0.9652
-0.9910 8.6911 1.3855 0.9652
-4.4821 8.7126 1.5518 0.9611
-59.2860 53.4913 12.6471 0.7237
-80.6888 43.3490 14.5074 0.6901
-81.5559 10.7774 13.0295 0.7167
-65.6811 -33.4701 11.6757 0.7419
-12.4863 -31.6000 5.3815 0.8714
20.8255 -41.2597 7.3201 0.8293
26.4950 -39.7456 7.5656 0.8241
58.3627 -31.9361 10.5372 0.7638
61.8526 13.9947 10.0441 0.7735
54.8545 19.5925 9.2257 0.7899
40.3700 20.1817 7.1485 0.8329
33.6564 28.6170 6.9971 0.8362
7.9747 8.6360 1.8618 0.9535
3.5006 8.6635 1.4800 0.9629
2.3389 8.6707 1.4224 0.9643
1.2488 8.6774 1.3885 0.9651
0.1946 8.6838 1.3757 0.9654
-0.8555 8.6903 1.3831 0.9653
-4.3132 8.7115 1.5396 0.9614
-7.3654 8.7303 1.8091 0.9548
-80.8806 45.0706 14.6649 0.6873
-67.2082 -32.9541 11.8555 0.7385
-61.4482 -65.5236 14.2275 0.6950
-24.6499 -33.6116 6.6017 0.8447
-17.7733 -31.6077 5.7434 0.8634
-8.8015 -31.6575 5.2042 0.8754
-4.8001 -31.6234 5.0660 0.8785
-2.5136 -83.4725 13.2267 0.7130
25.5716 -39.6707 7.4755 0.8260
35.0215 -42.1661 8.6816 0.8009
46.4181 -43.8680 10.1156 0.7721
58.0898 -42.9467 11.4420 0.7463
58.8526 -24.5749 10.1014 0.7724
66.2469 13.9202 10.7216 0.7602
57.5929 19.5756 9.6343 0.7817
41.9536 20.1719 7.3730 0.8282
33.6509 27.7310 6.9064 0.8381
6.4433 8.6454 1.7078 0.9573
0.3284 8.6830 1.3762 0.9654
-1.2148 5.8939 0.9531 0.9759
-7.1370 8.7289 1.7858 0.9554
-56.7499 54.4659 12.4582 0.7272
-80.2157 46.3335 14.6720 0.6872
-59.5847 -12.0420 9.6281 0.7818
-81.7388 -51.3619 15.2899 0.6764
-25.4515 -33.6067 6.6770 0.8431
-18.4173 -31.6038 5.7935 0.8623
-13.6229 -31.5931 5.4492 0.8699
-9.3282 -31.6543 5.2267 0.8749
-5.2990 -31.6203 5.0780 0.8782
-3.7959 -83.3546 13.2158 0.7132
29.6469 -90.6468 15.1054 0.6796
33.9326 -42.1594 8.5716 0.8032
44.9154 -43.7770 9.9339 0.7757
57.9994 -34.0993 10.6562 0.7615
57.9877 -25.2696 10.0185 0.7740
3.8142 8.6616 1.4990 0.9624
-0.5858 8.6886 1.3793 0.9653
-1.6530 8.6952 1.4018 0.9648
-3.9831 8.7095 1.5169 0.9620
-6.9144 8.7275 1.7635 0.9559
-55.9044 55.3333 12.4582 0.7272
-81.5440 48.7907 15.0506 0.6806
-79.9821 24.5775 13.2525 0.7126
-79.7802 4.5572 12.6566 0.7235
-64.7449 -64.9113 14.5208 0.6898
-14.2203 -31.6295 5.4926 0.8690
24.4782 -40.6730 7.5186 0.8251
58.2607 -45.9140 11.7487 0.7405
57.9242 -35.2669 10.7410 0.7598
58.3935 -26.5237 10.1580 0.7713
75.5663 13.4629 12.1570 0.7328
-23.8416 -32.6927 4.9682 0.8495
-9.2673 -33.6826 4.2894 0.8687
3.6158 -38.7219 4.7751 0.8549
27.4519 -79.0667 10.2767 0.7137
22.7696 -46.5750 6.3655 0.8115
25.9827 -40.0723 5.8640 0.8249
35.2139 -42.1672 6.7454 0.8014
45.0217 -42.3205 7.5869 0.7796
58.0912 -42.7073 8.8528 0.7478
59.3059 -24.5777 7.8824 0.7720
64.9169 -2.0309 7.9747 0.7697
62.5740 5.6002 7.7138 0.7763
63.5740 13.5366 7.9809 0.7696
41.6709 20.1737 5.6846 0.8298
10.4046 8.6211 1.6591 0.9470
8.1795 8.6348 1.4604 0.9532
6.4075 8.6457 1.3213 0.9576
4.9240 8.6548 1.2226 0.9607
3.6292 8.6627 1.1532 0.9629
1.3616 8.6767 1.0784 0.9652
0.3051 8.6832 1.0668 0.9656
-0.7440 8.6896 1.0709 0.9655
-1.2309 5.8920 0.7391 0.9760
-5.5586 8.7192 1.2696 0.9592
-7.1763 8.7291 1.3875 0.9555
-67.9073 -32.2320 9.2295 0.7386
-62.8548 -65.3377 11.1320 0.6939
-13.5229 -31.5938 4.2196 0.8707
-9.7847 -33.5350 4.2893 0.8687
-5.6125 -34.0501 4.2372 0.8702
-3.6087 -84.2128 10.3495 0.7120
25.9919 -78.7559 10.1830 0.7159
20.3209 -43.2416 5.8664 0.8249
25.1159 -40.0743 5.8070 0.8265
64.8620 -10.9479 8.0767 0.7671
62.3863 -2.9142 7.6684 0.7775
62.4798 12.3009 7.8188 0.7737
58.3232 18.9998 7.5316 0.7810
42.9138 19.9654 5.8115 0.8263
33.1069 20.5721 4.7859 0.8546
0.4391 8.6823 1.0674 0.9656
-0.6093 8.6888 1.0695 0.9655
-1.6772 8.6953 1.0873 0.9649
-5.3708 8.7180 1.2573 0.9596
-24.8371 -31.9430 4.9682 0.8495
-19.5163 -32.5311 4.6580 0.8582
-6.0897 -33.7020 4.2051 0.8711
-4.9887 -85.5772 10.5254 0.7079
25.2921 -80.7957 10.3952 0.7109
23.6075 -38.9893 5.5964 0.8322
22.9965 -29.3281 4.5761 0.8605
54.4055 -42.6400 8.4873 0.7569
64.8557 -11.9769 8.0979 0.7666
62.5646 3.6614 7.6951 0.7768
43.0989 19.2498 5.7957 0.8268
33.1025 19.8693 4.7404 0.8559
6.8278 8.6431 1.3524 0.9566
5.2819 8.6526 1.2447 0.9600
3.9462 8.6608 1.1686 0.9624
2.7480 8.6681 1.1165 0.9640
1.6366 8.6750 1.0839 0.9650
-0.4749 8.6880 1.0683 0.9655
-1.5385 8.6945 1.0841 0.9650
-2.6504 8.7013 1.1169 0.9640
-3.8495 8.7087 1.1691 0.9624
-5.1867 8.7169 1.2454 0.9599
-6.7346 8.7264 1.3534 0.9565
-19.6019 -31.5616 4.5619 0.8609
-9.1848 -28.2161 3.6434 0.8873
21.1496 -48.8605 6.5372 0.8069
22.9458 -39.2485 5.5823 0.8326
30.9695 -40.7744 6.2868 0.8136
41.0799 -42.3556 7.2449 0.7884
52.2894 -42.2975 8.2579 0.7626
57.8363 -36.2296 8.3796 0.7595
58.7118 17.1453 7.5100 0.7815
34.0320 19.7207 4.8295 0.8534
11.4333 8.6148 1.7577 0.9439
8.9667 8.6299 1.5281 0.9511
7.0456 8.6417 1.3690 0.9561
5.4659 8.6514 1.2565 0.9596
4.1079 8.6598 1.1769 0.9621
2.8953 8.6672 1.1220 0.9638
1.1718 5.7257 0.7176 0.9767
-0.3407 8.6871 1.0675 0.9656
-1.4006 8.6936 1.0812 0.9651
-8.3436 8.7363 1.4833 0.9525
-60.6389 -17.2023 7.7393 0.7757
-58.6996 -43.5243 8.9725 0.7449
-26.1080 -31.5236 5.0257 0.8479
-20.2794 -31.5574 4.6059 0.8597
-16.2825 -33.6529 4.5903 0.8601
-7.1360 -33.5512 4.2117 0.8709
-3.5978 -40.3025 4.9682 0.8495
24.8457 -88.8843 11.3320 0.6894
20.8798 -50.3503 6.6927 0.8028
22.3974 -39.7014 5.5969 0.8322
30.5637 -41.5535 6.3336 0.8123
39.8252 -42.3479 7.1378 0.7911
57.9325 -28.3058 7.9169 0.7712
64.8429 -14.0526 8.1465 0.7654
62.5502 1.7301 7.6831 0.7771
60.3223 9.0050 7.4887 0.7821
58.7058 16.1664 7.4765 0.7824
3.0442 8.6663 1.1278 0.9637
1.2725 5.7644 0.7248 0.9765
0.8423 8.6799 1.0708 0.9655
-0.2068 8.6863 1.0668 0.9656
-2.3597 8.6995 1.1068 0.9643
-4.8283 8.7147 1.2233 0.9606
-6.3137 8.7238 1.3222 0.9575
-8.0885 8.7347 1.4617 0.9532
-10.3182 8.7484 1.6610 0.9469
-81.7278 29.0621 10.6505 0.7050
-82.5660 -33.1268 10.9233 0.6987
-64.8258 -35.5903 9.0803 0.7423
-59.2099 -42.5053 8.9494 0.7455
-22.3321 -33.6024 4.9539 0.8499
-12.1175 -33.6651 4.3932 0.8657
22.3487 -41.0810 5.7422 0.8282
29.5826 -41.5453 6.2622 0.8142
62.3685 -14.5255 7.8628 0.7725
64.8860 -7.0537 8.0139 0.7687
64.9343 0.7955 7.9735 0.7697
51.2730 20.1145 6.7626 0.8009
12.1910 8.6101 1.8325 0.9416
7.4979 8.6390 1.4045 0.9549
4.4386 8.6577 1.1946 0.9615
15.3874 64.9359 8.1939 0.7642
-0.0729 8.6855 1.0665 0.9656
-1.1269 8.6920 1.0762 0.9653
-2.2162 8.6986 1.1022 0.9645
-3.3767 8.7058 1.1465 0.9631
-4.6538 8.7136 1.2129 0.9610
-6.1103 8.7226 1.3076 0.9580
-7.8408 8.7332 1.4411 0.9538
-9.9995 8.7465 1.6312 0.9479
-12.8360 8.7463 1.9072 0.9393
-61.1571 -15.3307 7.7415 0.7756
-65.8784 -34.8587 9.1514 0.7405
-17.5775 -33.6449 4.6609 0.8581
-8.2575 -33.6888 4.2589 0.8695
27.1819 -39.4457 5.8819 0.8244
37.2870 -42.1800 6.9125 0.7970
61.0135 -42.2654 9.1134 0.7415
57.9212 -30.5448 8.0401 0.7681
62.4549 -23.8479 8.2085 0.7638
64.8300 -16.1554 8.2036 0.7639
62.3565 -7.7522 7.7154 0.7763
64.9281 -0.2047 7.9722 0.7698
58.2933 14.1367 7.3650 0.7853
37.9278 19.6967 5.2475 0.8418
7.7331 8.6375 1.4235 0.9544
4.6078 8.6567 1.2041 0.9612
2.1957 8.6689 1.0980 0.9646
0.0608 8.6846 1.0664 0.9656
-5.9102 8.7197 1.2934 0.9584
-7.5999 8.7317 1.4213 0.9544
-9.6695 8.7244 1.5991 0.9489
-65.4934 -33.3743 9.0255 0.7436
-23.4238 -32.9934 4.9682 0.8495
-12.4863 -31.6001 4.1719 0.8720
27.9241 -77.2406 10.0847 0.7182
21.2812 -42.1626 5.7990 0.8267
36.1391 -42.1728 6.8193 0.7995
46.1914 -42.3263 7.6926 0.7769
64.8235 -17.2182 8.2353 0.7632
64.8735 -9.0819 8.0431 0.7680
62.4507 -1.1587 7.6693 0.7775
64.9702 6.6487 8.0190 0.7686
55.1297 19.6908 7.1879 0.7898
6.2395 8.6467 1.3092 0.9579
2.3389 8.6707 1.1027 0.9645
0.1946 8.6838 1.0665 0.9656
-3.0710 8.7039 1.1333 0.9635
-5.7046 8.7019 1.2776 0.9589
-7.3654 8.7303 1.4025 0.9550
-9.3949 8.7428 1.5758 0.9496
-67.0175 -32.8607 9.1647 0.7402
-81.3321 -52.8706 11.9109 0.6764
-18.9142 -33.6367 4.7382 0.8560
-2.5598 -85.0049 10.4420 0.7098
27.0604 -78.6186 10.2090 0.7153
22.7182 -46.7875 6.3862 0.8109
58.0898 -42.9467 8.8701 0.7474
57.9070 -32.8558 8.1748 0.7647
62.6047 -2.1264 7.6913 0.7769
62.4912 5.4241 7.7018 0.7766
64.3973 13.5316 8.0797 0.7671
41.9536 20.1719 5.7158 0.8289
33.1105 21.1628 4.8249 0.8535
8.2233 8.6345 1.4641 0.9531
6.4433 8.6454 1.3239 0.9575
4.9546 8.6546 1.2245 0.9606
2.4825 8.6698 1.1073 0.9643
1.3854 8.6765 1.0788 0.9652
0.3284 8.6830 1.0669 0.9656
-1.2146 5.8929 0.7388 0.9760
-7.1370 8.7289 1.3844 0.9556
-11.6555 8.7567 1.7900 0.9429
-67.8490 -31.9816 9.2099 0.7391
-82.1517 -51.6214 11.9131 0.6764
-19.5153 -33.4880 4.7591 0.8554
-5.6484 -33.7047 4.1961 0.8713
57.8997 -34.0408 8.2468 0.7629
57.9513 -25.2537 7.7618 0.7751
64.8102 -19.3702 8.3055 0.7614
62.3852 -3.0816 7.6693 0.7775
64.9578 4.6313 7.9961 0.7692
62.4788 12.1267 7.8146 0.7738
58.2219 18.7944 7.5120 0.7815
33.1061 20.4489 4.7778 0.8549
8.4792 8.6329 1.4858 0.9524
6.6519 8.6441 1.3392 0.9570
1.5227 8.6757 1.0815 0.9651
-1.6530 8.6952 1.0868 0.9650
-2.7721 8.7021 1.1214 0.9639
-3.9831 8.7095 1.1759 0.9621
-8.8295 8.7393 1.5254 0.9512
-11.2862 8.7544 1.7538 0.9441
-24.9226 -31.8763 4.9682 0.8495
-6.1829 -33.7015 4.2071 0.8710
-5.2187 -85.5758 10.5269 0.7079
27.2598 -87.9074 11.3007 0.6901
21.7710 -48.5912 6.5377 0.8069
23.5876 -39.1931 5.6166 0.8316
57.9447 -26.3199 7.8143 0.7738
62.3368 -19.6819 8.0264 0.7684
62.5817 -4.0584 7.7002 0.7767
58.2159 17.8071 7.4749 0.7824
-18.7961 -33.6375 3.3712 0.8567
-12.9523 -31.5973 2.9876 0.8719
-8.7103 -31.6581 2.8726 0.8765
26.8327 -77.2830 7.1573 0.7200
21.2797 -43.5275 4.2389 0.8232
25.7612 -39.7306 4.1427 0.8269
35.1989 -42.1492 4.8043 0.8021
44.9221 -42.2268 5.3939 0.7807
55.7613 -40.9944 6.0550 0.7574
62.2972 -17.3986 5.6589 0.7713
62.4860 13.3050 5.5894 0.7737
57.0989 19.5787 5.2810 0.7848
41.6709 20.1737 4.0505 0.8304
10.4046 8.6211 1.1822 0.9472
2.4574 8.6699 0.7884 0.9645
0.3051 8.6832 0.7601 0.9657
-0.7440 8.6896 0.7630 0.9656
-2.9468 8.7031 0.8039 0.9638
-4.1757 8.7107 0.8451 0.9620
-5.5586 8.7192 0.9047 0.9593
-7.1763 8.7291 0.9887 0.9556
-9.1569 8.7413 1.1076 0.9504
-11.7213 8.7571 1.2801 0.9429
-52.2233 -24.7877 5.0574 0.7929
-25.3107 -33.6076 3.6809 0.8446
-19.3958 -33.4888 3.3858 0.8561
-13.5229 -31.5938 3.0067 0.8711
-9.2361 -31.6549 2.8849 0.8760
-3.6087 -84.2128 7.3744 0.7129
27.3012 -82.7230 7.6213 0.7048
55.1902 -41.8991 6.0623 0.7571
62.2908 -18.4356 5.6834 0.7704
62.3863 -2.9142 5.4640 0.7782
62.4326 4.6195 5.4771 0.7777
58.2230 18.9672 5.3573 0.7820
5.1014 8.6537 0.8789 0.9605
1.4987 8.6758 0.7703 0.9653
-0.6093 8.6888 0.7620 0.9656
-1.6772 8.6953 0.7748 0.9651
-2.7979 8.7022 0.7997 0.9640
-5.3708 8.7180 0.8959 0.9597
-6.9527 8.7278 0.9762 0.9562
-11.3494 8.7548 1.2540 0.9441
-19.9048 8.7931 1.9038 0.9163
-19.5163 -32.5311 3.3190 0.8587
-14.1032 -31.5953 3.0271 0.8703
-9.7559 -31.6168 2.8948 0.8756
-5.7237 -31.6764 2.8162 0.8788
22.5252 -49.9151 4.7911 0.8026
32.1362 -40.9842 4.5565 0.8113
40.8944 -40.8850 5.0592 0.7928
53.9490 -42.2822 5.9968 0.7594
57.9933 -35.0961 5.9306 0.7617
58.3947 -26.3358 5.6044 0.7732
62.3334 -11.5111 5.5457 0.7753
62.3803 -3.8775 5.4681 0.7781
62.4737 11.3032 5.5545 0.7750
58.2169 17.9782 5.3307 0.7830
43.0989 19.2498 4.1297 0.8273
33.1025 19.8693 3.3778 0.8564
11.0770 8.6170 1.2278 0.9452
8.6963 8.6316 1.0720 0.9520
6.8278 8.6431 0.9637 0.9567
5.2819 8.6526 0.8869 0.9601
3.9462 8.6608 0.8327 0.9625
2.7480 8.6681 0.7956 0.9641
0.5732 8.6815 0.7612 0.9657
-1.5385 8.6945 0.7725 0.9652
-2.6504 8.7013 0.7958 0.9641
-5.1867 8.7169 0.8874 0.9601
-8.6063 8.7379 1.0730 0.9519
-10.9922 8.7526 1.2293 0.9451
-14.2471 8.7726 1.4638 0.9350
-19.6019 -31.5616 3.2505 0.8614
-11.7639 -25.3004 2.4411 0.8940
-9.1848 -28.2160 2.5961 0.8877
-6.2283 -31.6733 2.8241 0.8784
21.7510 -50.2497 4.7905 0.8026
31.0074 -40.8243 4.4851 0.8140
40.5270 -41.7855 5.0928 0.7916
58.3880 -27.4225 5.6436 0.7718
57.2583 -18.8827 5.2748 0.7850
62.4207 2.6891 5.4662 0.7781
44.7239 19.1549 4.2566 0.8225
34.2028 19.8197 3.4585 0.8532
11.4333 8.6148 1.2524 0.9441
5.4659 8.6514 0.8953 0.9597
4.1079 8.6598 0.8386 0.9622
2.8953 8.6672 0.7995 0.9640
1.1718 5.7256 0.5113 0.9768
0.7076 8.6807 0.7620 0.9656
-1.4006 8.6936 0.7704 0.9653
-2.5044 8.7004 0.7921 0.9643
-5.0059 8.7158 0.8794 0.9604
-6.5217 8.7251 0.9530 0.9572
-8.3436 8.7363 1.0569 0.9527
-13.7476 8.7599 1.4262 0.9366
-18.3636 8.7979 1.7815 0.9215
-60.5220 -17.1691 5.5039 0.7768
-15.2835 -31.5880 3.0701 0.8686
-3.6137 -40.4817 3.5558 0.8494
24.1610 -86.4350 7.8520 0.6974
23.2629 -41.2357 4.1421 0.8269
39.6555 -42.1675 5.0643 0.7926
58.3266 -37.7999 6.0808 0.7565
58.1678 -28.4208 5.6640 0.7711
56.7529 -19.6902 5.2556 0.7857
62.3685 -5.8096 5.4802 0.7776
58.2049 16.0285 5.2818 0.7847
35.4368 19.8121 3.5520 0.8496
11.8042 8.6125 1.2784 0.9430
9.2458 8.6282 1.1064 0.9505
7.2689 8.6404 0.9879 0.9557
5.6534 8.6503 0.9041 0.9594
1.2725 5.7643 0.5164 0.9766
-2.3597 8.6995 0.7886 0.9645
-3.5323 8.7067 0.8220 0.9630
-4.8283 8.7147 0.8716 0.9608
-6.3137 8.7238 0.9422 0.9577
-10.3182 8.7484 1.1835 0.9471
-82.4343 -33.0740 7.7709 0.7000
-22.3477 -33.6257 3.5323 0.8503
-11.3891 -31.6417 2.9422 0.8737
-3.5492 -33.8616 2.9787 0.8722
23.1730 -88.1125 7.9710 0.6936
22.4263 -41.2237 4.1058 0.8283
49.0626 -42.2522 5.6648 0.7711
57.8706 -38.7830 6.0948 0.7560
57.9257 -29.4161 5.6839 0.7704
62.3149 -14.5130 5.5978 0.7734
57.2089 7.6413 5.0496 0.7931
58.1990 15.0665 5.2596 0.7855
36.7397 19.8040 3.6515 0.8457
9.5342 8.6264 1.1249 0.9497
15.3874 64.9360 5.8385 0.7649
0.9773 8.6790 0.7641 0.9655
-0.0729 8.6855 0.7599 0.9657
-2.2162 8.6986 0.7853 0.9646
-3.3767 8.7058 0.8169 0.9632
-6.1103 8.7226 0.9317 0.9581
-7.8408 8.7332 1.0268 0.9540
-12.8621 8.7641 1.3617 0.9394
-16.9828 8.7894 1.6730 0.9261
-3.8157 -31.6880 2.7924 0.8797
20.7582 -54.7665 5.1241 0.7904
21.7682 -41.5248 4.1019 0.8284
27.8780 -40.4559 4.2984 0.8210
37.4182 -42.3284 4.9428 0.7970
61.0134 -42.2653 6.4936 0.7423
62.2580 -23.7727 5.8304 0.7652
62.3565 -7.7522 5.4975 0.7770
51.0261 19.1161 4.7672 0.8035
37.9278 19.6967 3.7390 0.8423
9.7953 8.5921 1.1399 0.9490
7.7331 8.6375 1.0143 0.9545
4.6078 8.6567 0.8580 0.9614
2.1957 8.6689 0.7824 0.9647
1.1128 8.6782 0.7655 0.9655
-0.9910 8.6911 0.7653 0.9655
-9.6695 8.7244 1.1394 0.9491
-12.4422 8.7615 1.3314 0.9407
-16.3532 8.7855 1.6241 0.9282
-59.8460 -14.0262 5.3777 0.7813
-18.2403 -33.6409 3.3480 0.8576
-12.4864 -31.6001 2.9726 0.8725
-4.3113 -31.6850 2.7976 0.8795
21.4295 -42.4564 4.1608 0.8262
26.4072 -39.6139 4.1652 0.8260
36.1391 -42.1728 4.8590 0.8001
58.3627 -31.9361 5.8205 0.7656
62.3024 -16.5486 5.6398 0.7719
62.3505 -8.7287 5.5082 0.7766
54.8546 19.5925 5.0961 0.7915
13.0168 8.6050 1.3652 0.9393
7.9747 8.6360 1.0284 0.9539
6.2394 8.6467 0.9329 0.9581
4.7798 8.6557 0.8651 0.9611
3.5006 8.6635 0.8175 0.9632
2.3389 8.6707 0.7857 0.9646
0.1946 8.6838 0.7599 0.9657
-0.8555 8.6903 0.7640 0.9655
-10.5885 47.6491 4.2704 0.8220
-3.0710 8.7039 0.8075 0.9636
-4.3132 8.7115 0.8505 0.9617
-7.3654 8.7303 0.9993 0.9552
-12.0403 8.7590 1.3026 0.9420
-15.7594 8.7819 1.5784 0.9301
-39.8514 -8.6948 3.5686 0.8489
-24.6499 -33.6116 3.6467 0.8459
-8.8015 -31.6575 2.8747 0.8764
-4.8090 -31.6820 2.8036 0.8793
-2.5598 -85.0056 7.4404 0.7107
26.5611 -77.1680 7.1401 0.7206
21.1718 -43.6028 4.2407 0.8231
55.6380 -41.1340 6.0536 0.7574
58.3555 -33.1102 5.8700 0.7638
58.8526 -24.5749 5.5799 0.7741
62.2961 -17.5785 5.6630 0.7711
62.3912 -2.1194 5.4617 0.7783
62.4849 13.1297 5.5861 0.7739
41.9536 20.1719 4.0727 0.8295
13.4588 8.6023 1.3975 0.9379
10.4611 8.6207 1.1860 0.9470
8.2233 8.6345 1.0432 0.9533
2.4825 8.6698 0.7890 0.9644
-0.7205 8.6895 0.7628 0.9656
-4.1469 8.7105 0.8440 0.9620
-5.5257 8.7190 0.9031 0.9594
-13.6230 -31.5932 3.0101 0.8710
-9.3282 -31.6543 2.8871 0.8759
-5.3089 -31.6789 2.8102 0.8790
-3.8350 -84.2114 7.3752 0.7129
20.5660 -44.0697 4.2548 0.8226
24.7998 -39.8067 4.1032 0.8284
41.9603 -40.8968 5.1263 0.7904
52.2154 -30.6989 5.2993 0.7841
61.8306 -18.4797 5.6459 0.7717
62.3384 -10.6939 5.5336 0.7757
62.4788 12.1267 5.5682 0.7745
58.2219 18.7944 5.3526 0.7822
42.9498 19.8423 4.1392 0.8270
33.1061 20.4489 3.4044 0.8554
10.7931 8.6187 1.2084 0.9461
8.4792 8.6329 1.0587 0.9526
6.6519 8.6441 0.9543 0.9571
3.8142 8.6616 0.8280 0.9627
2.6273 8.6689 0.7925 0.9643
-0.5858 8.6886 0.7619 0.9656
-1.6530 8.6952 0.7744 0.9651
-3.9831 8.7095 0.8379 0.9623
-19.7811 8.8020 1.8942 0.9167
-5.8049 -31.6410 2.8144 0.8788
-4.7226 -77.4415 6.7878 0.7323
31.9803 -41.0114 4.5500 0.8115
58.3935 -26.5237 5.6111 0.7730
62.3793 -4.0453 5.4689 0.7780
62.4256 3.4853 5.4700 0.7780
-29.4166 -31.5366 2.2602 0.8414
-23.0015 -31.5408 2.0458 0.8552
-6.4160 -23.3192 1.2675 0.9077
-2.4135 -16.1929 0.8580 0.9365
19.4718 -89.7505 4.8130 0.6922
26.4052 -40.7238 2.5436 0.8233
44.9219 -42.2267 3.2311 0.7812
33.0431 -24.2925 2.1493 0.8485
67.0668 -18.7307 3.6493 0.7566
67.3202 -2.1061 3.5298 0.7635
67.2669 6.0202 3.5394 0.7630
32.7899 15.8742 1.9092 0.8642
10.4046 8.6211 0.7081 0.9473
8.1795 8.6348 0.6233 0.9535
0.3049 8.6776 0.4551 0.9658
-0.7434 8.6824 0.4567 0.9657
-1.2304 5.8898 0.3153 0.9762
-2.9449 8.6975 0.4812 0.9639
-15.2933 8.7790 0.9242 0.9318
-52.0429 -24.7021 3.0191 0.7939
-23.7507 -31.5362 2.0690 0.8537
-17.7064 -30.5720 1.8515 0.8680
-9.7389 -33.3779 1.8222 0.8700
-5.5319 -33.5610 1.7826 0.8726
-2.6948 -62.8840 3.2986 0.7772
23.6500 -50.3256 2.9142 0.8003
25.5331 -40.7398 2.5198 0.8248
34.1198 -42.1603 2.8424 0.8047
42.2008 -40.9111 3.0803 0.7902
32.5235 -24.6911 2.1400 0.8491
66.7703 -19.7614 3.6493 0.7566
67.3270 -3.1449 3.5323 0.7634
67.2201 13.2342 3.5905 0.7600
26.1665 8.5242 1.4423 0.8956
32.7977 15.2590 1.8958 0.8651
10.7344 8.6191 0.7215 0.9464
8.4341 8.6332 0.6325 0.9528
6.6152 8.6444 0.5705 0.9573
5.1014 8.6537 0.5265 0.9606
3.7866 8.6618 0.4954 0.9628
-0.6088 8.6821 0.4561 0.9657
-1.6745 8.6814 0.4634 0.9652
-2.7952 8.6939 0.4786 0.9641
-4.0114 8.7097 0.5025 0.9623
-5.3708 8.7180 0.5366 0.9598
-8.8773 8.7396 0.6529 0.9513
-11.3494 8.7548 0.7512 0.9442
-14.7565 8.7757 0.8998 0.9335
-19.9375 8.8076 1.1423 0.9164
-29.1240 8.8640 1.5954 0.8852
-10.2982 -33.3745 1.8305 0.8694
24.7072 -40.8055 2.5000 0.8261
31.9802 -40.7854 2.7162 0.8125
40.9126 -40.9032 3.0319 0.7932
32.5186 -25.4863 2.1653 0.8475
57.9933 -35.0961 3.5524 0.7622
67.3887 -12.4447 3.5914 0.7600
67.3339 -4.1854 3.5356 0.7632
67.2805 3.9374 3.5321 0.7634
43.0989 19.2498 2.4738 0.8277
8.6963 8.6316 0.6421 0.9521
3.9462 8.6608 0.4988 0.9626
2.7445 8.6572 0.4760 0.9643
-0.4745 8.6817 0.4557 0.9658
-3.8495 8.7087 0.4990 0.9626
-6.7346 8.7264 0.5777 0.9568
-8.6063 8.7379 0.6428 0.9521
-10.9922 8.7526 0.7364 0.9453
-27.5612 8.8544 1.5171 0.8905
-25.3021 -31.5267 2.1185 0.8505
-18.9825 -30.5641 1.8856 0.8658
-4.7721 -24.2680 1.2962 0.9057
-3.6563 -49.5677 2.6048 0.8195
22.0509 -50.9425 2.9092 0.8006
24.0161 -41.0792 2.4938 0.8265
40.4235 -41.6789 3.0429 0.7925
58.3880 -27.4225 3.3807 0.7723
67.3959 -13.5226 3.6025 0.7593
67.2873 2.8988 3.5296 0.7636
34.0320 19.7207 2.0613 0.8542
11.4333 8.6148 0.7502 0.9443
8.9667 8.6299 0.6522 0.9514
4.1079 8.6598 0.5023 0.9623
2.8925 8.6588 0.4784 0.9641
-0.3405 8.6813 0.4553 0.9658
-1.3988 8.6822 0.4609 0.9654
-3.6898 8.7077 0.4956 0.9628
-6.5217 8.7251 0.5709 0.9573
-8.3436 8.7363 0.6331 0.9528
-10.6488 8.7505 0.7223 0.9463
-26.1444 8.8457 1.4465 0.8953
-82.2923 -12.9332 4.3657 0.7163
-60.4010 -17.1348 3.2904 0.7776
-26.1065 -31.5217 2.1450 0.8488
-10.8683 -31.7197 1.7573 0.8743
-7.1026 -33.3941 1.7893 0.8722
-3.5678 -39.9664 2.1029 0.8515
21.3324 -51.4418 2.9186 0.8001
24.6646 -43.7202 2.6307 0.8179
30.5297 -41.5073 2.7004 0.8135
39.6811 -42.1946 3.0356 0.7929
32.5085 -27.1353 2.2192 0.8440
58.2470 -37.7483 3.6376 0.7573
58.2698 -20.2165 3.2324 0.7811
67.3477 -6.2735 3.5448 0.7627
51.4960 7.6874 2.7287 0.8118
35.2598 19.7131 2.1171 0.8506
9.2458 8.6282 0.6628 0.9506
7.2689 8.6404 0.5917 0.9558
4.2720 8.6588 0.5060 0.9621
0.8416 8.6727 0.4567 0.9657
-6.3137 8.7238 0.5644 0.9578
-10.3182 8.7484 0.7090 0.9473
-13.3019 8.7668 0.8349 0.9382
-81.7303 18.3724 4.3902 0.7150
-20.9715 -31.5551 1.9856 0.8592
-15.3845 -30.5862 1.7943 0.8719
-12.0656 -33.5210 1.8671 0.8670
-7.6413 -33.3908 1.7952 0.8718
-3.8564 -36.7923 1.9388 0.8623
21.6830 -54.6514 3.0813 0.7902
22.8889 -42.0740 2.5102 0.8254
29.9533 -42.0660 2.7064 0.8131
38.4668 -42.1869 2.9920 0.7956
57.9257 -29.4161 3.4048 0.7709
67.4104 -15.6997 3.6274 0.7579
67.3009 0.8245 3.5273 0.7637
58.1291 7.7643 3.0735 0.7906
58.6498 15.1832 3.1750 0.7845
36.5563 19.7052 2.1764 0.8468
9.5341 8.6264 0.6738 0.9498
7.4979 8.6390 0.5995 0.9552
5.8447 8.6491 0.5471 0.9590
3.1935 8.6624 0.4838 0.9637
-2.2118 8.6812 0.4695 0.9648
-3.3767 8.7058 0.4894 0.9633
-4.6538 8.7136 0.5177 0.9612
-12.8621 8.7641 0.8157 0.9396
-16.9828 8.7894 1.0022 0.9263
-23.6715 8.8305 1.3241 0.9038
-27.8087 -31.5465 2.2039 0.8450
-12.4300 -32.9329 1.8448 0.8685
-4.4227 -36.7285 1.9388 0.8623
21.8734 -88.7030 4.7880 0.6935
20.7119 -54.6443 3.0626 0.7913
28.9964 -42.0788 2.6781 0.8149
37.2868 -42.1798 2.9504 0.7981
46.1350 -40.9853 3.2341 0.7810
35.0650 -24.2903 2.2355 0.8429
57.9212 -30.5448 3.4317 0.7693
51.0122 -19.4786 2.8617 0.8035
67.4178 -16.8003 3.6413 0.7571
67.3616 -8.3744 3.5574 0.7619
67.3077 -0.2122 3.5275 0.7637
67.2545 7.9311 3.5491 0.7624
12.5947 8.6076 0.7995 0.9407
9.7953 8.5921 0.6829 0.9491
4.6078 8.6567 0.5139 0.9615
0.0608 8.6792 0.4549 0.9658
-0.9900 8.6826 0.4580 0.9656
-7.5999 8.7317 0.6067 0.9547
-9.6695 8.7244 0.6825 0.9492
-28.6474 -31.5062 2.2317 0.8432
-22.3965 -31.5463 2.0276 0.8564
-16.5800 -30.5789 1.8230 0.8699
-12.4863 -31.6000 1.7807 0.8728
-4.9877 -36.6561 1.9388 0.8623
20.1808 -87.6239 4.7124 0.6976
21.1856 -41.9732 2.4640 0.8283
28.3364 -42.5080 2.6774 0.8150
36.1390 -42.1727 2.9107 0.8005
45.4240 -41.6231 3.2289 0.7813
33.9473 -24.2981 2.1879 0.8460
58.3627 -31.9361 3.4866 0.7661
51.5850 -20.6132 2.9113 0.8005
54.8547 19.5925 3.0527 0.7919
32.8059 16.4002 1.9222 0.8634
7.9747 8.6360 0.6160 0.9540
4.7798 8.6557 0.5182 0.9612
3.5006 8.6635 0.4897 0.9633
2.3342 8.6535 0.4697 0.9647
0.1945 8.6784 0.4549 0.9658
-10.5885 47.6491 2.5581 0.8224
-3.0698 8.7005 0.4835 0.9637
-5.7046 8.7019 0.5453 0.9592
-12.0403 8.7590 0.7803 0.9421
-15.7594 8.7819 0.9455 0.9303
-21.5438 8.8018 1.2197 0.9110
-39.8785 -8.7008 2.1391 0.8492
-29.5742 -31.5356 2.2658 0.8410
-23.1306 -31.5400 2.0498 0.8550
-13.0511 -31.5966 1.7916 0.8720
-6.4824 -23.3162 1.2683 0.9076
-5.1906 -34.1960 1.8127 0.8706
-1.8880 -62.6960 3.2872 0.7778
23.0190 -47.4070 2.7619 0.8097
26.0256 -40.3750 2.5175 0.8250
32.1473 -30.3812 2.3175 0.8376
58.3555 -33.1102 3.5163 0.7643
67.3757 -10.4924 3.5736 0.7610
67.3213 -2.2869 3.5302 0.7635
67.2681 5.8387 3.5386 0.7630
25.0982 8.5308 1.3892 0.8993
32.7898 15.7658 1.9068 0.8644
13.4588 8.6023 0.8371 0.9380
8.2233 8.6345 0.6249 0.9534
6.4433 8.6454 0.5651 0.9577
0.3282 8.6774 0.4551 0.9658
-1.2142 5.8909 0.3152 0.9762
-11.6555 8.7567 0.7640 0.9433
-15.1978 8.7784 0.9198 0.9321
-20.6544 8.8120 1.1768 0.9140
-49.3204 -23.2479 2.8570 0.8038
-17.8156 -30.5713 1.8544 0.8679
-9.8360 -33.3773 1.8236 0.8699
-5.6242 -33.5604 1.7834 0.8726
27.5901 -84.3580 4.6515 0.7008
23.4970 -50.3503 2.9119 0.8005
25.9067 -41.5834 2.5676 0.8218
33.9323 -42.1591 2.8362 0.8051
42.0252 -40.9601 3.0755 0.7905
32.5226 -24.8283 2.1443 0.8488
57.9994 -34.0994 3.5261 0.7638
66.7172 -19.9401 3.6493 0.7566
67.3282 -3.3257 3.5328 0.7634
26.4021 8.5228 1.4540 0.8948
32.7993 15.1529 1.8935 0.8653
33.1061 20.4489 2.0393 0.8557
8.4792 8.6329 0.6342 0.9527
5.1326 8.6535 0.5273 0.9605
2.6234 8.6560 0.4740 0.9644
0.4621 8.6763 0.4554 0.9658
-1.6504 8.6815 0.4631 0.9652
-3.9831 8.7095 0.5019 0.9624
-6.9144 8.7275 0.5835 0.9564
-8.8295 8.7393 0.6511 0.9515
-11.2862 8.7544 0.7486 0.9444
-19.7917 8.8067 1.1353 0.9169
-28.8403 8.8623 1.5812 0.8862
-18.4498 -30.5674 1.8712 0.8667
-10.3961 -33.3739 1.8319 0.8693
-4.7226 -77.4415 4.0661 0.7329
26.0437 -83.9857 4.6083 0.7031
24.8499 -41.2905 2.5256 0.8245
31.8081 -40.7905 2.7109 0.8129
40.7730 -40.9831 3.0297 0.7933
32.5177 -25.6266 2.1698 0.8472
57.9243 -35.2669 3.5542 0.7621
67.2817 3.7564 3.5316 0.7634
27.8343 8.5140 1.5254 0.8900
-22.7402 -31.1825 0.6736 0.8569
-12.9523 -31.5972 0.5961 0.8723
-2.3479 -85.5906 1.4945 0.7100
32.7179 -39.1784 0.8910 0.8153
32.4876 -30.5384 0.7783 0.8366
33.0431 -24.2925 0.7159 0.8487
43.1941 -24.3549 0.8655 0.8201
48.3817 -20.0505 0.9142 0.8110
88.6397 -24.7556 1.6064 0.6920
63.5739 13.5366 1.1346 0.7710
24.8639 8.5256 0.4588 0.9002
41.6709 20.1737 0.8081 0.8309
13.6151 8.7537 0.2825 0.9373
8.1795 8.6348 0.2076 0.9535
6.4075 8.6457 0.1878 0.9579
4.9128 8.6352 0.1734 0.9610
3.6120 8.6218 0.1632 0.9633
2.4455 8.6281 0.1565 0.9648
-1.2302 5.8887 0.1050 0.9762
-4.1583 8.6745 0.1679 0.9622
-11.7213 8.7571 0.2554 0.9431
-5.5319 -33.5610 0.5937 0.8728
-2.8535 -66.5886 1.1634 0.7659
29.6720 -89.9064 1.6526 0.6847
39.3929 -83.8258 1.6165 0.6904
28.3701 -45.2666 0.9325 0.8076
31.6989 -39.1689 0.8795 0.8174
32.5235 -24.6911 0.7128 0.8493
57.9524 -25.0695 1.1021 0.7768
48.8276 9.6131 0.8686 0.8195
26.1457 8.5174 0.4800 0.8958
42.9138 19.9655 0.8262 0.8275
33.1068 20.5721 0.6804 0.8556
10.7344 8.6191 0.2403 0.9464
6.6152 8.6444 0.1900 0.9574
5.0899 8.6342 0.1749 0.9607
3.7718 8.6280 0.1644 0.9630
1.4988 8.6758 0.1537 0.9654
0.4391 8.6823 0.1517 0.9658
-0.6093 8.6888 0.1520 0.9658
-1.6772 8.6953 0.1546 0.9652
-3.9987 8.6820 0.1668 0.9625
-5.3467 8.6788 0.1779 0.9600
-11.3494 8.7548 0.2502 0.9443
-19.9102 8.7955 0.3799 0.9166
-64.9800 -29.6251 1.2465 0.7515
-24.2387 -31.1733 0.6893 0.8539
-9.6283 -31.2035 0.5700 0.8775
-6.0636 -33.5577 0.5952 0.8725
-3.8787 -66.5368 1.1634 0.7659
32.4587 -32.4513 0.8012 0.8323
32.5186 -25.4863 0.7212 0.8476
78.9625 -24.6986 1.4441 0.7182
45.1199 20.1525 0.8626 0.8206
11.0770 8.6170 0.2450 0.9454
2.7348 8.6265 0.1580 0.9644
-1.5385 8.6945 0.1541 0.9653
-3.8406 8.6885 0.1658 0.9627
-10.9922 8.7526 0.2453 0.9453
-58.9236 -17.7006 1.0739 0.7818
-25.0147 -31.1686 0.6976 0.8522
-11.7546 -25.2803 0.4866 0.8945
-9.2350 -28.3705 0.5208 0.8875
-6.1401 -31.2248 0.5555 0.8805
37.8669 -87.4812 1.6639 0.6829
28.5398 -48.8169 0.9870 0.7975
29.7362 -39.1506 0.8581 0.8215
32.4652 -33.4735 0.8139 0.8298
32.5136 -26.3007 0.7300 0.8459
51.9713 -24.4088 1.0022 0.7948
94.7658 -19.0143 1.6871 0.6793
29.1278 8.5060 0.5297 0.8857
47.0257 20.1407 0.8929 0.8149
34.0321 19.7207 0.6866 0.8544
8.9667 8.6299 0.2172 0.9514
4.0984 8.6398 0.1669 0.9625
2.8814 8.6257 0.1587 0.9643
1.1718 5.7255 0.1020 0.9769
0.7076 8.6807 0.1520 0.9658
-0.3407 8.6871 0.1518 0.9658
-2.4984 8.6797 0.1577 0.9645
-8.3436 8.7363 0.2109 0.9528
-10.6488 8.7505 0.2406 0.9464
-26.1280 8.8402 0.4815 0.8955
-58.9681 -16.7283 1.0699 0.7825
-25.8099 -31.1637 0.7063 0.8505
-17.1041 -35.3509 0.6855 0.8546
-6.6406 -31.2218 0.5572 0.8801
-3.1814 -35.6389 0.6246 0.8666
30.9958 -42.1410 0.9131 0.8112
49.9310 -24.3963 0.9700 0.8007
30.8498 8.4954 0.5585 0.8798
47.9872 19.6835 0.9053 0.8126
35.2599 19.7132 0.7051 0.8508
9.2458 8.6282 0.2207 0.9507
4.2622 8.6388 0.1681 0.9622
3.0296 8.6249 0.1596 0.9641
-0.2068 8.6863 0.1517 0.9658
-1.2635 8.6928 0.1533 0.9655
-2.3544 8.6801 0.1570 0.9647
-6.3137 8.7238 0.1880 0.9578
-8.0885 8.7347 0.2078 0.9535
-10.3181 8.7484 0.2361 0.9473
-24.8236 8.8272 0.4599 0.9000
-81.7445 18.3756 1.4625 0.7152
-23.5860 2.3804 0.4138 0.9095
-59.0121 -15.7629 1.0662 0.7832
-75.5992 -30.3316 1.4218 0.7219
-26.6254 -31.1587 0.7154 0.8488
-7.1442 -31.2187 0.5590 0.8797
28.3280 -52.0721 1.0347 0.7889
30.0026 -42.1352 0.9029 0.8131
48.0176 -24.3845 0.9400 0.8062
88.3660 -20.5803 1.5837 0.6956
58.1990 15.0665 1.0494 0.7862
51.2733 20.1146 0.9614 0.8022
12.1910 8.6101 0.2605 0.9420
7.4979 8.6390 0.1997 0.9553
4.4284 8.6379 0.1694 0.9619
3.1794 8.6241 0.1604 0.9639
-1.1269 8.6920 0.1530 0.9655
-3.3687 8.6854 0.1626 0.9634
-6.1103 8.7226 0.1859 0.9583
-7.8408 8.7332 0.2049 0.9541
-9.9995 8.7465 0.2319 0.9482
-23.6715 8.8305 0.4410 0.9039
-23.2591 2.7099 0.4087 0.9106
-57.4756 -14.4079 1.0343 0.7890
-65.1924 -34.4958 1.2874 0.7445
-66.4961 -59.2402 1.5545 0.7003
-18.4644 -35.3426 0.6960 0.8525
-12.4300 -32.9329 0.6144 0.8686
-4.8737 -40.4740 0.7116 0.8495
29.4445 -42.7291 0.9058 0.8125
34.6495 -39.1964 0.9132 0.8112
35.0863 -24.3051 0.7450 0.8430
46.2188 -24.3735 0.9121 0.8114
48.7515 -18.6153 0.9109 0.8116
32.7767 12.2792 0.6109 0.8693
13.3507 9.1243 0.2823 0.9374
6.0331 8.6380 0.1839 0.9587
2.1857 8.6295 0.1554 0.9650
1.1128 8.6782 0.1527 0.9656
0.0608 8.6846 0.1516 0.9659
-0.9910 8.6911 0.1527 0.9656
-4.4614 8.6724 0.1702 0.9617
-9.6695 8.7244 0.2273 0.9492
-12.4422 8.7615 0.2656 0.9409
-16.3165 8.7658 0.3233 0.9286
-57.4258 -13.4590 1.0295 0.7898
-34.0633 -37.4625 0.8838 0.8166
-12.4863 -31.6001 0.5931 0.8729
-5.5062 -40.4663 0.7129 0.8493
31.6135 -87.4459 1.6230 0.6894
28.2765 -56.0218 1.0953 0.7780
33.5800 -39.1864 0.9008 0.8135
33.9473 -24.2981 0.7287 0.8462
44.5231 -24.3631 0.8859 0.8162
48.3086 -19.3040 0.9081 0.8121
88.8736 9.0949 1.5594 0.6995
32.8059 16.4002 0.6402 0.8635
13.4954 8.9214 0.2824 0.9373
7.9747 8.6360 0.2052 0.9541
4.7689 8.6360 0.1722 0.9613
3.4840 8.6225 0.1623 0.9635
2.3275 8.6287 0.1560 0.9649
1.2488 8.6774 0.1530 0.9655
0.1946 8.6838 0.1516 0.9658
-10.5410 47.4353 0.8482 0.8233
-3.0638 8.6834 0.1607 0.9638
-4.2932 8.6711 0.1689 0.9620
-7.3654 8.7303 0.1994 0.9553
-9.3949 8.7428 0.2240 0.9500
-12.0403 8.7590 0.2599 0.9422
-21.5438 8.8018 0.4062 0.9111
-39.9055 -8.7066 0.7129 0.8492
-64.7632 -31.7554 1.2590 0.7493
-22.8679 -31.1817 0.6750 0.8567
-19.5297 -34.7314 0.6955 0.8526
-2.5598 -85.0068 1.4845 0.7116
23.0164 -47.4017 0.9198 0.8099
28.3777 -44.0240 0.9142 0.8110
32.5386 -39.1767 0.8889 0.8157
32.1441 -30.3781 0.7720 0.8378
42.9216 -24.3532 0.8614 0.8208
48.5691 -20.2808 0.9187 0.8101
87.7198 -24.7525 1.5909 0.6944
88.8651 7.7133 1.5570 0.6999
25.0619 8.5184 0.4620 0.8995
41.9536 20.1719 0.8125 0.8301
13.6403 8.7183 0.2826 0.9373
10.4611 8.6207 0.2366 0.9472
4.9434 8.6350 0.1737 0.9610
3.6392 8.6216 0.1633 0.9633
1.3854 8.6765 0.1534 0.9655
0.3284 8.6830 0.1517 0.9658
-0.7205 8.6895 0.1522 0.9657
-1.2140 5.8899 0.1050 0.9762
-2.9139 8.6824 0.1599 0.9640
-5.5009 8.6800 0.1794 0.9597
-7.1370 8.7289 0.1968 0.9559
-9.1076 8.7410 0.2203 0.9508
-11.6555 8.7567 0.2545 0.9433
-20.6299 8.8015 0.3915 0.9142
-75.1691 -5.9414 1.3162 0.7396
-19.5222 -33.4999 0.6768 0.8563
-3.0321 -66.5807 1.1634 0.7659
29.6670 -90.7083 1.6658 0.6826
31.5243 -39.1673 0.8776 0.8178
32.4701 -31.6471 0.7914 0.8341
32.5226 -24.8283 0.7142 0.8490
82.7155 -24.7217 1.5069 0.7080
48.7399 9.4601 0.8666 0.8199
42.9498 19.8423 0.8258 0.8276
8.4792 8.6329 0.2112 0.9527
6.6519 8.6441 0.1904 0.9573
5.1210 8.6340 0.1752 0.9606
2.6147 8.6271 0.1574 0.9646
1.5227 8.6757 0.1537 0.9654
0.4624 8.6822 0.1518 0.9658
-0.5858 8.6886 0.1520 0.9658
-3.9711 8.6833 0.1667 0.9625
-6.9144 8.7275 0.1944 0.9564
-14.6468 8.7637 0.2979 0.9340
-19.7695 8.7968 0.3777 0.9171
-64.9830 -29.4163 1.2451 0.7517
-19.2252 -31.8520 0.6494 0.8617
-11.4651 -25.5012 0.4880 0.8942
-9.7198 -31.2029 0.5705 0.8774
-4.0570 -66.5262 1.1634 0.7659
39.1990 -87.4891 1.6734 0.6814
30.4978 -39.1102 0.8657 0.8200
32.4598 -32.6270 0.8033 0.8318
53.7617 -24.4198 1.0307 0.7896
78.2113 -24.6940 1.4317 0.7203
-12.9523 -31.5972 -0.5961 0.8723
30.3272 -87.3481 -1.6139 0.6908
23.7566 -36.6390 -0.7622 0.8397
32.4876 -30.5384 -0.7783 0.8366
63.5739 13.5366 -1.1346 0.7710
10.4046 8.6211 -0.2359 0.9474
-0.7440 8.6896 -0.1522 0.9657
-1.2300 5.8877 -0.1050 0.9762
-11.7213 8.7571 -0.2554 0.9431
-55.1738 8.8762 -0.9754 0.7997
-40.1089 -8.2180 -0.7146 0.8489
-74.8839 -25.0343 -1.3782 0.7291
-62.2466 -39.3467 -1.2854 0.7448
-66.6660 -69.2994 -1.6785 0.6807
-15.7120 -20.8624 -0.4559 0.9008
-11.4433 -19.7582 -0.3985 0.9127
-1.0413 -24.2991 -0.4245 0.9073
29.5836 -89.6388 -1.6477 0.6855
30.3724 -64.6305 -1.2465 0.7515
32.4817 -31.4891 -0.7897 0.8344
87.2018 -14.7186 -1.5436 0.7020
50.0541 9.8546 -0.8904 0.8154
33.1068 20.5721 -0.6804 0.8556
8.4341 8.6332 -0.2107 0.9529
5.0762 8.6110 -0.1745 0.9608
3.7621 8.6056 -0.1639 0.9631
2.5768 8.5851 -0.1565 0.9648
1.4988 8.6758 -0.1537 0.9654
-0.6093 8.6888 -0.1520 0.9658
-3.9886 8.6602 -0.1664 0.9626
-5.3171 8.6309 -0.1769 0.9603
-14.6756 8.7276 -0.2980 0.9340
-29.1240 8.8640 -0.5314 0.8853
-56.3942 9.9659 -0.9996 0.7952
-56.4216 3.0711 -0.9863 0.7977
-48.7505 -9.2085 -0.8660 0.8200
-74.9561 -23.7813 -1.3726 0.7301
-12.0306 -20.0534 -0.4082 0.9107
-8.6685 -19.4200 -0.3712 0.9184
-3.8640 -21.3845 -0.3793 0.9167
-1.3514 -23.1811 -0.4053 0.9113
28.8947 -92.3041 -1.6883 0.6791
28.3603 -46.8390 -0.9558 0.8033
32.4757 -32.4683 -0.8016 0.8322
32.5186 -25.4863 -0.7212 0.8476
40.2141 -24.3366 -0.8205 0.8286
54.1518 -24.4222 -1.0369 0.7885
41.0381 18.3294 -0.7845 0.8354
8.6963 8.6316 -0.2139 0.9522
6.8278 8.6431 -0.1923 0.9569
5.2614 8.6190 -0.1763 0.9604
2.7213 8.5841 -0.1572 0.9646
0.5732 8.6815 -0.1519 0.9658
-0.4749 8.6880 -0.1519 0.9658
-2.6399 8.6667 -0.1581 0.9644
-3.8308 8.6663 -0.1654 0.9628
-8.6063 8.7379 -0.2141 0.9521
-10.9922 8.7526 -0.2453 0.9453
-14.2096 8.7495 -0.2913 0.9354
-59.3570 -17.8307 -1.0818 0.7804
-61.7273 -36.4073 -1.2509 0.7507
-63.9171 -48.9365 -1.4051 0.7247
-17.2194 -21.4556 -0.4802 0.8958
28.2447 -95.3546 -1.7359 0.6718
27.5844 -47.1827 -0.9540 0.8036
29.5725 -38.9351 -0.8534 0.8223
32.5136 -26.3007 -0.7300 0.8459
38.8369 -24.3281 -0.7999 0.8325
51.9713 -24.4088 -1.0022 0.7948
75.7979 -24.9967 -1.3931 0.7267
50.0798 8.2664 -0.8860 0.8162
42.6588 18.2704 -0.8100 0.8306
8.9667 8.6299 -0.2172 0.9514
7.0456 8.6417 -0.1946 0.9564
5.4510 8.6279 -0.1781 0.9600
0.7076 8.6807 -0.1520 0.9658
-0.3407 8.6871 -0.1518 0.9658
-1.4006 8.6936 -0.1537 0.9654
-2.4966 8.6734 -0.1575 0.9645
-3.6719 8.6654 -0.1643 0.9630
-4.9560 8.6291 -0.1737 0.9610
-6.5217 8.7251 -0.1901 0.9574
-8.3436 8.7363 -0.2109 0.9528
-10.6488 8.7505 -0.2406 0.9464
-13.7476 8.7599 -0.2845 0.9369
-26.1444 8.8457 -0.4818 0.8955
-88.9197 18.5547 -1.5855 0.6953
-75.0216 -11.7905 -1.3256 0.7380
-58.7944 -16.6790 -1.0667 0.7831
-74.9838 -31.4339 -1.4192 0.7223
-74.9228 -42.6487 -1.5048 0.7083
-12.9882 -20.2113 -0.4193 0.9084
-7.1360 -33.5512 -0.5987 0.8718
24.6777 -88.2833 -1.6001 0.6930
36.2748 -87.4746 -1.6529 0.6846
28.6108 -38.8984 -0.8429 0.8243
37.5267 -24.3201 -0.7806 0.8362
70.8932 -24.5962 -1.3098 0.7407
49.4475 7.3816 -0.8727 0.8187
44.2311 18.1428 -0.8345 0.8259
9.2458 8.6282 -0.2207 0.9507
4.2512 8.6165 -0.1677 0.9623
3.0146 8.5821 -0.1588 0.9643
0.8423 8.6799 -0.1522 0.9657
-1.2635 8.6928 -0.1533 0.9655
-8.0885 8.7347 -0.2078 0.9535
-13.3019 8.7668 -0.2781 0.9383
-81.7334 18.3731 -1.4623 0.7152
-89.0476 -1.7768 -1.5546 0.7003
-59.1953 -15.8119 -1.0695 0.7826
-75.1556 -30.1536 -1.4135 0.7233
-19.3744 -22.6732 -0.5206 0.8875
-7.0167 -19.4940 -0.3616 0.9205
-4.2427 -40.4779 -0.7104 0.8497
34.6660 -87.3747 -1.6408 0.6866
23.7328 -33.3300 -0.7142 0.8490
32.4565 -35.5953 -0.8408 0.8247
32.5032 -27.9915 -0.7487 0.8423
67.6527 -24.6456 -1.2568 0.7497
50.8431 19.9458 -0.9533 0.8037
36.5563 19.7052 -0.7249 0.8469
12.1910 8.6101 -0.2605 0.9420
9.5342 8.6264 -0.2244 0.9499
7.4979 8.6390 -0.1997 0.9553
5.8428 8.6463 -0.1821 0.9591
4.4169 8.6154 -0.1690 0.9620
3.1635 8.5811 -0.1596 0.9641
15.1742 64.0363 -1.1487 0.7685
0.9773 8.6790 -0.1524 0.9657
-0.0729 8.6855 -0.1516 0.9658
-2.2132 8.6867 -0.1565 0.9648
-3.3603 8.6636 -0.1622 0.9635
-4.6094 8.6305 -0.1708 0.9616
-7.8408 8.7332 -0.2049 0.9541
-12.8621 8.7641 -0.2717 0.9396
-23.6715 8.8305 -0.4410 0.9039
-23.2643 2.7105 -0.4088 0.9106
-89.0390 -0.4052 -1.5542 0.7003
-57.2863 -14.3604 -1.0309 0.7896
-65.0406 -34.4154 -1.2844 0.7450
-20.4347 -23.1814 -0.5394 0.8837
-10.2047 -19.5329 -0.3847 0.9156
-5.0727 -20.6955 -0.3719 0.9183
-2.6818 -22.2713 -0.3916 0.9142
0.0196 -28.0728 -0.4900 0.8938
30.0609 -79.3098 -1.4805 0.7123
23.9762 -34.7937 -0.7375 0.8445
32.4978 -28.8704 -0.7588 0.8404
49.9120 -19.0585 -0.9326 0.8076
58.2933 14.1367 -1.0470 0.7867
9.7953 8.5921 -0.2274 0.9492
7.7331 8.6375 -0.2024 0.9547
6.0331 8.6380 -0.1839 0.9587
-2.0728 8.6933 -0.1560 0.9649
-12.4422 8.7615 -0.2656 0.9409
-51.8536 13.3467 -0.9346 0.8072
-89.0304 0.9663 -1.5541 0.7003
-74.9403 -27.4190 -1.3929 0.7267
-64.8082 -33.0252 -1.2696 0.7475
-59.2571 -51.1759 -1.3667 0.7311
-22.0247 -24.2226 -0.5715 0.8772
-14.4906 -20.4107 -0.4369 0.9047
-10.6644 -19.6687 -0.3905 0.9144
-5.3688 -20.5306 -0.3704 0.9186
29.1414 -80.6080 -1.4961 0.7097
27.3178 -54.1223 -1.0582 0.7846
32.4923 -29.7734 -0.7692 0.8384
33.9473 -24.2981 -0.7287 0.8462
95.6803 9.7914 -1.6788 0.6806
61.8524 13.9947 -1.1069 0.7759
10.1411 8.6227 -0.2324 0.9481
6.2395 8.6467 -0.1861 0.9582
4.7563 8.6131 -0.1717 0.9614
2.3163 8.5869 -0.1552 0.9650
1.2488 8.6774 -0.1530 0.9655
-4.2809 8.6462 -0.1684 0.9621
-5.6591 8.6325 -0.1802 0.9595
-7.3654 8.7303 -0.1994 0.9553
-9.3949 8.7428 -0.2240 0.9500
-12.0403 8.7590 -0.2599 0.9422
-15.6634 8.7284 -0.3130 0.9308
-55.1783 8.1583 -0.9736 0.8000
-39.9326 -8.7126 -0.7134 0.8492
-75.0197 -26.1454 -1.3867 0.7277
-61.2649 -65.3281 -1.5633 0.6989
-11.1752 -19.8739 -0.3980 0.9128
-7.9806 -19.3211 -0.3649 0.9198
-3.2875 -21.6580 -0.3824 0.9161
30.0646 -87.3465 -1.6124 0.6910
23.6168 -36.6381 -0.7609 0.8400
32.3595 -38.9611 -0.8840 0.8166
32.1386 -30.3729 -0.7719 0.8379
32.8566 -24.2914 -0.7132 0.8492
49.8262 -20.8058 -0.9425 0.8057
47.9701 -13.5360 -0.8700 0.8192
95.6711 8.3040 -1.6762 0.6810
65.0146 13.6613 -1.1596 0.7666
10.4611 8.6207 -0.2366 0.9472
8.2233 8.6345 -0.2081 0.9534
6.4433 8.6454 -0.1882 0.9578
4.9302 8.6119 -0.1732 0.9611
3.6298 8.5994 -0.1629 0.9633
2.4584 8.5859 -0.1559 0.9649
1.3854 8.6765 -0.1534 0.9655
0.3284 8.6830 -0.1517 0.9658
-4.1200 8.6539 -0.1673 0.9624
-7.1370 8.7289 -0.1968 0.9559
-9.1076 8.7410 -0.2203 0.9508
-11.6555 8.7567 -0.2545 0.9433
-15.1076 8.7263 -0.3045 0.9326
-20.4260 8.7145 -0.3876 0.9150
-55.1728 9.0280 -0.9758 0.7996
-88.9998 3.7096 -1.5548 0.7002
-75.0318 -5.9305 -1.3138 0.7400
-49.2685 -9.9571 -0.8774 0.8178
-62.2222 -39.0983 -1.2827 0.7453
-15.7803 -20.8367 -0.4562 0.9007
-11.6646 -20.0163 -0.4044 0.9115
-6.0001 -20.3609 -0.3705 0.9186
-3.5743 -21.3284 -0.3775 0.9171
-1.0850 -23.8253 -0.4163 0.9090
32.5226 -24.8283 -0.7142 0.8490
47.7629 -20.8139 -0.9094 0.8119
82.7155 -24.7217 -1.5069 0.7080
87.9008 -15.0791 -1.5567 0.6999
96.4005 6.8731 -1.6869 0.6793
39.8266 18.3994 -0.7658 0.8390
33.1061 20.4489 -0.6792 0.8558
6.6519 8.6441 -0.1904 0.9573
-0.5858 8.6886 -0.1520 0.9658
-5.2852 8.6307 -0.1767 0.9603
-11.2862 8.7544 -0.2493 0.9445
-14.5930 8.7315 -0.2968 0.9342
-63.4052 3.6219 -1.1085 0.7756
-75.0613 -23.5933 -1.3734 0.7300
-16.5399 -21.1547 -0.4687 0.8981
-12.0504 -19.9650 -0.4070 0.9109
-3.9171 -21.3513 -0.3789 0.9168
-1.4029 -23.0046 -0.4023 0.9119
28.9289 -93.2896 -1.7049 0.6766
24.2632 -54.1536 -1.0358 0.7887
28.3587 -47.1208 -0.9600 0.8025
30.3670 -38.9425 -0.8620 0.8207
32.4746 -32.6419 -0.8037 0.8318
32.5177 -25.6266 -0.7227 0.8474
53.7617 -24.4198 -1.0307 0.7896
27.6695 8.4635 -0.5051 0.8907
-36.5152 -30.7333 -2.5013 0.8260
-30.5739 -32.7774 -2.3491 0.8357
-7.7657 -18.9447 -1.0730 0.9213
-5.5561 -20.1940 -1.0976 0.9195
-2.4134 -16.1920 -0.8580 0.9365
-0.6795 -24.7718 -1.2987 0.9055
4.4374 -47.5206 -2.5013 0.8260
15.6542 -45.0871 -2.5013 0.8260
20.9620 -42.8777 -2.5013 0.8260
24.3857 -37.6093 -2.3491 0.8357
28.7310 -34.4042 -2.3491 0.8357
39.0443 -22.0150 -2.3491 0.8357
41.4082 -17.1605 -2.3491 0.8357
47.4869 4.2499 -2.4986 0.8262
43.8404 9.3348 -2.3491 0.8357
27.6327 13.3775 -1.6089 0.8843
10.4046 8.6211 -0.7081 0.9473
8.1795 8.6348 -0.6233 0.9535
6.4075 8.6457 -0.5640 0.9578
1.3616 8.6767 -0.4603 0.9654
-0.7440 8.6896 -0.4571 0.9657
-1.2298 5.8866 -0.3152 0.9762
-2.9299 8.6531 -0.4788 0.9641
-4.1374 8.6308 -0.5016 0.9624
-7.1763 8.7291 -0.5922 0.9557
-9.1569 8.7413 -0.6634 0.9506
-15.1639 8.7047 -0.9163 0.9324
-45.1400 1.7603 -2.3675 0.8345
-40.3433 -25.5014 -2.5013 0.8260
-15.4383 -20.4990 -1.3449 0.9023
-11.2503 -19.4249 -1.1764 0.9140
-8.0893 -18.8994 -1.0774 0.9210
-5.8493 -20.0471 -1.0944 0.9198
9.3997 -46.7926 -2.5013 0.8260
32.1827 -31.1992 -2.3491 0.8357
32.4191 -24.6119 -2.1332 0.8496
38.7006 -22.6138 -2.3491 0.8357
41.1390 -17.7962 -2.3491 0.8357
41.0521 -12.1498 -2.2437 0.8424
47.0617 -7.9434 -2.5013 0.8260
6.6152 8.6444 -0.5705 0.9573
3.7523 8.5833 -0.4909 0.9632
2.5643 8.5433 -0.4675 0.9649
1.4987 8.6758 -0.4614 0.9653
-0.6093 8.6888 -0.4565 0.9657
-3.9786 8.6385 -0.4984 0.9626
-5.2878 8.5833 -0.5283 0.9604
-6.9527 8.7278 -0.5848 0.9563
-8.8773 8.7396 -0.6529 0.9513
-14.6756 8.7276 -0.8948 0.9339
-19.6553 8.6829 -1.1261 0.9175
-24.2350 7.3760 -1.3276 0.9035
-39.8182 -7.5213 -2.1237 0.8502
-40.7313 -24.8770 -2.5013 0.8260
-37.4445 -29.5941 -2.5013 0.8260
-8.5582 -19.1729 -1.1004 0.9193
-6.1248 -19.8491 -1.0886 0.9202
23.2158 -38.3425 -2.3491 0.8357
22.9644 -29.2871 -1.9505 0.8615
31.6984 -31.6913 -2.3491 0.8357
32.4143 -25.4045 -2.1583 0.8479
44.1071 7.9801 -2.3491 0.8357
14.9770 8.9897 -0.9154 0.9324
11.0770 8.6170 -0.7355 0.9453
6.8278 8.6431 -0.5773 0.9568
5.2614 8.6190 -0.5292 0.9604
2.7080 8.5421 -0.4696 0.9647
0.5732 8.6815 -0.4560 0.9658
-0.4749 8.6880 -0.4560 0.9657
-1.5385 8.6945 -0.4627 0.9653
-2.6399 8.6667 -0.4748 0.9644
-3.8210 8.6442 -0.4953 0.9629
-5.1072 8.5833 -0.5234 0.9608
-10.9922 8.7526 -0.7364 0.9453
-14.2096 8.7495 -0.8745 0.9353
-44.6439 8.6004 -2.3827 0.8335
-44.9985 -2.2858 -2.3613 0.8349
-42.9281 -12.8956 -2.3491 0.8357
-43.7268 -19.1277 -2.5013 0.8260
-41.1096 -24.2468 -2.5013 0.8260
-34.1322 -33.3601 -2.5013 0.8260
-12.2364 -19.7021 -1.2155 0.9113
-6.4180 -19.7166 -1.0867 0.9203
-4.1519 -21.1144 -1.1277 0.9174
-1.6209 -21.9734 -1.1547 0.9155
18.9592 -43.8001 -2.5013 0.8260
22.6225 -38.6955 -2.3491 0.8357
29.7277 -30.6509 -2.2378 0.8428
32.4093 -26.2163 -2.1846 0.8462
35.4633 -22.2148 -2.1931 0.8457
39.3707 -12.9837 -2.1726 0.8470
47.5842 -3.6942 -2.5013 0.8260
47.6831 2.0542 -2.5013 0.8260
29.1278 8.5060 -1.5903 0.8856
27.6794 16.0395 -1.6766 0.8797
8.9667 8.6299 -0.6522 0.9514
5.4510 8.6279 -0.5349 0.9599
2.8535 8.5419 -0.4720 0.9646
0.7076 8.6807 -0.4564 0.9657
-1.4006 8.6936 -0.4615 0.9653
-2.4966 8.6734 -0.4730 0.9645
-3.6626 8.6435 -0.4920 0.9631
-8.3436 8.7363 -0.6331 0.9528
-13.7476 8.7599 -0.8543 0.9368
-44.5303 9.2920 -2.3840 0.8334
-45.0627 -1.5937 -2.3631 0.8348
-44.0162 -18.4520 -2.5013 0.8260
-41.4781 -23.6108 -2.5013 0.8260
-38.3382 -28.4268 -2.5013 0.8260
-17.8954 -21.6074 -1.4703 0.8937
-9.2373 -19.0919 -1.1115 0.9186
-6.6535 -19.4185 -1.0758 0.9211
-1.9493 -21.8366 -1.1490 0.9159
1.4118 -44.8010 -2.3491 0.8357
12.8486 -45.9653 -2.5013 0.8260
26.5583 -36.1079 -2.3491 0.8357
30.7073 -32.6524 -2.3491 0.8357
32.4042 -27.0483 -2.2121 0.8445
39.5511 -13.7221 -2.1940 0.8456
47.7091 1.3196 -2.5013 0.8260
44.3320 6.6179 -2.3491 0.8357
30.8498 8.4954 -1.6770 0.8797
20.9103 8.5771 -1.1845 0.9134
11.8042 8.6125 -0.7658 0.9432
9.2458 8.6282 -0.6628 0.9506
4.2402 8.5942 -0.5022 0.9623
3.0029 8.5488 -0.4749 0.9644
1.2724 5.7637 -0.3093 0.9766
0.8423 8.6799 -0.4570 0.9657
-0.2068 8.6863 -0.4554 0.9658
-2.3544 8.6801 -0.4713 0.9646
-3.5063 8.6427 -0.4888 0.9633
-4.7648 8.6001 -0.5153 0.9614
-8.0885 8.7347 -0.6239 0.9534
-10.3182 8.7484 -0.7090 0.9473
-13.3019 8.7668 -0.8349 0.9382
-24.8534 8.8378 -1.3824 0.8997
-44.4055 9.9821 -2.3853 0.8333
-23.4659 2.3683 -1.2360 0.9099
-45.0916 -0.8997 -2.3636 0.8347
-43.3050 -11.5673 -2.3491 0.8357
-41.8369 -22.9691 -2.5013 0.8260
-38.7714 -27.8330 -2.5013 0.8260
-35.1434 -32.2931 -2.5013 0.8260
-6.9723 -19.3706 -1.0789 0.9208
-2.2719 -21.6757 -1.1422 0.9164
0.6027 -37.4297 -1.9619 0.8608
12.1392 -46.1578 -2.5013 0.8260
30.1202 -33.0331 -2.3428 0.8361
39.9652 -20.2953 -2.3491 0.8357
46.4833 -10.8259 -2.5013 0.8260
47.4478 -5.1580 -2.5013 0.8260
33.3364 8.6301 -1.8047 0.8712
7.4979 8.6390 -0.5995 0.9552
5.8428 8.6463 -0.5469 0.9591
0.9773 8.6790 -0.4577 0.9656
-0.0729 8.6855 -0.4552 0.9658
-1.1269 8.6920 -0.4593 0.9655
-6.1103 8.7226 -0.5581 0.9582
-16.6846 8.6351 -0.9846 0.9275
-23.2695 2.7111 -1.2277 0.9104
-42.3731 -5.3280 -2.2382 0.8428
-43.4780 -10.8989 -2.3491 0.8357
-44.4675 -17.0508 -2.4959 0.8263
-39.1954 -27.2327 -2.5013 0.8260
-35.6366 -31.7480 -2.5013 0.8260
-20.3757 -23.1145 -1.6148 0.8839
-2.6051 -21.6342 -1.1420 0.9164
11.4269 -46.3392 -2.5013 0.8260
22.1171 -42.1902 -2.4965 0.8263
32.3935 -28.7777 -2.2708 0.8407
41.8743 -15.9894 -2.3491 0.8357
43.5606 10.5639 -2.3491 0.8357
27.5850 10.3342 -1.5438 0.8887
27.6494 14.3589 -1.6328 0.8827
9.7953 8.5921 -0.6829 0.9491
7.7331 8.6375 -0.6076 0.9546
4.5732 8.5917 -0.5101 0.9618
1.1128 8.6782 -0.4585 0.9656
-2.0728 8.6933 -0.4684 0.9648
-3.1994 8.6412 -0.4829 0.9638
-4.4326 8.6163 -0.5078 0.9619
-5.9102 8.7197 -0.5521 0.9587
-7.5999 8.7317 -0.6067 0.9547
-12.4422 8.7615 -0.7975 0.9409
-16.1256 8.6633 -0.9593 0.9293
-28.0456 7.2187 -1.5177 0.8905
-35.6818 4.7153 -1.8863 0.8657
-45.1374 0.4899 -2.3657 0.8346
-42.3056 -4.6587 -2.2305 0.8433
-43.9200 -16.0694 -2.4510 0.8292
-42.5244 -21.6697 -2.5013 0.8260
-36.1214 -31.1953 -2.5013 0.8260
-21.9126 -24.0993 -1.7070 0.8777
-10.5590 -19.4743 -1.1610 0.9151
10.7118 -46.5098 -2.5013 0.8260
21.5058 -42.6075 -2.5013 0.8260
29.1664 -34.0359 -2.3491 0.8357
33.7995 -24.1923 -2.1783 0.8466
41.6231 -16.6325 -2.3491 0.8357
47.2664 -6.6170 -2.5013 0.8260
47.7191 -0.8854 -2.5013 0.8260
27.6401 13.8178 -1.6195 0.8836
7.9747 8.6360 -0.6160 0.9540
6.2395 8.6467 -0.5588 0.9582
4.7462 8.5948 -0.5145 0.9614
1.2488 8.6774 -0.4594 0.9655
-0.8555 8.6903 -0.4576 0.9656
-6.5486 29.4693 -1.5821 0.8861
-3.0511 8.6474 -0.4806 0.9639
-4.2700 8.6243 -0.5043 0.9622
-9.3949 8.7428 -0.6726 0.9499
-12.0403 8.7590 -0.7803 0.9421
-26.3187 7.2081 -1.4301 0.8965
-44.8735 6.6347 -2.3773 0.8339
-36.3327 0.9542 -1.9048 0.8645
-44.7999 -4.2363 -2.3583 0.8351
-43.1384 -15.0343 -2.3942 0.8328
-42.8531 -21.0122 -2.5013 0.8260
-40.0157 -26.0124 -2.5013 0.8260
-30.6617 -32.6953 -2.3491 0.8357
-14.7387 -20.0971 -1.3061 0.9050
-5.6243 -20.2296 -1.1004 0.9193
-3.2374 -21.3278 -1.1305 0.9172
-0.7385 -24.5242 -1.2858 0.9064
20.8469 -42.9337 -2.5013 0.8260
28.6386 -34.4811 -2.3491 0.8357
31.9924 -30.2347 -2.3069 0.8384
38.9851 -22.1197 -2.3491 0.8357
42.9802 -12.1280 -2.3404 0.8362
27.5712 9.3714 -1.5261 0.8899
27.6312 13.2855 -1.6068 0.8844
13.6403 8.7183 -0.8484 0.9372
8.2233 8.6345 -0.6249 0.9534
6.4433 8.6454 -0.5651 0.9577
3.6204 8.5772 -0.4879 0.9634
2.4465 8.5442 -0.4658 0.9650
-1.2136 5.8880 -0.3151 0.9762
-11.6555 8.7567 -0.7640 0.9433
-24.5643 7.1361 -1.3406 0.9026
-44.8026 7.3311 -2.3792 0.8337
-45.1383 1.8814 -2.3676 0.8345
-44.8886 -3.5480 -2.3598 0.8350
-39.4011 -7.9630 -2.1067 0.8513
-42.5485 -14.0976 -2.3491 0.8357
-40.4115 -25.3932 -2.5013 0.8260
-37.0650 -30.0680 -2.5013 0.8260
-15.5431 -20.5235 -1.3492 0.9020
-11.3276 -19.4380 -1.1791 0.9138
-1.0701 -23.4980 -1.2328 0.9101
3.5724 -47.5243 -2.4977 0.8262
9.2743 -46.8176 -2.5013 0.8260
14.8363 -45.3628 -2.5013 0.8260
23.5948 -37.8726 -2.3385 0.8363
28.1043 -34.9181 -2.3491 0.8357
38.6399 -22.7174 -2.3491 0.8357
40.6185 -12.1399 -2.2218 0.8438
47.0402 -8.0696 -2.5013 0.8260
47.6065 3.3942 -2.5013 0.8260
44.0020 8.5405 -2.3491 0.8357
25.6210 8.2706 -1.4110 0.8978
27.6990 17.1090 -1.7062 0.8777
8.4792 8.6329 -0.6342 0.9527
5.1078 8.6118 -0.5247 0.9607
3.7803 8.5845 -0.4916 0.9631
-0.5858 8.6886 -0.4564 0.9657
-2.7591 8.6611 -0.4764 0.9642
-5.2561 8.5833 -0.5275 0.9605
-6.9144 8.7275 -0.5835 0.9564
-8.8295 8.7393 -0.6511 0.9515
-24.2346 7.4470 -1.3287 0.9034
-44.7210 8.0267 -2.3812 0.8336
-44.9413 -2.8566 -2.3600 0.8350
-39.9070 -7.4274 -2.1273 0.8499
-42.7606 -13.4405 -2.3491 0.8357
