ply
format ascii 1.0
element vertex 1553
property float32 x
property float32 y
property float32 z
property float32 I
end_header
22.0635 -36.7024 -2.2443 0.8424
30.1280 -30.3066 -2.2396 0.8427
38.2826 -23.3226 -2.3493 0.8356
38.3847 -12.1262 -2.1096 0.8511
47.6574 2.6612 -2.5015 0.8260
44.1320 7.8654 -2.3493 0.8356
27.8227 8.5140 -1.5249 0.8900
26.7391 15.9608 -1.6320 0.8827
8.7368 8.6313 -0.6436 0.9520
6.8597 8.6429 -0.5783 0.9568
1.6378 8.5844 -0.4580 0.9656
-0.4580 8.6878 -0.4559 0.9658
-1.5216 8.6944 -0.4626 0.9653
-3.8210 8.6857 -0.4973 0.9627
-5.1269 8.6502 -0.5270 0.9605
-6.6202 8.6077 -0.5691 0.9574
-10.9572 8.7524 -0.7349 0.9454
-14.1992 8.7723 -0.8747 0.9353
-18.6621 8.6226 -1.0774 0.9210
-26.0799 8.4181 -1.4362 0.8960
-37.4715 7.2701 -2.0004 0.8582
-44.9266 -2.2277 -2.3574 0.8351
-43.2624 -12.9444 -2.3666 0.8345
-43.7505 -19.0839 -2.5015 0.8260
-37.9261 -28.9814 -2.5015 0.8260
-32.0856 -31.3052 -2.3493 0.8356
-11.9404 -19.1932 -1.1846 0.9134
-4.2760 -21.6780 -1.1580 0.9153
-2.0040 -26.9720 -1.4174 0.8973
7.9352 -47.0674 -2.5015 0.8260
22.6150 -38.7048 -2.3493 0.8356
27.1069 -35.7032 -2.3493 0.8356
30.5671 -24.7302 -2.0606 0.8543
47.5892 -3.6850 -2.5015 0.8260
47.6868 2.0667 -2.5015 0.8260
25.7030 11.0214 -1.4657 0.8940
25.7698 14.9496 -1.5613 0.8875
8.9561 8.6300 -0.6518 0.9514
7.0363 8.6418 -0.5840 0.9563
2.8666 8.6049 -0.4753 0.9643
1.7500 8.5896 -0.4594 0.9655
-0.3494 8.6872 -0.4556 0.9658
-2.5148 8.7005 -0.4746 0.9644
-4.9849 8.6549 -0.5234 0.9608
-6.4570 8.6158 -0.5643 0.9578
-8.3660 8.7364 -0.6339 0.9527
-10.6792 8.7507 -0.7236 0.9462
-18.1333 8.6542 -1.0530 0.9227
-44.9624 -1.6679 -2.3580 0.8351
-44.2714 -7.0386 -2.3493 0.8356
-43.9851 -18.5370 -2.5015 0.8260
-32.4734 -30.9028 -2.3493 0.8356
-16.5713 -20.0952 -1.3650 0.9009
-2.2510 -25.9186 -1.3634 0.9010
1.6171 -47.6018 -2.4961 0.8263
7.3476 -47.1627 -2.5015 0.8260
12.9678 -45.9363 -2.5015 0.8260
30.5207 -32.2728 -2.3279 0.8370
46.6796 -9.9659 -2.5015 0.8260
47.7089 1.4719 -2.5015 0.8260
44.3144 6.7625 -2.3493 0.8356
30.4648 8.4978 -1.6575 0.8810
20.8103 8.6178 -1.1804 0.9137
5.6088 8.6506 -0.5403 0.9595
4.2125 8.6183 -0.5027 0.9623
2.9884 8.6106 -0.4777 0.9642
-1.2988 8.6930 -0.4606 0.9654
-2.3975 8.6998 -0.4729 0.9645
-3.5739 8.7070 -0.4933 0.9630
-8.1583 8.7352 -0.6264 0.9533
-13.4305 8.7676 -0.8406 0.9378
-44.3975 9.7687 -2.3824 0.8335
-23.2130 2.2350 -1.2222 0.9108
-44.9963 -1.1075 -2.3589 0.8350
-44.2128 -17.9870 -2.5015 0.8260
-41.7280 -23.1751 -2.5015 0.8260
-38.6369 -28.0266 -2.5015 0.8260
-34.9847 -32.4711 -2.5015 0.8260
-17.2584 -20.4046 -1.4006 0.8985
-12.7710 -19.4307 -1.2186 0.9111
-9.4884 -19.1094 -1.1181 0.9181
-7.1837 -20.2896 -1.1280 0.9174
-4.7846 -21.4271 -1.1506 0.9158
-2.4869 -25.0116 -1.3173 0.9042
0.8286 -38.5536 -2.0210 0.8569
6.7589 -47.2506 -2.5015 0.8260
12.3941 -46.0944 -2.5015 0.8260
17.8491 -44.2687 -2.5015 0.8260
36.5849 -24.2094 -2.2991 0.8389
37.5173 -13.4149 -2.0881 0.8525
25.7544 14.0942 -1.5386 0.8891
25.8524 18.5081 -1.6663 0.8804
9.4120 8.6272 -0.6691 0.9501
7.4003 8.6395 -0.5962 0.9555
4.3666 8.6582 -0.5082 0.9619
1.9767 8.6001 -0.4625 0.9653
0.9046 8.5558 -0.4509 0.9661
-1.1881 8.6923 -0.4598 0.9655
-2.2810 8.6991 -0.4713 0.9646
-3.4474 8.7062 -0.4907 0.9632
-6.1387 8.6315 -0.5551 0.9585
-7.9556 8.7339 -0.6192 0.9538
-13.0682 8.7653 -0.8247 0.9389
-17.1379 8.7104 -1.0075 0.9259
-31.0424 7.2371 -1.6705 0.8801
-25.1193 2.7350 -1.3242 0.9037
-44.4332 -5.9325 -2.3493 0.8356
-43.3968 -11.2346 -2.3493 0.8356
-44.4336 -17.4344 -2.5015 0.8260
-42.0136 -22.6530 -2.5015 0.8260
-38.9834 -27.5428 -2.5015 0.8260
-35.3870 -32.0323 -2.5015 0.8260
-9.6922 -18.9236 -1.1143 0.9184
-7.4168 -20.1462 -1.1251 0.9176
-5.0604 -21.4041 -1.1527 0.9157
-2.7123 -24.2087 -1.2767 0.9070
0.4044 -44.8256 -2.3493 0.8356
6.1693 -47.3312 -2.5015 0.8260
11.8183 -46.2454 -2.5015 0.8260
25.7526 -36.6920 -2.3493 0.8356
30.5551 -26.6716 -2.1256 0.8501
33.6082 -22.8474 -2.1298 0.8498
47.4180 -5.4620 -2.5015 0.8260
44.4693 5.6553 -2.3493 0.8356
43.4817 10.9679 -2.3502 0.8356
25.7471 13.6759 -1.5279 0.8898
9.6493 8.6257 -0.6783 0.9495
5.9190 8.6487 -0.5492 0.9589
4.5025 8.6574 -0.5114 0.9617
3.2354 8.6222 -0.4826 0.9638
-0.0242 8.6852 -0.4552 0.9658
-3.1171 5.9129 -0.3504 0.9736
-5.9834 8.6391 -0.5507 0.9588
-19.7253 22.2049 -1.5566 0.8878
-9.8940 8.7458 -0.6921 0.9485
-12.7193 8.7632 -0.8095 0.9400
-29.3383 7.2267 -1.5835 0.8860
-44.9538 5.4625 -2.3733 0.8341
-45.0422 0.0150 -2.3606 0.8349
-43.5336 -10.6925 -2.3493 0.8356
-42.2928 -22.1275 -2.5015 0.8260
-39.3238 -27.0544 -2.5015 0.8260
-35.7836 -31.5886 -2.5015 0.8260
-13.5946 -19.6007 -1.2501 0.9089
-5.3037 -21.2463 -1.1476 0.9160
-2.9287 -23.4894 -1.2406 0.9095
-0.1545 -44.8272 -2.3493 0.8356
11.2408 -46.3891 -2.5015 0.8260
16.7398 -44.7000 -2.5015 0.8260
20.6571 -39.7842 -2.3493 0.8356
29.5617 -33.6988 -2.3493 0.8356
28.8687 -25.8409 -2.0305 0.8563
39.5753 -21.0546 -2.3493 0.8356
41.8207 -16.1408 -2.3493 0.8356
47.7306 -0.3134 -2.5015 0.8260
43.5994 10.4209 -2.3493 0.8356
25.7399 13.2633 -1.5175 0.8905
25.8186 17.5268 -1.6354 0.8825
7.7799 8.6372 -0.6092 0.9545
6.0780 8.6477 -0.5539 0.9585
2.2062 8.6092 -0.4658 0.9650
0.0837 8.6437 -0.4530 0.9660
-0.6387 5.7359 -0.3025 0.9771
-2.0502 8.6976 -0.4683 0.9648
-3.1981 8.7047 -0.4860 0.9635
-3.0292 5.9240 -0.3487 0.9737
-5.8305 8.6466 -0.5465 0.9591
-7.4391 8.5876 -0.5954 0.9555
-9.6472 8.7443 -0.6824 0.9492
-21.9873 8.6439 -1.2382 0.9097
-27.8027 7.2172 -1.5054 0.8913
-37.4862 5.0303 -1.9822 0.8594
-45.0542 0.5767 -2.3614 0.8349
-44.1295 -4.7751 -2.3262 0.8371
-41.7064 -9.6941 -2.2440 0.8424
-42.5655 -21.5983 -2.5015 0.8260
-39.6581 -26.5621 -2.5015 0.8260
-36.1746 -31.1400 -2.5015 0.8260
-10.4908 -19.2821 -1.1504 0.9158
-7.9018 -19.9169 -1.1229 0.9178
-4.2475 -16.1553 -0.8755 0.9353
-3.1406 -22.8636 -1.2095 0.9117
4.9871 -47.4704 -2.5015 0.8260
20.4666 -40.6484 -2.3851 0.8334
28.2853 -33.0664 -2.2805 0.8400
30.5468 -28.0367 -2.1730 0.8470
23.3766 -16.7591 -1.5074 0.8912
41.6163 -16.6610 -2.3493 0.8356
46.1247 -12.2810 -2.5015 0.8260
47.2671 -6.6429 -2.5015 0.8260
47.7230 -0.9085 -2.5015 0.8260
25.7330 12.8561 -1.5075 0.8912
25.8094 17.0544 -1.6212 0.8835
10.1441 8.6227 -0.6977 0.9481
7.9451 8.6024 -0.6137 0.9542
4.7795 8.6557 -0.5182 0.9612
2.3208 8.6084 -0.4673 0.9649
1.0509 47.4295 -2.4863 0.8269
-0.5714 5.7862 -0.3047 0.9770
-1.9359 8.6969 -0.4669 0.9649
-3.0752 8.7039 -0.4838 0.9637
-4.3061 8.6867 -0.5081 0.9619
-5.6787 8.6525 -0.5424 0.9594
-9.4072 8.7428 -0.6731 0.9499
-44.8460 6.5881 -2.3755 0.8340
-44.6938 -4.2732 -2.3530 0.8354
-41.1461 -9.0247 -2.2076 0.8447
-45.0366 -15.7540 -2.5005 0.8260
-42.8315 -21.0659 -2.5015 0.8260
-39.9862 -26.0656 -2.5015 0.8260
-36.5602 -30.6864 -2.5015 0.8260
-14.4089 -19.7067 -1.2794 0.9068
-8.4658 -15.1082 -0.9076 0.9330
-8.1967 -19.9315 -1.1294 0.9173
-3.3247 -22.1513 -1.1739 0.9142
-1.2723 -44.8094 -2.3493 0.8356
10.0805 -46.6550 -2.5015 0.8260
15.6199 -45.1035 -2.5015 0.8260
20.4446 -41.8977 -2.4432 0.8297
32.8637 -24.1865 -2.1385 0.8492
41.4052 -17.1787 -2.3493 0.8356
47.1806 -7.2317 -2.5015 0.8260
47.7079 -1.5036 -2.5015 0.8260
47.4979 4.2426 -2.4992 0.8261
24.2768 8.3226 -1.3450 0.9023
25.8004 16.5900 -1.6076 0.8844
10.4023 8.6211 -0.7081 0.9473
6.4046 8.6457 -0.5639 0.9578
4.9208 8.6548 -0.5218 0.9609
-0.7489 8.6896 -0.4571 0.9657
-1.8223 8.6962 -0.4656 0.9650
-2.9534 8.7032 -0.4817 0.9639
-4.1749 8.6929 -0.5054 0.9621
-7.0716 8.5870 -0.5830 0.9564
-9.1735 8.7414 -0.6641 0.9505
24.1624 11.8200 -2.3533 0.8976
8.1021 8.6264 -1.0354 0.9536
2.3923 8.5871 -0.7799 0.9648
0.2651 8.6823 -0.7600 0.9657
-0.7848 8.6899 -0.7634 0.9656
-2.9933 8.7034 -0.8052 0.9637
-4.2179 8.6909 -0.8452 0.9620
-11.8468 8.7578 -1.2889 0.9426
-15.4587 8.7691 -1.5549 0.9311
-20.6620 8.6241 -1.9588 0.9140
-26.8375 0.9030 -2.3493 0.8978
-28.4843 -2.4831 -2.5015 0.8915
-27.0668 -9.2147 -2.5015 0.8915
-25.7617 -12.4039 -2.5015 0.8915
-8.1449 -19.3441 -1.8363 0.9192
-5.8644 -20.5536 -1.8700 0.9178
12.3235 -25.8003 -2.5015 0.8915
15.3378 -24.1304 -2.5015 0.8915
22.5337 -16.8765 -2.4631 0.8931
24.7812 -14.2623 -2.5015 0.8915
26.3170 -11.1776 -2.5015 0.8915
27.4705 -7.9306 -2.5015 0.8915
28.2250 -4.5683 -2.5015 0.8915
28.4992 2.3054 -2.5015 0.8915
25.4734 8.4954 -2.3493 0.8978
22.8391 14.4173 -2.3630 0.8972
10.5799 8.6200 -1.1940 0.9467
6.5168 8.6450 -0.9472 0.9575
2.5083 8.5880 -0.7827 0.9647
1.4118 8.5536 -0.7585 0.9658
0.3665 8.5193 -0.7460 0.9663
-0.6757 8.6892 -0.7625 0.9656
-1.7464 8.6958 -0.7760 0.9650
-15.0334 8.7774 -1.5230 0.9325
-18.9949 8.2079 -1.8103 0.9203
-26.4805 4.4555 -2.3493 0.8978
-26.8241 1.2376 -2.3493 0.8978
-28.5131 -2.1278 -2.5015 0.8915
-28.0500 -5.5424 -2.5015 0.8915
-25.9144 -12.0817 -2.5015 0.8915
-24.2728 -15.1114 -2.5015 0.8915
-22.2786 -17.9217 -2.5015 0.8915
-1.3212 -26.8201 -2.3493 0.8978
2.0379 -28.5066 -2.5004 0.8916
8.7917 -27.2071 -2.5015 0.8915
24.6014 -14.5702 -2.5015 0.8915
28.5532 -1.4958 -2.5015 0.8915
28.5258 1.9499 -2.5015 0.8915
24.4258 11.2028 -2.3510 0.8977
8.5229 8.6327 -1.0613 0.9525
6.6866 8.6439 -0.9561 0.9571
5.1614 8.6533 -0.8815 0.9604
3.8343 8.6503 -0.8278 0.9627
2.6267 8.5936 -0.7862 0.9646
0.4729 8.5186 -0.7464 0.9663
-0.5667 8.6885 -0.7618 0.9656
-1.6337 8.6951 -0.7740 0.9651
-5.2685 8.6416 -0.8855 0.9602
-6.7668 8.5749 -0.9557 0.9571
-11.2440 8.7541 -1.2467 0.9444
-14.6075 8.7748 -1.4908 0.9339
-25.4410 1.4919 -2.2296 0.9027
-28.1169 -5.1922 -2.5015 0.8915
-27.2881 -8.5369 -2.5015 0.8915
-26.0630 -11.7576 -2.5015 0.8915
-18.9846 -18.9908 -2.3493 0.8978
-15.3787 -19.6264 -2.1814 0.9047
-11.5835 -19.1478 -1.9579 0.9141
-3.9735 -21.5564 -1.9177 0.9157
-1.6556 -26.8016 -2.3493 0.8978
5.1045 -28.1330 -2.5015 0.8915
11.6763 -26.0995 -2.5015 0.8915
14.7313 -24.5053 -2.5015 0.8915
17.5722 -22.5552 -2.5015 0.8915
20.1580 -20.2775 -2.5015 0.8915
24.4037 -14.8673 -2.5001 0.8916
26.0301 -11.8304 -2.5015 0.8915
25.6773 7.8575 -2.3493 0.8978
24.5515 10.8921 -2.3499 0.8978
8.7368 8.6313 -1.0745 0.9519
-0.4580 8.6878 -0.7611 0.9657
-1.5216 8.6944 -0.7722 0.9652
-5.1257 8.6483 -0.8795 0.9604
-26.3611 5.1145 -2.3493 0.8978
-28.1795 -4.8412 -2.5015 0.8915
-19.2200 -18.7526 -2.3493 0.8978
-11.9401 -19.1927 -1.9776 0.9132
-8.8394 -18.9758 -1.8315 0.9194
-6.5812 -20.1735 -1.8565 0.9183
-4.2257 -21.4227 -1.9104 0.9161
4.7533 -28.1945 -2.5015 0.8915
11.3500 -26.2431 -2.5015 0.8915
14.4245 -24.6871 -2.5015 0.8915
17.2896 -22.7726 -2.5015 0.8915
19.9036 -20.5273 -2.5015 0.8915
21.9083 -17.7248 -2.4655 0.8930
27.1547 -8.9524 -2.5015 0.8915
27.5899 4.5630 -2.4466 0.8938
25.7733 7.5368 -2.3493 0.8978
24.6795 10.5825 -2.3493 0.8978
23.3299 13.5342 -2.3597 0.8974
8.9561 8.6300 -1.0881 0.9513
7.0363 8.6418 -0.9750 0.9562
8.4333 17.8132 -1.7243 0.9239
2.8666 8.6049 -0.7935 0.9642
-0.3494 8.6872 -0.7606 0.9657
-1.4100 8.6937 -0.7705 0.9653
-10.7517 25.2914 -2.4044 0.8955
-4.9849 8.6549 -0.8738 0.9607
-10.6792 8.7507 -1.2079 0.9461
-17.8236 8.5064 -1.7278 0.9238
-26.2953 5.4428 -2.3493 0.8978
-24.1795 2.0241 -2.1228 0.9072
-27.9044 -1.0351 -2.4430 0.8939
-26.3481 -11.1041 -2.5015 0.8915
-16.4810 -19.9858 -2.2664 0.9012
-12.3040 -19.2386 -1.9979 0.9124
-4.4760 -21.2899 -1.9033 0.9164
0.8729 -25.6962 -2.2494 0.9019
23.9811 -15.4426 -2.4954 0.8918
25.7269 -12.4758 -2.5015 0.8915
27.0409 -9.2903 -2.5015 0.8915
27.9622 -5.9698 -2.5015 0.8915
28.2263 4.3074 -2.4981 0.8917
7.2164 8.6407 -0.9849 0.9558
4.2125 8.6183 -0.8393 0.9622
1.8585 8.5741 -0.7676 0.9654
-1.2988 8.6930 -0.7690 0.9653
-2.3975 8.6998 -0.7895 0.9644
-4.8458 8.6614 -0.8683 0.9609
-17.3330 8.5392 -1.6905 0.9253
-23.4194 8.2097 -2.1712 0.9052
-26.2254 5.7703 -2.3493 0.8978
-23.0317 2.2175 -2.0243 0.9113
-27.2035 -0.6696 -2.3807 0.8965
-26.4845 -10.7747 -2.5015 0.8915
-24.9960 -13.8824 -2.5015 0.8915
-23.1444 -16.7886 -2.5015 0.8915
-19.6816 -18.2675 -2.3493 0.8978
-12.6756 -19.2855 -2.0191 0.9115
-9.3688 -18.8685 -1.8431 0.9189
-7.0538 -19.9228 -1.8490 0.9186
-4.7245 -21.1581 -1.8967 0.9166
4.0488 -28.3042 -2.5015 0.8915
13.8045 -25.0391 -2.5015 0.8915
23.7493 -15.7157 -2.4915 0.8919
25.5694 -12.7957 -2.5015 0.8915
26.9230 -9.6267 -2.5015 0.8915
27.8855 -6.3181 -2.5015 0.8915
28.4431 -2.9176 -2.5015 0.8915
25.9532 6.8917 -2.3493 0.8978
24.9357 9.9638 -2.3493 0.8978
23.6379 12.9359 -2.3575 0.8975
12.5942 9.0164 -1.3551 0.9397
9.4120 8.6272 -1.1170 0.9500
4.3666 8.6582 -0.8484 0.9618
0.9018 8.5299 -0.7504 0.9661
-0.1325 8.6858 -0.7600 0.9657
-1.1881 8.6923 -0.7676 0.9654
-2.2810 8.6991 -0.7868 0.9645
-4.7085 8.6679 -0.8630 0.9612
-6.1218 8.6076 -0.9241 0.9585
-7.9556 8.7339 -1.0336 0.9537
-16.8631 8.5707 -1.6550 0.9269
-26.1514 6.0968 -2.3493 0.8978
-24.4198 2.6588 -2.1491 0.9061
-26.8507 -0.3260 -2.3493 0.8978
-28.3409 -3.7839 -2.5015 0.8915
-26.6168 -10.4436 -2.5015 0.8915
-23.3519 -16.4987 -2.5015 0.8915
-20.4310 -18.4942 -2.4110 0.8952
-17.5954 -20.2846 -2.3493 0.8978
-13.0551 -19.3333 -2.0410 0.9106
-9.6844 -18.9083 -1.8586 0.9182
-7.2887 -19.7982 -1.8458 0.9188
-2.6653 -23.7894 -2.0943 0.9084
3.6956 -28.3525 -2.5015 0.8915
7.0794 -27.7020 -2.5015 0.8915
13.4912 -25.2093 -2.5015 0.8915
19.1220 -21.2573 -2.5015 0.8915
21.3890 -18.6704 -2.4839 0.8923
26.8008 -9.9618 -2.5015 0.8915
27.8046 -6.6653 -2.5015 0.8915
28.4045 -3.2720 -2.5015 0.8915
28.5918 0.1687 -2.5015 0.8915
26.0371 6.5676 -2.3493 0.8978
25.0580 9.6521 -2.3493 0.8978
23.7860 12.6342 -2.3563 0.8975
12.6007 8.7855 -1.3439 0.9402
7.5880 8.6384 -1.0059 0.9549
5.9190 8.6487 -0.9169 0.9588
4.5025 8.6574 -0.8537 0.9616
-0.7133 5.7527 -0.5071 0.9770
-2.1652 8.6983 -0.7842 0.9646
-3.1159 5.9107 -0.5846 0.9735
-5.9670 8.6154 -0.9169 0.9588
-9.8940 8.7458 -1.1553 0.9484
-12.7193 8.7632 -1.3513 0.9399
-16.4623 8.6269 -1.6260 0.9281
-25.2038 9.5474 -2.3580 0.8974
-26.0734 6.4224 -2.3493 0.8978
-27.7670 -6.8200 -2.5015 0.8915
-26.7449 -10.1109 -2.5015 0.8915
-25.3344 -13.2549 -2.5015 0.8915
-23.5559 -16.2062 -2.5015 0.8915
-21.3887 -18.8813 -2.4961 0.8918
-17.8470 -20.0637 -2.3493 0.8978
-10.0053 -18.9487 -1.8747 0.9176
3.3417 -28.3964 -2.5015 0.8915
6.7335 -27.7882 -2.5015 0.8915
16.1328 -23.6063 -2.5015 0.8915
21.2343 -19.0072 -2.4933 0.8919
23.1840 -16.1871 -2.4738 0.8927
25.2423 -13.4293 -2.5015 0.8915
26.6746 -10.2951 -2.5015 0.8915
28.4067 3.2532 -2.5015 0.8915
26.1170 6.2424 -2.3493 0.8978
23.0132 8.5365 -2.1474 0.9061
12.7164 8.6324 -1.3447 0.9402
9.8932 8.6242 -1.1482 0.9487
7.7799 8.6372 -1.0170 0.9544
6.0780 8.6477 -0.9248 0.9584
1.1189 8.5400 -0.7535 0.9660
0.0837 8.6437 -0.7563 0.9659
-2.0502 8.6976 -0.7818 0.9648
-3.1981 8.7047 -0.8113 0.9634
-3.0286 5.9229 -0.5820 0.9736
-5.8146 8.6231 -0.9099 0.9591
-9.6472 8.7443 -1.1391 0.9491
-16.0992 8.6942 -1.6008 0.9292
-25.9964 6.7483 -2.3498 0.8978
-24.6625 3.3094 -2.1770 0.9049
-28.4264 -3.0759 -2.5015 0.8915
-27.8499 -6.4733 -2.5015 0.8915
-18.0958 -19.8396 -2.3493 0.8978
-10.3318 -18.9899 -1.8914 0.9169
-7.7563 -19.5502 -1.8401 0.9190
-4.2474 -16.1549 -1.4615 0.9351
-3.0814 -22.4329 -1.9810 0.9131
-0.4275 -26.8493 -2.3493 0.8978
6.3865 -27.8700 -2.5015 0.8915
18.5859 -21.7275 -2.5015 0.8915
22.9311 -16.4397 -2.4685 0.8929
26.5441 -10.6269 -2.5015 0.8915
28.3141 -3.9793 -2.5015 0.8915
28.4450 2.8987 -2.5015 0.8915
26.1928 5.9163 -2.3493 0.8978
24.0705 12.0256 -2.3541 0.8976
13.0867 8.6475 -1.3723 0.9390
4.7795 8.6557 -0.8651 0.9611
2.3152 8.5876 -0.7781 0.9649
1.2281 8.5451 -0.7553 0.9659
-1.9359 8.6969 -0.7795 0.9649
-3.0752 8.7039 -0.8076 0.9636
-4.3061 8.6867 -0.8482 0.9618
-5.6629 8.6283 -0.9029 0.9594
-7.2233 8.5517 -0.9794 0.9560
-12.0583 8.7591 -1.3039 0.9419
-21.0029 8.5609 -1.9843 0.9130
-24.7862 3.6412 -2.1918 0.9043
-26.8441 0.6786 -2.3493 0.8978
-26.9888 -9.4408 -2.5015 0.8915
-25.6570 -12.6190 -2.5015 0.8915
-21.9004 -18.3819 -2.5015 0.8915
-18.3418 -19.6124 -2.3493 0.8978
-14.2456 -19.4835 -2.1116 0.9076
-7.9891 -19.4268 -1.8377 0.9191
-3.2898 -21.9190 -1.9391 0.9148
2.6325 -28.4709 -2.5015 0.8915
18.3136 -21.9576 -2.5015 0.8915
20.7901 -19.5650 -2.4977 0.8917
24.8997 -14.0545 -2.5015 0.8915
26.4095 -10.9571 -2.5015 0.8915
28.5782 -0.9007 -2.5015 0.8915
28.4790 2.5438 -2.5015 0.8915
22.7247 14.6123 -2.3637 0.8972
10.4023 8.6211 -1.1820 0.9472
6.4046 8.6457 -0.9413 0.9577
3.6163 8.6400 -0.8194 0.9631
2.4302 8.5868 -0.7808 0.9648
0.2995 8.6475 -0.7570 0.9659
-0.7489 8.6896 -0.7631 0.9656
-1.8223 8.6962 -0.7773 0.9650
-4.1749 8.6929 -0.8437 0.9620
-9.1735 8.7414 -1.1086 0.9504
17.1873 8.4078 -2.3493 0.9258
10.3165 8.6216 -1.6508 0.9473
8.1021 8.6264 -1.4531 0.9534
6.3500 8.6460 -1.3172 0.9577
4.8741 8.6551 -1.2196 0.9608
3.5621 8.6095 -1.1440 0.9631
0.2651 8.6823 -1.0666 0.9656
-1.8596 8.6965 -1.0919 0.9648
-2.9933 8.7034 -1.1301 0.9636
-7.0302 8.4656 -1.3511 0.9566
-9.2497 8.7419 -1.5627 0.9500
-11.8468 8.7578 -1.8089 0.9424
-15.4587 8.7691 -2.1822 0.9309
-17.6572 7.3699 -2.3493 0.9258
-18.4156 5.1923 -2.3493 0.9258
-20.3616 0.6851 -2.5015 0.9212
-20.2961 -1.7693 -2.5015 0.9212
-19.9359 -4.1981 -2.5015 0.9212
-19.2861 -6.5658 -2.5015 0.9212
-17.1597 -10.9823 -2.5015 0.9212
-14.0399 -14.7630 -2.5015 0.9212
-11.4220 -15.3503 -2.3493 0.9258
-5.2497 -18.3993 -2.3493 0.9258
-2.9982 -18.8972 -2.3493 0.9258
1.7060 -20.3016 -2.5015 0.9212
4.1359 -19.9489 -2.5015 0.9212
6.5057 -19.3065 -2.5015 0.9212
12.9178 -15.7542 -2.5015 0.9212
16.3068 -12.2128 -2.5015 0.9212
20.3068 1.6427 -2.5015 0.9212
19.7685 4.0343 -2.4773 0.9219
18.1508 6.0533 -2.3493 0.9258
17.2908 8.1928 -2.3493 0.9258
10.5799 8.6200 -1.6756 0.9465
8.3142 8.6339 -1.4717 0.9528
6.5168 8.6450 -1.3293 0.9573
5.0167 8.6542 -1.2282 0.9605
-0.6757 8.6892 -1.0701 0.9655
-1.7464 8.6958 -1.0890 0.9649
-2.8722 8.7027 -1.1252 0.9637
-4.0729 8.6654 -1.1756 0.9621
-5.3803 8.5825 -1.2437 0.9600
-15.0334 8.7774 -2.1375 0.9322
-18.3494 5.4215 -2.3493 0.9258
-18.8683 3.1747 -2.3493 0.9258
-20.3515 0.9390 -2.5015 0.9212
-20.3167 -1.5161 -2.5015 0.9212
-19.3665 -6.3248 -2.5015 0.9212
-17.2953 -10.7675 -2.5015 0.9212
-14.2229 -14.5868 -2.5015 0.9212
-9.6988 -16.4932 -2.3493 0.9258
-5.4787 -18.3324 -2.3493 0.9258
-3.2336 -18.8583 -2.3493 0.9258
1.4526 -20.3193 -2.5013 0.9212
6.2645 -19.3861 -2.5015 0.9212
8.5511 -18.4917 -2.5015 0.9212
12.7203 -15.9141 -2.5015 0.9212
14.5424 -14.2683 -2.5015 0.9212
18.6511 -8.1977 -2.5015 0.9212
20.0693 -3.5056 -2.5015 0.9212
20.3452 -1.0658 -2.5015 0.9212
20.3257 1.3894 -2.5015 0.9212
19.9187 3.8069 -2.4900 0.9215
18.2249 5.8265 -2.3493 0.9258
16.3057 10.0109 -2.3493 0.9258
6.6866 8.6439 -1.3418 0.9569
5.1614 8.6533 -1.2371 0.9602
3.8203 8.6188 -1.1576 0.9627
2.6207 8.5741 -1.1009 0.9645
0.4710 8.4835 -1.0432 0.9663
-1.6337 8.6951 -1.0863 0.9650
-5.2379 8.5914 -1.2355 0.9603
-6.7057 8.4974 -1.3291 0.9573
-14.6075 8.7748 -2.0923 0.9336
-18.8273 3.4098 -2.3493 0.9258
-20.3382 1.1927 -2.5015 0.9212
-20.0344 -3.6996 -2.5015 0.9212
-19.4438 -6.0829 -2.5015 0.9212
-18.5709 -8.3778 -2.5015 0.9212
-17.4282 -10.5510 -2.5015 0.9212
-16.0324 -12.5709 -2.5015 0.9212
-11.9235 -15.2168 -2.3736 0.9250
-9.9037 -16.3710 -2.3493 0.9258
-3.4685 -18.8166 -2.3493 0.9258
1.1972 -20.3037 -2.4973 0.9213
3.6372 -20.0458 -2.5015 0.9212
8.3198 -18.5969 -2.5015 0.9212
14.3634 -14.4485 -2.5015 0.9212
15.9972 -12.6157 -2.5015 0.9212
17.3986 -10.5996 -2.5015 0.9212
18.5474 -8.4296 -2.5015 0.9212
20.0240 -3.7556 -2.5015 0.9212
20.3304 -1.3194 -2.5015 0.9212
20.0527 3.5739 -2.5010 0.9212
18.2961 5.5988 -2.3493 0.9258
17.4897 7.7592 -2.3493 0.9258
16.4293 9.8068 -2.3493 0.9258
6.8597 8.6429 -1.3548 0.9565
3.9615 8.6447 -1.1676 0.9624
2.7396 8.5787 -1.1057 0.9644
-0.4580 8.6878 -1.0682 0.9655
-1.5216 8.6944 -1.0838 0.9651
-3.8210 8.6857 -1.1651 0.9625
-6.5435 8.5080 -1.3179 0.9577
-10.9572 8.7524 -1.7219 0.9451
-18.2085 5.8774 -2.3493 0.9258
-18.7833 3.6443 -2.3493 0.9258
-20.3217 1.4462 -2.5015 0.9212
-20.3481 -1.0090 -2.5015 0.9212
-20.0790 -3.4496 -2.5015 0.9212
-19.5182 -5.8400 -2.5015 0.9212
-18.6739 -8.1455 -2.5015 0.9212
-17.5584 -10.3329 -2.5015 0.9212
-16.1878 -12.3701 -2.5015 0.9212
-14.5822 -14.2276 -2.5015 0.9212
-12.3023 -15.3032 -2.4109 0.9239
-8.0793 -17.3441 -2.3493 0.9258
-3.7028 -18.7719 -2.3493 0.9258
-1.4177 -19.0810 -2.3493 0.9258
3.3870 -20.0896 -2.5015 0.9212
8.0873 -18.6992 -2.5015 0.9212
12.3195 -16.2263 -2.5015 0.9212
17.2651 -10.8157 -2.5015 0.9212
19.3488 -6.3789 -2.5015 0.9212
20.3123 -1.5728 -2.5015 0.9212
20.3540 0.8821 -2.5015 0.9212
20.1001 3.3243 -2.5015 0.9212
18.3645 5.3703 -2.3493 0.9258
17.5851 7.5404 -2.3493 0.9258
16.5503 9.6012 -2.3493 0.9258
11.7134 8.8358 -1.8015 0.9426
7.0363 8.6418 -1.3683 0.9561
8.2748 17.4784 -2.3744 0.9250
2.8595 8.5833 -1.1108 0.9642
0.6843 8.4931 -1.0462 0.9662
-7.5707 17.8087 -2.3760 0.9250
-6.3840 8.5183 -1.3071 0.9580
-10.6792 8.7507 -1.6952 0.9459
-17.2678 8.2411 -2.3493 0.9258
-18.1338 6.1040 -2.3493 0.9258
-20.3591 -0.7552 -2.5015 0.9212
-20.1204 -3.1989 -2.5015 0.9212
-19.5895 -5.5961 -2.5015 0.9212
-16.3408 -12.1672 -2.5015 0.9212
-14.7585 -14.0446 -2.5015 0.9212
-8.2949 -17.2420 -2.3493 0.9258
-3.9366 -18.7242 -2.3493 0.9258
-1.6555 -19.0618 -2.3493 0.9258
0.6683 -19.6733 -2.4170 0.9237
5.5350 -19.6068 -2.5015 0.9212
10.0579 -17.7173 -2.5015 0.9212
13.9986 -14.8022 -2.5015 0.9212
17.1289 -11.0302 -2.5015 0.9212
19.9241 -4.2537 -2.5015 0.9212
20.2911 -1.8260 -2.5015 0.9212
16.6687 9.3940 -2.3493 0.9258
11.8163 8.6843 -1.8006 0.9426
9.1811 8.6286 -1.5470 0.9505
5.6088 8.6506 -1.2659 0.9593
4.2125 8.6183 -1.1778 0.9621
0.7914 8.4979 -1.0479 0.9662
-4.8211 8.6172 -1.2124 0.9610
-6.2271 8.5285 -1.2966 0.9583
-10.4096 8.7490 -1.6696 0.9467
-13.4305 8.7676 -1.9693 0.9374
-17.1637 8.4558 -2.3493 0.9258
-18.0563 6.3296 -2.3493 0.9258
-18.6866 4.1116 -2.3493 0.9258
-20.3670 -0.5013 -2.5015 0.9212
-20.1588 -2.9477 -2.5015 0.9212
-17.8106 -9.8917 -2.5015 0.9212
-16.4913 -11.9625 -2.5015 0.9212
-13.0968 -15.4843 -2.4901 0.9215
-6.3859 -18.0365 -2.3493 0.9258
-1.8931 -19.0397 -2.3493 0.9258
0.4135 -19.2416 -2.3631 0.9254
2.8849 -20.1679 -2.5015 0.9212
7.6185 -18.8951 -2.5015 0.9212
9.8362 -17.8413 -2.5015 0.9212
11.9111 -16.5285 -2.5015 0.9212
13.8129 -14.9756 -2.5015 0.9212
20.1768 2.8220 -2.5015 0.9212
16.7845 9.1854 -2.3493 0.9258
12.5942 9.0164 -1.9018 0.9395
9.4120 8.6272 -1.5677 0.9498
7.4003 8.6395 -1.3968 0.9552
5.7626 8.6496 -1.2762 0.9590
3.1027 8.5926 -1.1217 0.9639
1.9648 8.5480 -1.0769 0.9653
-0.1325 8.6858 -1.0666 0.9656
-4.6855 8.6255 -1.2053 0.9612
-6.0726 8.5385 -1.2865 0.9587
-7.5649 8.3050 -1.3794 0.9557
-13.0682 8.7653 -1.9321 0.9386
-17.0569 8.6692 -2.3493 0.9258
-17.9760 6.5543 -2.3493 0.9258
-20.0183 2.1796 -2.4725 0.9221
-20.3716 -0.2473 -2.5015 0.9212
-19.7229 -5.1059 -2.5015 0.9212
-17.9325 -9.6689 -2.5015 0.9212
-13.3253 -15.3620 -2.4969 0.9213
-10.7076 -15.8569 -2.3493 0.9258
-6.6103 -17.9554 -2.3493 0.9258
-4.4022 -18.6203 -2.3493 0.9258
0.1726 -19.1328 -2.3493 0.9258
2.6332 -20.2023 -2.5015 0.9212
5.0444 -19.7388 -2.5015 0.9212
7.3823 -18.9886 -2.5015 0.9212
11.7040 -16.6758 -2.5015 0.9212
13.6251 -15.1466 -2.5015 0.9212
15.3483 -13.3975 -2.5015 0.9212
16.8485 -11.4539 -2.5015 0.9212
19.0966 -7.0981 -2.5015 0.9212
19.8118 -4.7493 -2.5015 0.9212
17.8548 6.8775 -2.3493 0.9258
12.6007 8.7855 -1.8861 0.9400
9.6493 8.6257 -1.5892 0.9492
7.5880 8.6384 -1.4118 0.9547
4.5025 8.6574 -1.1982 0.9614
3.2260 8.5972 -1.1275 0.9637
-0.7133 5.7526 -0.7117 0.9769
-2.1652 8.6983 -1.1006 0.9645
-3.3221 8.7054 -1.1441 0.9631
-5.9204 8.5482 -1.2767 0.9590
-7.4172 8.3496 -1.3713 0.9560
-9.8940 8.7458 -1.6214 0.9482
-12.7193 8.7632 -1.8965 0.9397
-16.9475 8.8812 -2.3493 0.9258
-18.5782 4.5762 -2.3493 0.9258
-20.2260 -2.4442 -2.5015 0.9212
-19.0568 -7.2044 -2.5015 0.9212
-16.7845 -11.5476 -2.5015 0.9212
-10.9045 -15.7221 -2.3493 0.9258
-8.9340 -16.9198 -2.3493 0.9258
-6.8336 -17.8716 -2.3493 0.9258
2.3811 -20.2335 -2.5015 0.9212
7.1450 -19.0791 -2.5015 0.9212
9.3882 -18.0811 -2.5015 0.9212
13.4352 -15.3154 -2.5015 0.9212
15.1800 -13.5879 -2.5015 0.9212
17.9861 -9.5689 -2.5015 0.9212
19.7511 -4.9959 -2.5015 0.9212
20.2087 -2.5836 -2.5015 0.9212
18.8905 4.5151 -2.3848 0.9247
17.9392 6.6543 -2.3493 0.9258
12.8846 8.7466 -1.9121 0.9392
7.7799 8.6372 -1.4273 0.9542
1.1152 8.5122 -1.0541 0.9660
-0.6387 5.7358 -0.7086 0.9770
-2.0502 8.6976 -1.0972 0.9646
-3.1981 8.7047 -1.1387 0.9633
-3.0280 5.9218 -0.8166 0.9736
-5.7705 8.5578 -1.2673 0.9593
-9.6472 8.7443 -1.5987 0.9489
-12.3829 8.7611 -1.8625 0.9407
-16.8354 9.0918 -2.3493 0.9258
-18.5198 4.8075 -2.3493 0.9258
-18.9636 2.5447 -2.3493 0.9258
-20.3715 0.2608 -2.5015 0.9212
-16.9271 -11.3374 -2.5015 0.9212
-15.4403 -13.2914 -2.5015 0.9212
-11.0997 -15.5849 -2.3493 0.9258
-0.3046 -19.1311 -2.3493 0.9258
2.1286 -20.2616 -2.5015 0.9212
4.5506 -19.8584 -2.5015 0.9212
6.9065 -19.1668 -2.5015 0.9212
11.2846 -16.9624 -2.5015 0.9212
13.2432 -15.4817 -2.5015 0.9212
15.0094 -13.7761 -2.5015 0.9212
17.8654 -9.7924 -2.5015 0.9212
19.6873 -5.2418 -2.5015 0.9212
20.2682 2.0654 -2.5015 0.9212
19.3537 4.3715 -2.4362 0.9232
18.0207 6.4302 -2.3493 0.9258
10.1441 8.6227 -1.6347 0.9478
6.2398 8.6467 -1.3093 0.9579
1.2241 8.5169 -1.0565 0.9659
-1.9359 8.6969 -1.0940 0.9647
-3.0752 8.7039 -1.1334 0.9635
-4.2877 8.6497 -1.1854 0.9618
-5.6227 8.5672 -1.2582 0.9595
-17.7182 7.2220 -2.3493 0.9258
-20.3666 0.5148 -2.5015 0.9212
-20.2807 -1.9390 -2.5015 0.9212
-19.9001 -4.3647 -2.5015 0.9212
-19.2305 -6.7269 -2.5015 0.9212
-15.6049 -13.0978 -2.5015 0.9212
-13.9159 -14.8799 -2.5015 0.9212
-8.4020 -14.9944 -2.1104 0.9331
-7.2772 -17.6956 -2.3493 0.9258
-5.0955 -18.4426 -2.3493 0.9258
-2.8400 -18.9216 -2.3493 0.9258
4.3026 -19.9136 -2.5015 0.9212
6.6670 -19.2514 -2.5015 0.9212
11.0722 -17.1018 -2.5015 0.9212
13.0491 -15.6456 -2.5015 0.9212
14.8365 -13.9622 -2.5015 0.9212
16.4084 -12.0760 -2.5015 0.9212
18.8178 -7.8074 -2.5015 0.9212
19.6204 -5.4869 -2.5015 0.9212
20.1380 -3.0867 -2.5015 0.9212
20.3630 -0.6418 -2.5015 0.9212
20.2923 1.8126 -2.5015 0.9212
18.0995 6.2049 -2.3493 0.9258
17.2216 8.3372 -2.3493 0.9258
16.0936 10.3484 -2.3493 0.9258
10.4023 8.6211 -1.6589 0.9470
8.1769 8.6348 -1.4602 0.9532
6.4046 8.6457 -1.3211 0.9576
4.9208 8.6548 -1.2224 0.9607
3.6041 8.6110 -1.1462 0.9631
1.3334 8.5216 -1.0591 0.9658
0.2995 8.6475 -1.0624 0.9657
-0.7489 8.6896 -1.0709 0.9655
-5.4770 8.5764 -1.2495 0.9598
12.4432 8.0736 -2.3493 0.9417
10.3165 8.6216 -2.1294 0.9470
8.1021 8.6264 -1.8744 0.9532
6.3500 8.6460 -1.6990 0.9575
3.5446 8.5674 -1.4685 0.9631
0.2651 8.6823 -1.3758 0.9654
-0.7848 8.6899 -1.3819 0.9653
-13.6884 5.7134 -2.3493 0.9417
-15.7342 -1.3716 -2.5015 0.9380
-14.9512 -5.0900 -2.5015 0.9380
-13.3027 -8.5138 -2.5015 0.9380
-12.1819 -10.0522 -2.5015 0.9380
-2.4748 -15.5988 -2.5015 0.9380
-0.5804 -15.7832 -2.5015 0.9380
1.3226 -15.7384 -2.5015 0.9380
3.2063 -15.4650 -2.5015 0.9380
6.8073 -14.2516 -2.5015 0.9380
8.4723 -13.3292 -2.5015 0.9380
11.4107 -10.9198 -2.5015 0.9380
14.5370 -6.1743 -2.5015 0.9380
15.1742 -4.3807 -2.5015 0.9380
15.5910 -2.5234 -2.5015 0.9380
15.7813 -0.6296 -2.5015 0.9380
15.4749 3.1581 -2.5015 0.9380
12.5429 7.9178 -2.3493 0.9417
3.6812 8.5927 -1.4806 0.9628
2.4811 8.4948 -1.4017 0.9648
-0.6757 8.6892 -1.3804 0.9653
-1.7464 8.6958 -1.4048 0.9647
-2.8722 8.7027 -1.4515 0.9636
-4.0729 8.6654 -1.5165 0.9620
-5.3296 8.5015 -1.5892 0.9602
-9.0202 8.7405 -1.9893 0.9504
-12.8094 7.4789 -2.3493 0.9417
-14.2250 4.2029 -2.3493 0.9417
-15.5750 2.6206 -2.5015 0.9380
-12.3063 -9.8996 -2.5015 0.9380
-8.0059 -13.6144 -2.5015 0.9380
-6.3011 -14.4582 -2.4980 0.9381
-4.5110 -15.0944 -2.4952 0.9382
-2.6689 -15.5653 -2.5013 0.9380
1.1262 -15.7537 -2.5015 0.9380
4.8564 -15.0287 -2.5015 0.9380
11.2737 -11.0612 -2.5015 0.9380
12.5225 -9.6247 -2.5015 0.9380
13.5894 -8.0483 -2.5015 0.9380
15.1184 -4.5696 -2.5015 0.9380
15.5583 -2.7177 -2.5015 0.9380
15.7571 1.0771 -2.5015 0.9380
15.5131 2.9648 -2.5015 0.9380
14.1662 4.5290 -2.3556 0.9415
5.1614 8.6533 -1.5958 0.9600
2.5978 8.4990 -1.4076 0.9646
0.4625 8.3305 -1.3215 0.9668
-1.6337 8.6951 -1.4013 0.9648
-2.7522 8.7020 -1.4455 0.9637
-5.1888 8.5109 -1.5788 0.9604
-6.6056 8.3706 -1.6889 0.9577
-13.5417 6.0530 -2.3493 0.9417
-14.1715 4.3800 -2.3493 0.9417
-15.5410 2.8146 -2.5015 0.9380
-15.7668 0.9246 -2.5015 0.9380
-15.7635 -0.9789 -2.5015 0.9380
-15.0735 -4.7156 -2.5015 0.9380
-14.3967 -6.4947 -2.5015 0.9380
-12.4288 -9.7454 -2.5015 0.9380
-6.4827 -14.3826 -2.4987 0.9381
-0.9738 -15.7638 -2.5015 0.9380
2.8196 -15.5401 -2.5015 0.9380
6.4498 -14.4169 -2.5015 0.9380
8.1373 -13.5363 -2.5015 0.9380
13.4879 -8.2172 -2.5015 0.9380
14.3785 -6.5349 -2.5015 0.9380
15.7607 -1.0229 -2.5015 0.9380
15.7693 0.8806 -2.5015 0.9380
13.5585 6.0151 -2.3493 0.9417
11.7294 9.0795 -2.3493 0.9417
6.8597 8.6429 -1.7477 0.9563
5.3083 8.6524 -1.6078 0.9597
3.9615 8.6447 -1.5061 0.9622
1.6143 8.4616 -1.3644 0.9657
-1.5216 8.6944 -1.3980 0.9649
-2.6330 8.7012 -1.4399 0.9639
-6.4697 8.4120 -1.6808 0.9579
-8.5786 8.7377 -1.9394 0.9516
-14.1158 4.5563 -2.3493 0.9417
-15.4957 3.0064 -2.5000 0.9381
-15.7745 -0.7822 -2.5015 0.9380
-15.5658 -2.6742 -2.5015 0.9380
-14.4766 -6.3147 -2.5015 0.9380
-12.5493 -9.5897 -2.5015 0.9380
-11.3046 -11.0296 -2.5015 0.9380
-8.3429 -13.4105 -2.5015 0.9380
-6.6641 -14.3061 -2.4996 0.9381
-4.8858 -14.9764 -2.4951 0.9382
-3.0538 -15.4818 -2.4993 0.9381
0.7330 -15.7769 -2.5015 0.9380
2.6257 -15.5741 -2.5015 0.9380
4.4801 -15.1451 -2.5015 0.9380
6.2695 -14.4962 -2.5015 0.9380
10.9944 -11.3389 -2.5015 0.9380
13.3844 -8.3847 -2.5015 0.9380
14.2959 -6.7137 -2.5015 0.9380
14.9997 -4.9451 -2.5015 0.9380
15.4857 -3.1048 -2.5015 0.9380
15.7791 0.6838 -2.5015 0.9380
11.8417 8.9325 -2.3493 0.9417
8.9561 8.6300 -1.9699 0.9509
6.3744 13.4644 -2.3595 0.9415
2.8342 8.5074 -1.4203 0.9643
1.7248 8.4660 -1.3684 0.9656
-0.3494 8.6872 -1.3770 0.9654
-1.4100 8.6937 -1.3949 0.9650
-4.9125 8.5292 -1.5589 0.9609
-6.3208 8.4340 -1.6693 0.9582
-14.0579 4.7320 -2.3493 0.9417
-15.5980 -2.4799 -2.5015 0.9380
-15.1864 -4.3383 -2.5015 0.9380
-14.5542 -6.1337 -2.5015 0.9380
-13.7106 -7.8400 -2.5015 0.9380
-11.4412 -10.8878 -2.5015 0.9380
-8.5095 -13.3054 -2.5015 0.9380
-6.8447 -14.2275 -2.5006 0.9381
4.2909 -15.1998 -2.5015 0.9380
7.7972 -13.7350 -2.5015 0.9380
10.8521 -11.4751 -2.5015 0.9380
12.1538 -10.0862 -2.5015 0.9380
13.2789 -8.5509 -2.5015 0.9380
14.2111 -6.8914 -2.5015 0.9380
14.9369 -5.1318 -2.5015 0.9380
15.4458 -3.2976 -2.5015 0.9380
15.7303 -1.4156 -2.5015 0.9380
11.0320 3.0772 -1.8140 0.9547
9.1811 8.6286 -1.9956 0.9503
7.2164 8.6407 -1.7831 0.9554
5.6088 8.6506 -1.6329 0.9591
4.2125 8.6183 -1.5193 0.9619
-0.2409 8.6865 -1.3763 0.9654
-2.3975 8.6998 -1.4293 0.9641
-4.7768 8.5380 -1.5495 0.9612
-6.1660 8.4447 -1.6561 0.9585
-7.5466 8.0802 -1.7511 0.9562
-12.4206 8.1083 -2.3493 0.9417
-13.3058 6.5552 -2.3493 0.9417
-15.2393 -4.1486 -2.5015 0.9380
-13.8073 -7.6684 -2.5015 0.9380
-12.7845 -9.2737 -2.5015 0.9380
-11.5761 -10.7444 -2.5015 0.9380
-10.1995 -12.0589 -2.5015 0.9380
-1.5627 -15.7164 -2.5015 0.9380
2.2365 -15.6347 -2.5015 0.9380
4.1011 -15.2521 -2.5015 0.9380
9.2338 -12.8134 -2.5015 0.9380
12.0271 -10.2370 -2.5015 0.9380
14.8718 -5.3176 -2.5015 0.9380
15.4035 -3.4900 -2.5015 0.9380
15.7114 -1.6116 -2.5015 0.9380
15.1412 4.0207 -2.4812 0.9385
13.7740 5.5038 -2.3493 0.9417
9.4120 8.6272 -2.0222 0.9496
0.8914 8.4316 -1.3429 0.9662
-0.1325 8.6858 -1.3759 0.9654
-2.2810 8.6991 -1.4244 0.9642
-3.4474 8.7062 -1.4831 0.9628
-4.6491 8.5585 -1.5426 0.9613
-6.0134 8.4552 -1.6433 0.9589
-7.4014 8.1255 -1.7408 0.9565
-12.3185 8.2625 -2.3493 0.9417
-14.9895 3.4946 -2.4378 0.9396
-15.7011 1.7095 -2.5015 0.9380
-15.6550 -2.0902 -2.5015 0.9380
-14.7026 -5.7689 -2.5015 0.9380
-13.9019 -7.4956 -2.5015 0.9380
-12.8992 -9.1136 -2.5015 0.9380
-11.7092 -10.5991 -2.5015 0.9380
-8.8386 -13.0891 -2.5015 0.9380
-5.4435 -14.7862 -2.4956 0.9382
0.1425 -15.7932 -2.5015 0.9380
2.0414 -15.6614 -2.5015 0.9380
3.9105 -15.3021 -2.5015 0.9380
5.7230 -14.7205 -2.5015 0.9380
7.4523 -13.9251 -2.5015 0.9380
9.0733 -12.9276 -2.5015 0.9380
13.0615 -8.8794 -2.5015 0.9380
14.0348 -7.2436 -2.5015 0.9380
15.6677 1.9925 -2.5015 0.9380
15.2411 3.8444 -2.4896 0.9383
12.1675 8.4834 -2.3493 0.9417
9.6493 8.6257 -2.0499 0.9489
4.5025 8.6574 -1.5455 0.9613
-0.0242 8.6852 -1.3756 0.9654
-3.3221 8.7054 -1.4758 0.9630
-3.1136 5.9063 -1.0576 0.9733
-5.8632 8.4655 -1.6310 0.9592
-7.2577 8.1701 -1.7309 0.9567
-12.2146 8.4155 -2.3493 0.9417
-13.1382 6.8849 -2.3493 0.9417
-13.8710 5.2545 -2.3493 0.9417
-14.5791 3.5911 -2.3781 0.9410
-15.6785 1.9052 -2.5015 0.9380
-15.7939 0.0052 -2.5015 0.9380
-15.6798 -1.8948 -2.5015 0.9380
-15.3380 -3.7673 -2.5015 0.9380
-13.9942 -7.3217 -2.5015 0.9380
-13.0118 -8.9520 -2.5015 0.9380
-11.8404 -10.4523 -2.5015 0.9380
-10.4970 -11.8008 -2.5015 0.9380
-9.0012 -12.9779 -2.5015 0.9380
-3.8176 -15.2930 -2.4965 0.9382
-1.9540 -15.6725 -2.5015 0.9380
-0.0544 -15.7938 -2.5015 0.9380
1.8459 -15.6856 -2.5015 0.9380
7.2781 -14.0170 -2.5015 0.9380
8.9115 -13.0397 -2.5015 0.9380
10.4154 -11.8730 -2.5015 0.9380
11.7680 -10.5338 -2.5015 0.9380
13.9434 -7.4181 -2.5015 0.9380
14.7345 -5.6868 -2.5015 0.9380
15.3116 -3.8730 -2.5015 0.9380
15.6913 1.7970 -2.5015 0.9380
15.3394 3.6664 -2.4980 0.9381
13.9070 5.1586 -2.3493 0.9417
12.2723 8.3310 -2.3493 0.9417
7.7799 8.6372 -1.8411 0.9540
6.0780 8.6477 -1.6741 0.9581
3.3212 8.5259 -1.4492 0.9636
1.1059 8.4407 -1.3483 0.9661
0.0837 8.6437 -1.3691 0.9656
-2.0502 8.6976 -1.4153 0.9645
-3.1981 8.7047 -1.4688 0.9631
-3.0275 5.9206 -1.0532 0.9734
-13.8045 5.4270 -2.3493 0.9417
-14.3571 3.7269 -2.3493 0.9417
-15.7022 -1.6991 -2.5015 0.9380
-15.3838 -3.5758 -2.5015 0.9380
-14.0845 -7.1466 -2.5015 0.9380
-13.1224 -8.7891 -2.5015 0.9380
-10.6434 -11.6690 -2.5015 0.9380
-9.1623 -12.8647 -2.5015 0.9380
-7.5481 -13.8734 -2.5015 0.9380
-0.2514 -15.7919 -2.5015 0.9380
1.6502 -15.7074 -2.5015 0.9380
5.3541 -14.8587 -2.5015 0.9380
10.2665 -12.0019 -2.5015 0.9380
11.6358 -10.6797 -2.5015 0.9380
12.8360 -9.2024 -2.5015 0.9380
15.6402 -2.1981 -2.5015 0.9380
15.7910 -0.3006 -2.5015 0.9380
15.4058 3.4798 -2.5015 0.9380
13.9702 4.9849 -2.3493 0.9417
13.2691 6.6292 -2.3493 0.9417
4.7795 8.6557 -1.5660 0.9607
3.4542 8.5506 -1.4606 0.9633
2.2882 8.4876 -1.3923 0.9650
0.3308 14.9280 -2.3649 0.9413
-0.5714 5.7859 -0.9209 0.9767
-1.9359 8.6969 -1.4112 0.9646
-3.0752 8.7039 -1.4621 0.9633
-5.5691 8.4855 -1.6076 0.9597
-6.9748 8.2575 -1.7120 0.9572
-9.4072 8.7428 -2.0341 0.9493
-12.0009 8.7175 -2.3493 0.9417
-13.7357 5.5987 -2.3493 0.9417
-14.3095 3.9057 -2.3493 0.9417
-15.4272 -3.3837 -2.5015 0.9380
-14.9081 -5.2149 -2.5015 0.9380
-12.0974 -10.1538 -2.5015 0.9380
-9.3220 -12.7494 -2.5015 0.9380
-7.7206 -13.7782 -2.5015 0.9380
-5.9959 -14.5800 -2.4969 0.9382
-0.4483 -15.7875 -2.5015 0.9380
1.4542 -15.7268 -2.5015 0.9380
3.3355 -15.4376 -2.5015 0.9380
6.9262 -14.1941 -2.5015 0.9380
8.5835 -13.2578 -2.5015 0.9380
12.7203 -9.3617 -2.5015 0.9380
13.7541 -7.7634 -2.5015 0.9380
14.5881 -6.0525 -2.5015 0.9380
15.2103 -4.2536 -2.5015 0.9380
15.7860 -0.4975 -2.5015 0.9380
15.4480 3.2874 -2.5015 0.9380
14.0313 4.8102 -2.3493 0.9417
12.4763 8.0224 -2.3493 0.9417
10.4023 8.6211 -2.1398 0.9468
4.9208 8.6548 -1.5769 0.9605
2.4034 8.4919 -1.3978 0.9649
1.3222 8.4497 -1.3546 0.9660
0.2995 8.6475 -1.3704 0.9656
-0.7489 8.6896 -1.3814 0.9653
-2.9534 8.7032 -1.4557 0.9635
-5.4251 8.4951 -1.5965 0.9600
-6.8355 8.3003 -1.7031 0.9574
-9.1735 8.7414 -2.0070 0.9500
10.8567 5.3110 -2.3493 0.9519
4.4473 2.8855 -1.0305 0.9786
6.3500 8.6460 -2.0852 0.9572
3.5446 8.5674 -1.8022 0.9629
1.2714 8.3493 -1.6417 0.9662
0.2651 8.6823 -1.6885 0.9652
-0.7848 8.6899 -1.6960 0.9651
-2.9933 8.7034 -1.7890 0.9632
-4.1946 8.6428 -1.8674 0.9616
-7.7214 9.2981 -2.3493 0.9519
-9.7188 7.1847 -2.3493 0.9519
-10.5125 5.9634 -2.3493 0.9519
-12.7164 1.9769 -2.5015 0.9489
-12.1825 -4.1475 -2.5015 0.9489
-11.5951 -5.5829 -2.5015 0.9489
-7.6429 -10.2715 -2.4887 0.9492
-3.5309 -12.3753 -2.5015 0.9489
-2.0165 -12.7102 -2.5015 0.9489
-0.4729 -12.8604 -2.5015 0.9489
2.6125 -12.6012 -2.5015 0.9489
6.9034 -10.8608 -2.5015 0.9489
8.1598 -9.9515 -2.5015 0.9489
9.2977 -8.8976 -2.5015 0.9489
10.3005 -7.7145 -2.5015 0.9489
11.1538 -6.4193 -2.5015 0.9489
12.3642 -3.5695 -2.5015 0.9489
12.7038 -2.0562 -2.5015 0.9489
12.8589 -0.5130 -2.5015 0.9489
12.8272 1.0377 -2.5015 0.9489
12.6092 2.5732 -2.5015 0.9489
12.2081 4.0714 -2.5015 0.9489
4.4880 2.8330 -1.0316 0.9786
6.5168 8.6450 -2.1044 0.9568
5.0167 8.6542 -1.9444 0.9601
2.4594 8.4205 -1.7052 0.9649
1.3822 8.3740 -1.6498 0.9660
-1.7464 8.6958 -1.7240 0.9645
-2.8722 8.7027 -1.7814 0.9633
-4.0729 8.6654 -1.8612 0.9617
-11.0946 4.7941 -2.3493 0.9519
-12.3302 3.6431 -2.4992 0.9490
-12.2333 -3.9952 -2.5015 0.9489
-10.9249 -6.8015 -2.5015 0.9489
-8.9842 -9.2141 -2.5015 0.9489
-7.8105 -10.2279 -2.5015 0.9489
-3.6849 -12.3303 -2.5015 0.9489
-2.1749 -12.6840 -2.5015 0.9489
-0.6332 -12.8535 -2.5015 0.9489
0.9177 -12.8364 -2.5015 0.9489
2.4552 -12.6327 -2.5015 0.9489
5.4015 -11.6807 -2.5015 0.9489
6.7674 -10.9461 -2.5015 0.9489
10.2035 -7.8423 -2.5015 0.9489
12.3187 -3.7234 -2.5015 0.9489
12.6404 2.4158 -2.5015 0.9489
10.9858 5.0386 -2.3493 0.9519
4.5657 2.8031 -1.0414 0.9784
8.4913 8.6007 -2.3493 0.9519
6.6866 8.6439 -2.1243 0.9564
2.5750 8.4243 -1.7123 0.9647
1.4917 8.3854 -1.6555 0.9659
0.4531 8.1627 -1.5891 0.9672
-0.5667 8.6885 -1.6925 0.9651
-1.6337 8.6951 -1.7197 0.9646
-5.1600 8.4637 -1.9268 0.9604
-9.5366 7.4248 -2.3493 0.9519
-11.0340 4.9321 -2.3493 0.9519
-12.8471 0.7534 -2.5015 0.9489
-12.8444 -0.7976 -2.5015 0.9489
-12.6552 -2.3369 -2.5015 0.9489
-11.7307 -5.2920 -2.5015 0.9489
-11.0089 -6.6648 -2.5015 0.9489
-10.1272 -7.9407 -2.5015 0.9489
-5.2882 -11.7324 -2.5015 0.9489
-3.8384 -12.2834 -2.5015 0.9489
-0.7934 -12.8446 -2.5015 0.9489
3.8041 -12.2940 -2.5015 0.9489
5.2554 -11.7471 -2.5015 0.9489
7.9091 -10.1519 -2.5015 0.9489
9.0729 -9.1267 -2.5015 0.9489
10.1050 -7.9690 -2.5015 0.9489
11.7159 -5.3247 -2.5015 0.9489
12.2713 -3.8767 -2.5015 0.9489
12.8491 0.7175 -2.5015 0.9489
12.6695 2.2580 -2.5015 0.9489
12.3058 3.7657 -2.5015 0.9489
11.0477 4.9012 -2.3493 0.9519
4.2096 3.2586 -1.0348 0.9785
8.5979 8.4941 -2.3493 0.9519
6.8597 8.6429 -2.1448 0.9560
3.9615 8.6447 -1.8484 0.9620
2.6915 8.4282 -1.7198 0.9646
0.5570 8.1868 -1.5950 0.9671
-1.5216 8.6944 -1.7157 0.9647
-2.6330 8.7012 -1.7671 0.9636
-3.8210 8.6857 -1.8445 0.9621
-6.3360 8.2382 -2.0202 0.9585
-8.4673 8.6244 -2.3493 0.9519
-9.4433 7.5431 -2.3493 0.9519
-10.2821 6.3523 -2.3493 0.9519
-10.9716 5.0693 -2.3493 0.9519
-12.2125 3.9420 -2.4945 0.9491
-12.6335 2.4511 -2.5015 0.9489
-12.6833 -2.1790 -2.5015 0.9489
-11.7958 -5.1453 -2.5015 0.9489
-10.2254 -7.8138 -2.5015 0.9489
-3.9913 -12.2346 -2.5015 0.9489
-2.4905 -12.6258 -2.5015 0.9489
-0.9535 -12.8338 -2.5015 0.9489
0.5973 -12.8553 -2.5015 0.9489
5.1085 -11.8118 -2.5015 0.9489
6.4923 -11.1114 -2.5015 0.9489
8.9584 -9.2391 -2.5015 0.9489
12.2221 -4.0294 -2.5015 0.9489
12.6180 -2.5298 -2.5015 0.9489
12.8307 -0.9935 -2.5015 0.9489
12.8571 0.5572 -2.5015 0.9489
11.1080 4.7631 -2.3493 0.9519
4.2456 3.2026 -1.0337 0.9786
8.7032 8.3863 -2.3493 0.9519
7.0363 8.6418 -2.1662 0.9556
5.4574 8.6515 -1.9883 0.9592
2.8091 8.4321 -1.7276 0.9644
1.7101 8.3937 -1.6651 0.9657
-1.4100 8.6937 -1.7120 0.9647
-2.5148 8.7005 -1.7604 0.9638
-4.9023 8.5115 -1.9093 0.9608
-8.3591 8.7293 -2.3493 0.9519
-10.2021 6.4800 -2.3493 0.9519
-10.9076 5.2057 -2.3493 0.9519
-12.6020 2.6084 -2.5015 0.9489
-12.8243 1.0735 -2.5015 0.9489
-12.7095 -2.0207 -2.5015 0.9489
-12.3741 -3.5349 -2.5015 0.9489
-11.8590 -4.9978 -2.5015 0.9489
-11.1717 -6.3882 -2.5015 0.9489
-10.3220 -7.6857 -2.5015 0.9489
-8.1875 -9.9287 -2.5015 0.9489
-6.9337 -10.8415 -2.5015 0.9489
-5.5791 -11.5969 -2.5015 0.9489
-4.1435 -12.1838 -2.5015 0.9489
0.4369 -12.8617 -2.5015 0.9489
4.9608 -11.8745 -2.5015 0.9489
7.6535 -10.3459 -2.5015 0.9489
11.5794 -5.6152 -2.5015 0.9489
12.3959 3.4577 -2.5015 0.9489
11.1665 4.6242 -2.3493 0.9519
4.7988 2.7045 -1.0707 0.9778
4.2815 3.1467 -1.0328 0.9786
8.8071 8.2771 -2.3493 0.9519
4.2125 8.6183 -1.8646 0.9617
1.8203 8.3978 -1.6703 0.9656
-1.2988 8.6930 -1.7085 0.9648
-3.5739 8.7070 -1.8295 0.9624
-8.2496 8.8328 -2.3493 0.9519
-10.1205 6.6068 -2.3493 0.9519
-11.6436 4.0817 -2.3983 0.9510
-12.5685 2.7654 -2.5015 0.9489
-12.8099 1.2333 -2.5015 0.9489
-12.8652 -0.3167 -2.5015 0.9489
-12.4172 -3.3803 -2.5015 0.9489
-11.9204 -4.8496 -2.5015 0.9489
-9.4324 -8.7547 -2.5015 0.9489
-4.2951 -12.1312 -2.5015 0.9489
-2.8045 -12.5598 -2.5015 0.9489
0.2765 -12.8662 -2.5015 0.9489
3.3416 -12.4277 -2.5015 0.9489
6.2133 -11.2699 -2.5015 0.9489
10.7321 -7.1018 -2.5015 0.9489
12.8020 -1.3132 -2.5015 0.9489
12.7451 1.7826 -2.5015 0.9489
12.4381 3.3029 -2.5015 0.9489
11.4431 4.5725 -2.3953 0.9510
4.8763 2.6686 -1.0805 0.9776
4.3167 3.0904 -1.0319 0.9786
5.7626 8.6496 -2.0203 0.9585
4.3666 8.6582 -1.8849 0.9613
1.9312 8.4019 -1.6757 0.9655
-0.1325 8.6858 -1.6886 0.9652
-1.1881 8.6923 -1.7053 0.9649
-5.9450 8.3591 -1.9939 0.9591
-9.1546 7.8910 -2.3493 0.9519
-12.5330 2.9219 -2.5015 0.9489
-12.8682 -0.1562 -2.5015 0.9489
-12.7559 -1.7031 -2.5015 0.9489
-11.3275 -6.1076 -2.5015 0.9489
-7.2019 -10.6653 -2.5015 0.9489
-5.8666 -11.4542 -2.5015 0.9489
-4.4460 -12.0767 -2.5015 0.9489
-1.4328 -12.7891 -2.5015 0.9489
0.1161 -12.8686 -2.5015 0.9489
3.1864 -12.4684 -2.5015 0.9489
6.0723 -11.3464 -2.5015 0.9489
8.6066 -9.5677 -2.5015 0.9489
10.6427 -7.2351 -2.5015 0.9489
11.4358 -5.9022 -2.5015 0.9489
12.7846 -1.4727 -2.5015 0.9489
12.4783 3.1475 -2.5015 0.9489
4.9651 2.6373 -1.0928 0.9774
4.3511 3.0337 -1.0311 0.9786
9.0107 8.0549 -2.3493 0.9519
4.5025 8.6574 -1.8968 0.9610
3.1902 8.5016 -1.7651 0.9637
0.9804 8.2839 -1.6215 0.9666
-2.1652 8.6983 -1.7424 0.9641
-3.1125 5.9041 -1.2973 0.9732
-5.8064 8.3835 -1.9823 0.9593
-8.0268 9.0358 -2.3493 0.9519
-10.7053 5.6100 -2.3493 0.9519
-12.8691 0.0043 -2.5015 0.9489
-12.7762 -1.5439 -2.5015 0.9489
-11.4028 -5.9659 -2.5015 0.9489
-10.6023 -7.2943 -2.5015 0.9489
-8.5531 -9.6155 -2.5015 0.9489
-6.0089 -11.3801 -2.5015 0.9489
-4.5963 -12.0204 -2.5015 0.9489
-3.1169 -12.4860 -2.5015 0.9489
-1.5922 -12.7702 -2.5015 0.9489
3.0307 -12.5072 -2.5015 0.9489
7.2612 -10.6250 -2.5015 0.9489
12.0060 -4.6337 -2.5015 0.9489
12.4762 -3.1558 -2.5015 0.9489
12.5166 2.9917 -2.5015 0.9489
6.0780 8.6477 -2.0546 0.9578
3.3212 8.5259 -1.7786 0.9634
1.0885 8.3083 -1.6288 0.9664
-0.6368 5.7185 -1.1184 0.9768
-2.0502 8.6976 -1.7370 0.9642
-3.1981 8.7047 -1.8026 0.9629
-3.0269 5.9195 -1.2923 0.9733
-7.5516 8.7175 -2.2419 0.9541
-11.2481 4.4220 -2.3493 0.9519
-12.4563 3.2335 -2.5015 0.9489
-12.7548 1.7116 -2.5015 0.9489
-12.7944 -1.3845 -2.5015 0.9489
-12.5350 -2.9136 -2.5015 0.9489
-9.7532 -8.3958 -2.5015 0.9489
-8.6724 -9.5081 -2.5015 0.9489
-6.1503 -11.3043 -2.5015 0.9489
-4.7458 -11.9621 -2.5015 0.9489
-1.7513 -12.7494 -2.5015 0.9489
-0.2049 -12.8675 -2.5015 0.9489
2.8745 -12.5440 -2.5015 0.9489
4.3626 -12.1071 -2.5015 0.9489
5.7874 -11.4944 -2.5015 0.9489
8.3653 -9.7793 -2.5015 0.9489
10.4590 -7.4983 -2.5015 0.9489
11.9473 -4.7831 -2.5015 0.9489
12.7439 -1.7910 -2.5015 0.9489
12.8028 1.3047 -2.5015 0.9489
12.5529 2.8354 -2.5015 0.9489
10.8119 5.4016 -2.3493 0.9519
4.4222 2.9221 -1.0303 0.9786
6.2398 8.6467 -2.0727 0.9575
4.7795 8.6557 -1.9219 0.9605
2.2683 8.4139 -1.6939 0.9651
0.2683 12.1095 -2.3544 0.9518
-1.9359 8.6969 -1.7319 0.9643
-4.2768 8.6275 -1.8718 0.9615
-5.5159 8.4044 -1.9541 0.9599
-8.8531 8.2279 -2.3493 0.9519
-12.4150 3.3886 -2.5015 0.9489
-12.7325 1.8704 -2.5015 0.9489
-12.8650 0.3252 -2.5015 0.9489
-12.5703 -2.7571 -2.5015 0.9489
-11.5480 -5.6797 -2.5015 0.9489
-8.7903 -9.3992 -2.5015 0.9489
-7.5529 -10.3299 -2.4874 0.9492
-6.2909 -11.2267 -2.5015 0.9489
-4.8946 -11.9020 -2.5015 0.9489
-3.4272 -12.4044 -2.5015 0.9489
-0.3653 -12.8639 -2.5015 0.9489
4.2113 -12.1605 -2.5015 0.9489
6.9940 -10.8027 -2.5015 0.9489
8.2428 -9.8829 -2.5015 0.9489
10.3647 -7.6281 -2.5015 0.9489
12.7206 -1.9498 -2.5015 0.9489
12.8181 1.1450 -2.5015 0.9489
12.5873 2.6786 -2.5015 0.9489
10.8784 5.2664 -2.3493 0.9519
4.1805 3.4647 -1.0554 0.9781
8.3103 8.7757 -2.3493 0.9519
6.4046 8.6457 -2.0914 0.9571
2.3824 8.4178 -1.7005 0.9650
1.3077 8.3574 -1.6443 0.9661
0.2995 8.6475 -1.6819 0.9654
-1.8223 8.6962 -1.7271 0.9644
-7.6832 9.3297 -2.3493 0.9519
4.6240 2.2620 -1.1884 0.9791
3.6140 3.0203 -1.0874 0.9809
6.0236 8.2016 -2.3493 0.9591
4.9932 8.8667 -2.3493 0.9591
3.5446 8.5674 -2.1405 0.9627
-1.8596 8.6965 -2.0531 0.9642
-4.2262 8.7079 -2.2346 0.9610
-6.5011 7.8285 -2.3493 0.9591
-7.3956 6.9896 -2.3493 0.9591
-9.9757 4.1638 -2.4956 0.9566
-10.6027 -2.2327 -2.5015 0.9565
-10.2571 -3.4920 -2.5015 0.9565
-8.3572 -6.8962 -2.5015 0.9565
-7.4669 -7.8515 -2.5015 0.9565
-6.4682 -8.6928 -2.5015 0.9565
-5.3755 -9.4078 -2.5015 0.9565
-1.6978 -10.7014 -2.5015 0.9565
2.1996 -10.6096 -2.5015 0.9565
3.4600 -10.2679 -2.5015 0.9565
6.8702 -8.3787 -2.5015 0.9565
7.8282 -7.4914 -2.5015 0.9565
8.6726 -6.4953 -2.5015 0.9565
9.9729 -4.2358 -2.5015 0.9565
10.8266 -0.4319 -2.5015 0.9565
10.7999 0.8737 -2.5015 0.9565
10.2787 3.4279 -2.5015 0.9565
3.6812 8.5927 -2.1582 0.9624
2.4426 8.3630 -2.0114 0.9649
1.3535 8.2001 -1.9188 0.9665
0.3431 7.9762 -1.8432 0.9678
-0.6757 8.6892 -2.0121 0.9649
-1.7464 8.6958 -2.0477 0.9642
-2.8722 8.7027 -2.1158 0.9631
-5.4050 8.6218 -2.3493 0.9591
-6.4030 7.9090 -2.3493 0.9591
-9.8951 4.2758 -2.4886 0.9567
-10.3911 3.0702 -2.5015 0.9565
-10.6850 1.7978 -2.5015 0.9565
-10.8237 0.4994 -2.5015 0.9565
-10.2998 -3.3638 -2.5015 0.9565
-8.4426 -6.7915 -2.5015 0.9565
-6.5761 -8.6115 -2.5015 0.9565
-4.3289 -9.9329 -2.5015 0.9565
-3.1025 -10.3815 -2.5015 0.9565
3.3317 -10.3103 -2.5015 0.9565
4.5478 -9.8346 -2.5015 0.9565
6.7651 -8.4637 -2.5015 0.9565
7.7342 -7.5884 -2.5015 0.9565
8.5909 -6.6029 -2.5015 0.9565
9.3228 -5.5215 -2.5015 0.9565
9.9194 -4.3598 -2.5015 0.9565
10.3718 -3.1349 -2.5015 0.9565
10.6736 -1.8644 -2.5015 0.9565
10.8204 -0.5669 -2.5015 0.9565
3.9513 2.4259 -1.0704 0.9811
3.6645 2.9104 -1.0804 0.9810
3.5312 3.5767 -1.1604 0.9796
6.2263 8.0488 -2.3493 0.9591
5.2128 8.7394 -2.3493 0.9591
3.8202 8.6185 -2.1764 0.9620
2.5630 8.3853 -2.0243 0.9646
1.4629 8.2235 -1.9283 0.9663
0.4441 7.9993 -1.8496 0.9676
-0.5667 8.6885 -2.0102 0.9649
-1.6337 8.6951 -2.0425 0.9643
-2.7522 8.7020 -2.1071 0.9632
-8.0294 6.2513 -2.3493 0.9591
-8.7231 5.2400 -2.3493 0.9591
-9.6397 4.3088 -2.4377 0.9576
-10.3521 3.1995 -2.5015 0.9565
-10.8144 -0.6715 -2.5015 0.9565
-10.6551 -1.9676 -2.5015 0.9565
-10.3410 -3.2351 -2.5015 0.9565
-9.8767 -4.4556 -2.5015 0.9565
-9.2690 -5.6114 -2.5015 0.9565
-8.5266 -6.6857 -2.5015 0.9565
-7.6604 -7.6629 -2.5015 0.9565
-6.6829 -8.5288 -2.5015 0.9565
-5.6084 -9.2708 -2.5015 0.9565
-4.4524 -9.8782 -2.5015 0.9565
-0.6680 -10.8146 -2.5015 0.9565
0.6378 -10.8164 -2.5015 0.9565
3.2028 -10.3510 -2.5015 0.9565
6.6591 -8.5474 -2.5015 0.9565
7.6390 -7.6843 -2.5015 0.9565
9.2533 -5.6373 -2.5015 0.9565
9.8642 -4.4832 -2.5015 0.9565
10.6495 -1.9974 -2.5015 0.9565
10.8125 -0.7017 -2.5015 0.9565
10.8184 0.6041 -2.5015 0.9565
10.6671 1.9011 -2.5015 0.9565
10.3610 3.1706 -2.5015 0.9565
3.6908 2.8570 -1.0775 0.9810
6.3261 7.9706 -2.3493 0.9591
5.3214 8.6737 -2.3493 0.9591
3.9615 8.6447 -2.1954 0.9617
2.6850 8.4079 -2.0377 0.9644
1.5734 8.2469 -1.9383 0.9661
-1.5216 8.6944 -2.0378 0.9644
-2.6330 8.7012 -2.0988 0.9634
-5.1884 8.7539 -2.3493 0.9591
-7.1291 7.2613 -2.3493 0.9591
-8.6571 5.3484 -2.3493 0.9591
-9.3944 4.3405 -2.3892 0.9584
-10.3114 3.3283 -2.5015 0.9565
-10.6369 2.0637 -2.5015 0.9565
-10.8079 0.7691 -2.5015 0.9565
-10.8219 -0.5366 -2.5015 0.9565
-10.6788 -1.8346 -2.5015 0.9565
-10.3805 -3.1059 -2.5015 0.9565
-9.3382 -5.4954 -2.5015 0.9565
-8.6093 -6.5789 -2.5015 0.9565
-7.7554 -7.5668 -2.5015 0.9565
-5.7236 -9.2002 -2.5015 0.9565
-2.0969 -10.6304 -2.5015 0.9565
1.8013 -10.6844 -2.5015 0.9565
5.4663 -9.3553 -2.5015 0.9565
6.5520 -8.6298 -2.5015 0.9565
7.5426 -7.7789 -2.5015 0.9565
8.4236 -6.8151 -2.5015 0.9565
9.1823 -5.7522 -2.5015 0.9565
9.8076 -4.6058 -2.5015 0.9565
10.2904 -3.3926 -2.5015 0.9565
10.6238 -2.1300 -2.5015 0.9565
10.8029 -0.8365 -2.5015 0.9565
10.8251 0.4691 -2.5015 0.9565
10.6900 1.7680 -2.5015 0.9565
4.0308 2.3383 -1.0758 0.9811
3.7166 2.8036 -1.0748 0.9811
5.4291 8.6067 -2.3493 0.9591
4.3543 9.1973 -2.3493 0.9591
-0.3494 8.6872 -2.0072 0.9649
-3.9811 9.3649 -2.3493 0.9591
-6.1027 8.1429 -2.3493 0.9591
-8.5897 5.4559 -2.3493 0.9591
-10.2691 3.4567 -2.5015 0.9565
-10.6103 2.1962 -2.5015 0.9565
