ply
format ascii 1.0
element vertex 1574
property float32 x
property float32 y
property float32 z
property float32 I
end_header
40.3674 -42.1990 9.2493 0.7894
61.0114 -29.1341 10.7085 0.7605
36.5319 27.2411 7.2176 0.8315
7.1128 8.6413 1.7727 0.9557
4.1542 8.6595 1.5212 0.9619
2.9358 8.6670 1.4493 0.9636
-0.3083 8.6869 1.3767 0.9654
-2.4722 8.7002 1.4325 0.9640
-4.9699 8.7156 1.5891 0.9602
-6.4816 8.7249 1.7215 0.9569
-76.9174 26.2083 12.8703 0.7196
-80.6325 -12.5474 12.9246 0.7186
-15.3101 -31.6229 5.5647 0.8674
-5.9879 -28.1625 4.5602 0.8899
-2.8168 -31.6356 5.0304 0.8793
28.7616 -39.0073 7.6760 0.8218
51.2507 -42.6502 10.5604 0.7634
71.5096 -24.6527 11.9802 0.7361
36.0893 20.3226 6.5600 0.8456
36.6299 26.9073 7.1987 0.8319
36.6764 34.4596 7.9707 0.8156
5.6080 8.6506 1.6328 0.9591
4.2306 8.6590 1.5264 0.9617
0.8043 8.6801 1.3807 0.9653
-1.3048 8.6931 1.3923 0.9650
-2.4048 8.6998 1.4296 0.9641
-4.8871 8.7151 1.5825 0.9603
-6.3846 8.7243 1.7123 0.9572
-63.8861 53.5544 13.2035 0.7135
-78.1589 27.2592 13.1105 0.7152
-78.3299 7.3999 12.4615 0.7271
-80.4662 -11.9305 12.8839 0.7193
-56.9087 -15.6207 9.3468 0.7874
-63.4690 -35.4414 11.5136 0.7450
-8.8787 -25.3114 4.2484 0.8971
-6.9636 -31.6339 5.1303 0.8771
-3.0458 -31.6342 5.0335 0.8792
23.0130 -41.3863 7.5002 0.8255
39.2162 -42.1917 9.1234 0.7919
51.0163 -43.0787 10.5756 0.7631
36.6274 26.5027 7.1606 0.8327
36.6733 33.9646 7.9169 0.8167
4.3077 8.6586 1.5317 0.9616
3.0749 8.6661 1.4564 0.9634
1.9419 8.6731 1.4077 0.9646
-2.3376 8.6994 1.4267 0.9642
-6.2885 8.7237 1.7033 0.9574
-8.0604 8.7346 1.8825 0.9530
-77.0897 27.5083 12.9639 0.7179
-75.5655 7.6862 12.0302 0.7352
-79.5878 -31.9179 13.5814 0.7066
-15.8727 -31.6195 5.6036 0.8665
-11.3568 -31.6471 5.3254 0.8727
-3.2749 -31.6328 5.0369 0.8792
31.3570 -78.5971 13.4027 0.7098
68.2555 -24.6327 11.4931 0.7454
48.2094 19.1334 8.2150 0.8105
36.2025 19.7073 6.5284 0.8463
5.7853 8.6495 1.6481 0.9587
3.1449 8.6657 1.4601 0.9634
2.0073 8.6727 1.4099 0.9646
-1.1774 8.6923 1.3893 0.9651
-6.1934 8.7231 1.6944 0.9576
-7.9444 8.7338 1.8700 0.9533
-75.8471 27.6804 12.7880 0.7211
-78.6210 -30.8768 13.3782 0.7103
-76.5662 -54.1553 14.8537 0.6840
-21.2914 -31.5864 6.0332 0.8570
-11.6134 -31.6455 5.3390 0.8724
-3.5044 -31.6314 5.0406 0.8791
31.0102 -79.3790 13.4977 0.7081
22.6880 -42.2175 7.5910 0.8236
38.0498 -42.1338 8.9918 0.7946
51.0994 -44.4212 10.7239 0.7602
62.7166 -42.4391 11.9939 0.7359
66.7261 -24.6233 11.2650 0.7497
61.6371 15.7350 10.0755 0.7729
49.2216 19.1272 8.3639 0.8075
36.6225 25.7064 7.0868 0.8343
36.6673 32.9940 7.8125 0.8189
5.8752 8.6489 1.6560 0.9585
4.4634 8.6576 1.5427 0.9613
2.0729 8.6723 1.4122 0.9645
0.9890 8.6437 1.3780 0.9654
-1.1139 8.6919 1.3879 0.9651
-3.3650 8.7057 1.4783 0.9629
-6.0993 8.7225 1.6858 0.9578
-7.8299 8.7331 1.8577 0.9536
-61.1419 53.5375 12.8717 0.7196
-78.9471 -30.3528 13.3963 0.7100
-77.2636 -53.8209 14.9137 0.6829
-60.0841 -68.3705 14.4162 0.6917
-16.4252 -31.5811 5.6380 0.8657
-11.8712 -31.6440 5.3530 0.8721
-7.6257 -31.4048 5.1186 0.8773
30.7816 -80.4931 13.6493 0.7054
26.5999 -50.3605 9.0206 0.7940
27.7547 -39.9966 7.7107 0.8211
51.0955 -45.0660 10.7907 0.7589
-65.6164 -30.7966 8.8999 0.7467
-14.5440 -33.6636 4.5026 0.8626
-5.6620 -33.7047 4.1964 0.8713
-1.8501 -40.4192 4.9680 0.8495
23.4825 -50.2670 6.8123 0.7996
25.3947 -40.7109 5.8914 0.8242
55.5175 -42.2920 8.5693 0.7548
65.3691 -3.1096 8.0354 0.7682
68.7900 13.5046 8.6076 0.7539
60.1212 19.5601 7.7628 0.7751
43.3645 20.1633 5.8719 0.8247
8.4299 8.6332 1.4816 0.9525
1.7571 5.8729 0.7527 0.9756
-0.6211 8.6888 1.0696 0.9655
-1.6908 8.6954 1.0877 0.9649
-8.6975 26.8971 3.4709 0.8923
-4.0308 8.7098 1.1784 0.9621
-5.3949 8.7182 1.2588 0.9595
-6.9836 8.7279 1.3725 0.9560
-11.4079 8.7551 1.7657 0.9437
-79.3489 46.9078 11.3179 0.6897
-66.0359 -30.4171 8.9270 0.7460
-24.6917 -32.0539 4.9680 0.8495
-14.8308 -33.6618 4.5165 0.8622
-9.5836 -31.6179 4.0566 0.8753
23.2448 -50.7041 6.8487 0.7987
25.4120 -41.3975 5.9642 0.8222
28.0725 -16.7315 4.0126 0.8766
60.9247 -26.9730 8.1810 0.7645
65.4451 -19.9651 8.4012 0.7590
61.2099 19.4295 7.8852 0.7720
44.1804 20.1583 5.9626 0.8223
36.1001 22.0711 5.1953 0.8432
10.8904 8.6181 1.7052 0.9456
8.5511 8.6325 1.4919 0.9522
6.7081 8.6438 1.3434 0.9569
2.6615 8.6687 1.1134 0.9641
1.5536 8.6755 1.0822 0.9651
0.4911 8.6820 1.0677 0.9656
-0.5584 8.6885 1.0690 0.9655
-2.7348 8.6696 1.1162 0.9640
-3.9549 8.7093 1.1745 0.9622
-5.3084 8.7177 1.2532 0.9597
-6.8774 8.7229 1.3639 0.9562
-11.2386 8.7541 1.7491 0.9442
-9.8314 -31.6164 4.0654 0.8751
-6.1601 -33.7017 4.2066 0.8710
-2.4301 -40.3885 4.9680 0.8495
28.0531 -90.0557 11.5815 0.6838
30.6368 -39.1459 6.1035 0.8185
42.0943 -42.1488 7.3141 0.7866
53.8817 -42.2817 8.4096 0.7588
60.8716 -27.4737 8.2001 0.7640
65.4655 3.8540 8.0521 0.7678
31.7132 5.7543 3.9577 0.8782
61.2069 18.9461 7.8671 0.7724
6.8075 8.6432 1.3509 0.9566
0.5536 8.6816 1.0681 0.9655
-0.4958 8.6881 1.0685 0.9655
-1.5615 8.6946 1.0846 0.9650
-2.6764 8.7015 1.1178 0.9640
-17.2382 22.1896 3.4501 0.8929
-11.0724 8.7531 1.7330 0.9447
-79.3321 -14.1007 9.8934 0.7227
-25.1493 -31.6961 4.9680 0.8495
-15.4099 -33.6583 4.5453 0.8614
-6.4102 -33.7001 4.2120 0.8709
-2.5450 -37.7732 4.6485 0.8585
23.2392 -52.6750 7.0691 0.7929
24.7137 -41.5874 5.9399 0.8229
30.3176 -39.3164 6.0960 0.8187
60.8627 -37.4692 8.7756 0.7497
60.8684 -27.9998 8.2265 0.7634
79.7901 13.8869 9.9443 0.7215
45.8884 20.1468 6.1535 0.8171
11.2151 8.6161 1.7365 0.9446
8.7986 8.6309 1.5133 0.9515
6.9082 8.6426 1.3585 0.9564
5.3480 8.6522 1.2489 0.9598
4.0027 8.6604 1.1714 0.9623
2.7980 8.6678 1.1184 0.9640
-0.4333 8.6877 1.0680 0.9656
-1.4971 8.6942 1.0832 0.9651
-2.6080 8.7011 1.1153 0.9641
-6.6731 8.7183 1.3481 0.9567
-10.9092 8.7521 1.7173 0.9452
-57.6783 -17.1757 7.3893 0.7846
-25.3854 -31.5262 4.9698 0.8495
-10.3304 -31.6134 4.0836 0.8746
-6.6608 -33.6986 4.2177 0.8707
23.0874 -53.3650 7.1393 0.7911
30.8038 -40.5454 6.2521 0.8145
40.9547 -42.2023 7.2206 0.7890
52.5465 -42.4668 8.2955 0.7616
60.8651 -28.5294 8.2535 0.7627
65.3081 -13.0305 8.1769 0.7646
45.9465 19.7802 6.1421 0.8174
36.0936 21.0131 5.1281 0.8451
36.6826 35.4705 6.2653 0.8141
7.0099 8.6420 1.3663 0.9561
5.4339 8.6516 1.2544 0.9597
-0.3708 8.6873 1.0676 0.9656
-1.4328 8.6938 1.0819 0.9651
-2.5400 8.7006 1.1129 0.9641
-6.5798 8.7255 1.3418 0.9569
-56.2870 -16.3225 7.1959 0.7896
-78.3023 -33.3769 10.4513 0.7096
-25.7588 -31.5239 4.9985 0.8487
-2.7589 -33.7225 4.1544 0.8725
0.6165 -15.7740 1.9383 0.9384
24.1968 -57.0495 7.6088 0.7790
24.6000 -42.7826 6.0595 0.8196
40.4028 -42.2359 7.1766 0.7901
51.5390 -42.2675 8.1841 0.7644
60.8552 -38.6802 8.8537 0.7478
65.3882 -22.0184 8.4716 0.7573
67.8784 -5.6758 8.3635 0.7599
65.5060 10.4344 8.1445 0.7654
46.0841 19.4485 6.1417 0.8174
11.5519 8.6140 1.7693 0.9436
7.1128 8.6413 1.3742 0.9559
2.9358 8.6670 1.1236 0.9638
-0.3083 8.6869 1.0673 0.9656
-1.3688 8.6934 1.0806 0.9652
-8.2970 8.7360 1.4793 0.9526
-10.5917 8.7501 1.6869 0.9461
-79.4984 27.0878 10.3123 0.7129
-79.4672 -33.2016 10.5747 0.7067
-61.5862 -34.9720 8.6960 0.7517
-16.2229 -33.5083 4.5711 0.8607
-8.7001 -25.3843 3.2948 0.8975
-6.0125 -28.2783 3.5497 0.8900
27.3720 -48.4043 6.8278 0.7992
29.1801 -39.5748 6.0373 0.8202
39.9994 -42.4198 7.1589 0.7906
60.8514 -39.2940 8.8940 0.7468
60.9109 -29.6247 8.3166 0.7611
65.2499 -22.4947 8.4744 0.7572
65.4870 -5.9496 8.0739 0.7672
61.3363 17.0728 7.8175 0.7737
46.2899 19.1453 6.1506 0.8172
16.3769 9.2222 2.3077 0.9271
11.7251 8.6130 1.7863 0.9431
5.6080 8.6506 1.2658 0.9593
1.8767 8.6735 1.0896 0.9649
0.8043 8.6801 1.0703 0.9655
-10.4371 8.7492 1.6722 0.9466
-78.8536 27.5015 10.2540 0.7142
-79.5658 7.5166 9.8130 0.7246
-62.4581 -34.8769 8.7835 0.7495
-21.9722 -33.6281 4.9323 0.8505
-8.8777 -25.3085 3.2931 0.8975
-6.2165 -28.2400 3.5505 0.8900
-3.2465 -33.7195 4.1594 0.8724
31.1333 -76.4381 10.1341 0.7170
25.3829 -45.6483 6.4131 0.8102
29.1133 -40.0836 6.0828 0.8190
39.2162 -42.1917 7.0727 0.7928
67.9229 1.5568 8.3421 0.7605
47.2333 19.1395 6.2575 0.8143
36.0872 19.9818 5.0649 0.8468
9.3159 8.6278 1.5590 0.9501
3.0749 8.6661 1.1291 0.9636
1.9419 8.6731 1.0913 0.9648
0.8671 8.6797 1.0710 0.9655
-0.1835 8.6862 1.0668 0.9656
-1.2411 8.6927 1.0781 0.9652
-3.5098 8.7066 1.1526 0.9629
-6.2884 8.7237 1.3204 0.9576
-10.2850 8.7482 1.6579 0.9470
-13.2606 8.7665 1.9518 0.9379
-63.8841 -35.0738 8.9484 0.7455
-16.5347 -32.9384 4.5253 0.8620
-7.6708 -33.6924 4.2428 0.8700
-3.4908 -33.7180 4.1622 0.8723
28.3858 -39.6776 5.9902 0.8215
49.4260 -42.3473 7.9916 0.7693
63.4582 -42.2803 9.3627 0.7354
60.8544 -30.6851 8.3681 0.7598
65.3785 -23.5945 8.5342 0.7557
65.4972 8.9917 8.1175 0.7661
12.0819 8.6108 1.8217 0.9420
7.4290 8.6394 1.3990 0.9551
3.1449 8.6657 1.1319 0.9635
-0.1211 8.6858 1.0666 0.9656
-2.2706 8.6990 1.1039 0.9644
-3.4372 8.7062 1.1493 0.9630
-62.4246 -33.6919 8.7099 0.7514
-22.5670 -33.4788 4.9574 0.8498
-12.3589 -33.6770 4.4047 0.8654
-7.9251 -33.6909 4.2496 0.8698
23.2123 -43.1930 6.0208 0.8207
28.0891 -39.8648 5.9878 0.8216
38.0960 -42.1850 6.9792 0.7953
48.6728 -42.3117 7.9187 0.7711
62.4732 -42.2744 9.2619 0.7379
60.8510 -31.2334 8.3983 0.7591
65.3217 -24.1051 8.5492 0.7553
65.4910 -7.3747 8.0921 0.7667
65.5270 0.5609 8.0460 0.7679
65.6818 8.5370 8.1325 0.7657
61.3867 15.6710 7.7791 0.7747
49.2216 19.1272 6.4839 0.8083
7.5370 8.6387 1.4077 0.9548
5.8752 8.6489 1.2838 0.9587
4.4634 8.6576 1.1960 0.9615
-4.6425 8.7136 1.2123 0.9610
-6.0993 8.7225 1.3069 0.9580
-9.9887 8.7464 1.6302 0.9479
-56.7693 -14.2753 7.1874 0.7899
-65.0373 -34.5013 9.0396 0.7433
-22.8558 -33.3878 4.9680 0.8495
-12.6332 -33.6753 4.4162 0.8651
-3.9804 -33.7150 4.1684 0.8721
23.4809 -44.4554 6.1731 0.8166
28.6353 -41.2656 6.1672 0.8168
26.0875 -29.3078 4.8176 0.8537
-5.3216 -31.6789 2.8104 0.8790
24.1349 -51.6634 4.9889 0.7954
25.8562 -41.4507 4.2742 0.8219
33.6608 -41.7606 4.6927 0.8062
55.5173 -42.2919 6.1059 0.7556
65.2689 -19.4004 5.9572 0.7608
65.4177 4.7944 5.7387 0.7685
60.1214 19.5601 5.5313 0.7758
43.3645 20.1633 4.1840 0.8253
10.7324 8.6191 1.2043 0.9462
6.6097 8.6444 0.9520 0.9572
36.8496 62.5905 6.3545 0.7470
1.7568 5.8719 0.5362 0.9757
-0.6211 8.6888 0.7621 0.9656
-1.6908 8.6954 0.7750 0.9651
-5.3949 8.7182 0.8970 0.9597
-6.9836 8.7279 0.9779 0.9561
-11.4079 8.7551 1.2581 0.9439
-14.8199 8.7609 1.5062 0.9332
-19.9683 -33.6404 3.4226 0.8546
-9.5836 -31.6179 2.8905 0.8758
-5.5494 -31.6426 2.8106 0.8790
25.0643 -40.8311 4.1916 0.8250
33.3234 -41.9548 4.6875 0.8064
42.7684 -42.2134 5.2574 0.7856
28.2005 -16.8079 2.8722 0.8765
60.8469 -18.5623 5.5656 0.7746
65.3662 -3.5800 5.7274 0.7689
65.4642 12.3644 5.8286 0.7653
14.0641 8.5986 1.4422 0.9360
10.8904 8.6181 1.2150 0.9458
3.8532 8.6613 0.8294 0.9627
1.5536 8.6755 0.7711 0.9652
-1.6261 8.6950 0.7739 0.9651
-8.7906 8.7391 1.0845 0.9514
-19.6993 8.8061 1.8878 0.9170
-10.8902 -24.2446 2.3253 0.8988
-9.8314 -31.6164 2.8967 0.8755
26.8974 -86.3457 7.9123 0.6955
23.0956 -51.3481 4.9259 0.7977
24.7477 -40.9720 4.1877 0.8251
53.8816 -42.2817 5.9922 0.7596
61.3147 -37.1434 6.2719 0.7499
61.3703 -27.6987 5.8907 0.7631
65.3140 -12.0595 5.8108 0.7659
65.3633 -4.0505 5.7295 0.7688
31.7105 5.7538 2.8196 0.8786
61.3071 18.9771 5.6148 0.7728
45.0220 20.1531 4.3155 0.8203
14.2913 8.5972 1.4591 0.9352
8.6740 8.6317 1.0706 0.9521
-0.4958 8.6881 0.7613 0.9657
-2.6764 8.7015 0.7965 0.9641
-3.8796 8.7089 0.8341 0.9624
-5.2227 8.7171 0.8891 0.9600
-8.6646 8.7383 1.0766 0.9518
-11.0724 8.7531 1.2348 0.9449
-20.5356 -33.4912 3.4371 0.8541
-14.4644 -31.5931 3.0400 0.8698
-10.0804 -31.6149 2.9031 0.8753
-6.0249 -31.6746 2.8209 0.8786
-2.1357 -31.6984 2.7795 0.8802
26.2553 -86.4652 7.9058 0.6957
23.4258 -53.0980 5.0775 0.7921
32.6759 -42.3747 4.6815 0.8067
53.0864 -42.2769 5.9373 0.7615
61.3110 -37.7452 6.2990 0.7489
61.3670 -28.2292 5.9097 0.7624
65.4090 3.3797 5.7302 0.7688
61.2039 18.4648 5.5930 0.7736
45.8884 20.1468 4.3846 0.8177
14.5239 8.5958 1.4765 0.9345
11.2151 8.6161 1.2373 0.9448
8.7986 8.6309 1.0783 0.9517
5.3480 8.6522 0.8899 0.9600
1.6823 8.6747 0.7731 0.9651
-0.4333 8.6877 0.7610 0.9657
-1.4971 8.6942 0.7718 0.9652
-2.6080 8.7011 0.7947 0.9642
-5.1377 8.7166 0.8852 0.9602
-8.5403 8.7375 1.0689 0.9521
-10.9092 8.7521 1.2236 0.9454
-14.1346 8.7719 1.4554 0.9354
-57.5219 -17.1291 5.2509 0.7858
-55.9709 -42.6818 6.1581 0.7538
-14.7388 -31.5914 3.0499 0.8694
24.1653 -55.8564 5.3245 0.7832
24.4886 -41.8904 4.2452 0.8230
52.3056 -42.2721 5.8838 0.7634
60.9904 -28.5882 5.8931 0.7630
65.3081 -13.0305 5.8263 0.7654
65.3575 -4.9929 5.7347 0.7686
61.3012 18.0151 5.5900 0.7737
45.9465 19.7802 4.3765 0.8180
4.0782 8.6600 0.8375 0.9623
2.8668 8.6674 0.7987 0.9640
1.7469 8.6743 0.7741 0.9651
0.6788 8.6808 0.7618 0.9656
-1.4328 8.6938 0.7709 0.9652
-6.5798 8.7255 0.9561 0.9571
-10.7741 8.7714 1.2155 0.9457
-13.9085 8.7705 1.4386 0.9361
-18.5615 8.7818 1.7965 0.9209
-79.3596 -12.9336 7.0347 0.7241
-15.0150 -31.5897 3.0601 0.8690
-10.5817 -31.6119 2.9165 0.8747
-6.4968 -31.6717 2.8286 0.8783
0.6316 -16.1591 1.4148 0.9371
25.4743 -88.4410 8.0522 0.6910
22.7351 -53.6032 5.0941 0.7915
24.2685 -42.2060 4.2595 0.8224
49.8806 -40.9074 5.6439 0.7718
61.0114 -29.1341 5.9152 0.7623
60.6750 -20.4313 5.6012 0.7733
65.3051 -13.5179 5.8346 0.7651
65.4032 2.4385 5.7260 0.7689
46.0841 19.4485 4.3762 0.8180
9.0297 8.6068 1.0914 0.9511
7.1128 8.6413 0.9792 0.9561
4.1542 8.6595 0.8403 0.9622
2.9358 8.6670 0.8006 0.9639
0.7415 8.6805 0.7622 0.9656
-0.3083 8.6869 0.7605 0.9657
-2.4722 8.7002 0.7913 0.9643
-3.6564 8.7075 0.8262 0.9628
-4.9699 8.7156 0.8778 0.9605
-6.4816 8.7249 0.9509 0.9573
-8.2970 8.7360 1.0541 0.9528
-10.5917 8.7501 1.2020 0.9463
-13.6877 8.7692 1.4222 0.9368
-56.4834 -15.9407 5.1347 0.7901
-79.4568 -33.1972 7.5339 0.7077
-15.2932 -31.5880 3.0704 0.8686
-8.6840 -25.3371 2.3433 0.8980
-6.7337 -31.6703 2.8327 0.8781
24.8846 -88.7842 8.0670 0.6906
23.8332 -42.1464 4.2361 0.8233
39.9709 -42.3896 5.0973 0.7914
49.1511 -40.9030 5.5944 0.7736
61.0868 -21.0595 5.6531 0.7715
65.4003 1.9686 5.7244 0.7690
61.3955 17.0893 5.5756 0.7742
46.2899 19.1453 4.3826 0.8178
15.2565 8.5913 1.5319 0.9321
11.7251 8.6130 1.2728 0.9433
7.2169 8.6407 0.9850 0.9558
5.6080 8.6506 0.9019 0.9595
4.2306 8.6590 0.8432 0.9620
3.0052 8.6666 0.8025 0.9638
0.8043 8.6801 0.7627 0.9656
-1.3048 8.6931 0.7691 0.9653
-3.5829 8.7070 0.8237 0.9629
-4.8871 8.7151 0.8742 0.9607
-8.1779 8.7353 1.0469 0.9531
-10.4371 8.7492 1.1915 0.9468
-21.9722 -33.6281 3.5144 0.8510
-8.8742 -25.2986 2.3456 0.8979
-3.0514 -31.6928 2.7856 0.8800
24.2128 -43.5441 4.3590 0.8187
39.2162 -42.1917 5.0396 0.7935
48.6384 -41.0710 5.5695 0.7744
65.2990 -14.4975 5.8520 0.7645
60.0034 8.6766 5.3042 0.7839
61.3925 16.6148 5.5644 0.7746
15.4656 8.5634 1.5466 0.9315
11.9018 8.6119 1.2853 0.9427
7.3223 8.6400 0.9909 0.9555
5.6962 8.6500 0.9061 0.9593
3.0749 8.6661 0.8045 0.9638
-0.1835 8.6862 0.7601 0.9657
-2.3376 8.6994 0.7881 0.9645
-3.5098 8.7066 0.8213 0.9630
-4.8049 8.7146 0.8706 0.9608
-10.2850 8.7482 1.1813 0.9472
-13.2606 8.7665 1.3908 0.9382
-17.5952 8.7932 1.7209 0.9241
-64.2469 -35.2730 6.4123 0.7451
-22.3168 -33.6260 3.5308 0.8504
-11.3568 -31.6471 2.9416 0.8737
-7.2097 -31.6673 2.8414 0.8777
-3.2809 -31.6914 2.7875 0.8799
30.6675 -76.8688 7.2406 0.7173
23.2710 -42.5670 4.2443 0.8230
28.1652 -39.3692 4.2350 0.8234
63.4582 -42.2803 6.6713 0.7363
61.3529 -30.9365 6.0115 0.7589
65.2434 -23.5457 6.0684 0.7569
65.3945 1.0291 5.7220 0.7690
61.3896 16.1419 5.5535 0.7750
12.0819 8.6108 1.2980 0.9422
9.4502 8.6270 1.1195 0.9499
3.1449 8.6657 0.8065 0.9637
2.0073 8.6727 0.7788 0.9649
0.9301 8.6793 0.7637 0.9656
-0.1211 8.6858 0.7600 0.9657
-1.1774 8.6923 0.7674 0.9654
-3.4372 8.7062 0.8189 0.9631
-4.7234 8.7141 0.8672 0.9610
-6.1934 8.7231 0.9360 0.9580
-7.9444 8.7338 1.0329 0.9537
-10.1357 8.7473 1.1713 0.9477
-13.0540 8.7653 1.3756 0.9388
-62.5030 -33.7342 6.2139 0.7519
-22.6648 -33.6239 3.5476 0.8497
-2.7105 -24.4651 2.1535 0.9059
30.8996 -79.0959 7.4293 0.7111
23.7118 -44.1226 4.3824 0.8178
48.1597 -41.8657 5.5829 0.7740
62.4731 -42.2744 6.5995 0.7387
61.3495 -31.4893 6.0331 0.7581
65.2930 -15.4826 5.8708 0.7638
65.3429 -7.3580 5.7529 0.7680
61.3867 15.6710 5.5429 0.7754
16.0464 8.5864 1.5922 0.9295
12.2657 8.6096 1.3111 0.9416
9.5865 8.6261 1.1283 0.9495
7.5370 8.6387 1.0030 0.9550
5.8752 8.6489 0.9148 0.9589
4.4634 8.6576 0.8522 0.9616
3.2153 8.6653 0.8086 0.9636
2.0729 8.6723 0.7801 0.9648
-1.1139 8.6919 0.7667 0.9654
-2.2040 8.6986 0.7851 0.9646
-3.3650 8.7057 0.8166 0.9632
-4.6425 8.7136 0.8638 0.9611
-7.8299 8.7331 1.0262 0.9540
-12.8519 8.7640 1.3609 0.9395
-16.9738 8.7894 1.6723 0.9261
-22.9924 -33.5873 3.5611 0.8492
-16.5277 -31.7781 3.1338 0.8660
-7.6888 -31.6644 2.8508 0.8774
0.2674 -84.2366 7.3698 0.7130
26.1012 -29.3233 3.4354 0.8542
47.8972 -42.2451 5.5875 0.7738
-18.6526 -31.9438 1.9386 0.8623
-9.4401 -31.9694 1.7470 0.8750
27.5255 -84.0913 4.6371 0.7016
24.2943 -52.0048 3.0082 0.7946
33.5312 -41.5999 2.8002 0.8073
43.1705 -42.0028 3.1566 0.7856
55.4936 -42.2738 3.6560 0.7562
61.2423 -35.9080 3.7206 0.7525
68.2073 -11.5838 3.6258 0.7580
69.4440 5.0895 3.6492 0.7566
43.3645 20.1633 2.5063 0.8257
13.8421 8.6000 0.8540 0.9368
10.7324 8.6191 0.7214 0.9464
8.4299 8.6332 0.6324 0.9528
6.6097 8.6444 0.5703 0.9573
35.8390 60.8739 3.7021 0.7536
3.7792 8.6618 0.4953 0.9629
1.4875 8.6645 0.4607 0.9654
-0.6206 8.6820 0.4562 0.9657
-1.6881 8.6812 0.4635 0.9652
-4.0308 8.7098 0.5030 0.9623
-6.9836 8.7279 0.5858 0.9562
-11.4079 8.7551 0.7536 0.9440
-20.0905 8.8085 1.1496 0.9159
5.3439 -78.7271 4.1354 0.7290
27.5563 -86.2751 4.7465 0.6957
25.6125 -41.7241 2.5658 0.8219
54.9828 -42.5118 3.6424 0.7570
28.1980 -16.8064 1.7204 0.8768
69.5261 -3.8078 3.6492 0.7566
69.4788 4.5909 3.6492 0.7566
68.4206 12.9227 3.6492 0.7566
61.2099 19.4295 3.3656 0.7732
44.1804 20.1583 2.5450 0.8232
10.8904 8.6181 0.7278 0.9459
5.1730 8.6441 0.5279 0.9605
2.6578 8.6565 0.4746 0.9644
1.5515 8.6635 0.4613 0.9654
-0.5580 8.6818 0.4559 0.9658
-1.6235 8.6815 0.4629 0.9652
-2.7348 8.6696 0.4764 0.9642
-8.7906 8.7391 0.6496 0.9516
-11.2386 8.7541 0.7466 0.9445
-14.5345 8.7336 0.8887 0.9343
-19.6993 8.8061 1.1309 0.9172
-13.7433 -30.5963 1.7578 0.8743
-9.8314 -31.6164 1.7352 0.8758
-2.2217 -36.9241 1.9386 0.8623
26.9189 -86.4147 4.7434 0.6959
25.5774 -42.3457 2.5927 0.8202
42.1552 -42.2098 3.1264 0.7875
69.4970 -4.3066 3.6492 0.7566
31.7078 5.7533 1.6889 0.8789
61.3071 18.9771 3.3634 0.7733
45.0220 20.1531 2.5851 0.8207
6.8075 8.6432 0.5766 0.9569
5.2629 8.6527 0.5308 0.9602
3.9277 8.6609 0.4984 0.9626
2.7262 8.6572 0.4757 0.9643
0.5532 8.6754 0.4556 0.9658
-0.4955 8.6817 0.4557 0.9658
-1.5592 8.6817 0.4623 0.9653
-2.6732 8.6913 0.4765 0.9642
-3.8796 8.7089 0.4997 0.9625
-17.2382 22.1896 1.4726 0.8936
-11.0724 8.7531 0.7397 0.9450
-14.3661 8.7733 0.8822 0.9348
-19.3206 8.8038 1.1127 0.9185
-14.0073 -30.5947 1.7635 0.8739
-2.2826 -33.8796 1.7796 0.8728
34.5075 -78.2164 4.4804 0.7100
25.3954 -42.7346 2.6052 0.8195
41.5504 -42.2059 3.1039 0.7888
61.3608 -37.7759 3.7763 0.7493
61.3670 -28.2292 3.5401 0.7629
61.5692 -19.7530 3.3887 0.7718
68.3804 -13.1339 3.6492 0.7566
69.4643 -4.8053 3.6492 0.7566
69.5375 3.5930 3.6492 0.7566
54.6954 9.5194 2.9095 0.8006
28.2129 8.5116 1.5444 0.8887
45.8884 20.1468 2.6265 0.8181
14.5239 8.5958 0.8845 0.9346
11.2151 8.6161 0.7412 0.9449
8.7986 8.6309 0.6459 0.9518
6.9082 8.6426 0.5799 0.9567
4.0027 8.6604 0.5000 0.9625
1.6798 8.6616 0.4624 0.9653
0.6157 8.6748 0.4558 0.9658
-0.4330 8.6815 0.4555 0.9658
-1.4950 8.6818 0.4617 0.9653
-2.6046 8.6897 0.4754 0.9643
-5.1377 8.7166 0.5303 0.9603
-25.3854 -31.5262 2.1213 0.8503
25.8934 -87.5283 4.7837 0.6938
52.5840 -42.4971 3.5433 0.7628
61.2276 -38.3026 3.7850 0.7488
60.9904 -28.5882 3.5301 0.7635
69.4280 -5.3038 3.6492 0.7566
14.7622 8.5943 0.8952 0.9339
35.6766 34.4977 2.6009 0.8197
4.0782 8.6600 0.5017 0.9624
2.8639 8.6587 0.4780 0.9641
0.6783 8.6742 0.4560 0.9657
-0.3705 8.6812 0.4554 0.9658
-2.5364 8.6882 0.4743 0.9644
-3.7303 8.7079 0.4965 0.9628
-5.0535 8.7161 0.5280 0.9604
-6.5798 8.7255 0.5727 0.9572
-8.4178 8.7368 0.6358 0.9526
-10.7741 8.7714 0.7281 0.9459
-13.9085 8.7705 0.8617 0.9363
-79.3061 -12.9249 4.2111 0.7248
-25.7874 -31.5589 2.1359 0.8494
-11.4822 -24.1572 1.4018 0.8984
-8.5403 -25.5134 1.4100 0.8978
-6.1314 -29.8900 1.5991 0.8850
0.6315 -16.1580 0.8475 0.9373
25.3265 -87.9278 4.7954 0.6931
23.2877 -54.9059 3.1256 0.7875
24.0852 -41.8873 2.5322 0.8240
31.4762 -42.0537 2.7529 0.8103
67.8969 -14.0544 3.6338 0.7575
54.1153 8.6200 2.8718 0.8029
29.7182 8.5024 1.6200 0.8835
46.0841 19.4486 2.6214 0.8184
11.5519 8.6140 0.7552 0.9439
5.5205 8.6511 0.5378 0.9597
2.9332 8.6594 0.4791 0.9640
0.7409 8.6736 0.4562 0.9657
-0.3081 8.6810 0.4552 0.9658
-1.3670 8.6821 0.4606 0.9654
-2.4684 8.6867 0.4733 0.9645
-3.6564 8.7075 0.4949 0.9629
-10.5917 8.7501 0.7200 0.9465
-13.6877 8.7692 0.8519 0.9370
-25.9574 8.8446 1.4372 0.8960
-79.4504 -33.1946 4.5126 0.7083
-26.1653 -31.5566 2.1484 0.8486
-14.8099 -30.5898 1.7811 0.8727
23.3351 -56.1350 3.1860 0.7839
28.3888 -50.2025 3.0225 0.7937
49.2127 -40.9542 3.3554 0.7738
60.8515 -39.2940 3.7962 0.7482
54.6571 -18.8429 3.0299 0.7933
68.0817 -14.6032 3.6492 0.7566
69.5988 2.0950 3.6492 0.7566
15.2565 8.5913 0.9176 0.9323
7.2169 8.6407 0.5900 0.9559
5.6080 8.6506 0.5403 0.9595
4.2306 8.6590 0.5051 0.9621
3.0030 8.6602 0.4804 0.9640
0.8036 8.6729 0.4565 0.9657
-0.2457 8.6807 0.4551 0.9658
-1.3032 8.6822 0.4601 0.9654
-3.5829 8.7070 0.4934 0.9630
-4.8871 8.7151 0.5236 0.9608
-10.4371 8.7492 0.7137 0.9469
-13.4717 8.7678 0.8424 0.9376
-15.0810 -30.5881 1.7873 0.8723
-6.2307 -28.3046 1.5189 0.8904
-3.2175 -33.4179 1.7595 0.8742
24.2250 -88.8800 4.8279 0.6914
31.3661 -43.1853 2.7972 0.8075
39.2162 -42.1917 3.0188 0.7940
48.6690 -41.0967 3.3383 0.7748
61.0073 -30.2151 3.5679 0.7613
54.4263 -19.2014 3.0245 0.7936
69.2977 -6.7975 3.6492 0.7566
69.6120 1.5956 3.6492 0.7566
54.5898 7.8938 2.8907 0.8018
47.2333 19.1395 2.6709 0.8154
11.9018 8.6119 0.7699 0.9429
9.3159 8.6278 0.6654 0.9504
7.3224 8.6400 0.5935 0.9556
5.6962 8.6500 0.5428 0.9594
1.9384 8.6575 0.4650 0.9651
-4.8049 8.7146 0.5215 0.9609
-6.2884 8.7237 0.5636 0.9578
-8.0604 8.7346 0.6229 0.9535
-10.2850 8.7482 0.7076 0.9474
-17.5952 8.7932 1.0309 0.9242
-20.9425 -31.5553 1.9848 0.8592
-15.3541 -30.5864 1.7936 0.8719
-6.4443 -28.3055 1.5214 0.8902
-3.4595 -33.4165 1.7606 0.8741
23.1954 -87.5760 4.7479 0.6957
38.6520 -42.1881 2.9986 0.7952
48.4342 -41.4975 3.3426 0.7746
63.4582 -42.2803 3.9963 0.7368
61.3529 -30.9365 3.6010 0.7594
54.1892 -19.5563 3.0192 0.7939
32.2759 8.4867 1.7490 0.8749
15.7764 8.5881 0.9414 0.9306
12.0819 8.6108 0.7775 0.9423
9.4502 8.6270 0.6706 0.9500
7.4290 8.6394 0.5971 0.9554
5.7853 8.6495 0.5454 0.9592
4.3852 8.6581 0.5086 0.9619
3.1436 8.6619 0.4829 0.9638
2.0035 8.6564 0.4657 0.9650
0.9292 8.6716 0.4571 0.9657
-0.1210 8.6801 0.4550 0.9658
-2.2663 8.6825 0.4703 0.9647
-4.7234 8.7141 0.5195 0.9611
-6.1934 8.7231 0.5607 0.9581
-17.2802 8.7912 1.0161 0.9253
-78.7588 18.3775 4.2384 0.7233
-62.5363 -33.7522 3.7243 0.7523
-21.2691 -31.5533 1.9942 0.8586
-11.8678 -23.2242 1.3668 0.9008
-11.2340 -30.6117 1.7089 0.8776
0.6496 -62.7365 3.2881 0.7778
26.8914 -50.0392 2.9771 0.7965
28.6841 -40.7092 2.6099 0.8192
38.0958 -42.1848 2.9789 0.7964
62.7378 -42.4535 3.9700 0.7383
61.2996 -31.4637 3.6110 0.7588
54.3921 -20.0718 3.0385 0.7928
69.6277 0.5961 3.6492 0.7566
33.2213 8.4809 1.7969 0.8717
49.2216 19.1272 2.7675 0.8094
16.0464 8.5864 0.9538 0.9297
9.5865 8.6261 0.6759 0.9497
4.4634 8.6576 0.5105 0.9617
3.2144 8.6628 0.4842 0.9637
0.9890 8.6437 0.4560 0.9658
-0.0587 8.6798 0.4549 0.9658
-2.1996 8.6812 0.4693 0.9648
-3.3650 8.7057 0.4891 0.9633
-4.6425 8.7136 0.5174 0.9612
-6.0993 8.7225 0.5578 0.9583
-7.8299 8.7331 0.6147 0.9541
-9.9887 8.7464 0.6958 0.9482
-23.6677 8.8305 1.3239 0.9038
-20.5827 2.3925 1.0860 0.9204
-21.5986 -31.5513 2.0039 0.8580
-15.9061 -30.5831 1.8066 0.8710
-7.2348 -29.7949 1.6069 0.8844
22.3973 -89.7489 4.8478 0.6904
26.5681 -50.3003 2.9813 0.7962
30.1534 -43.4532 2.7719 0.8091
47.8971 -42.2450 3.3470 0.7743
-20.4949 8.8110 0.3894 0.9146
-72.3003 -5.5597 1.2657 0.7482
-62.8079 -29.4785 1.2111 0.7576
-19.5596 -33.4972 0.6771 0.8563
-5.2463 -31.2304 0.5528 0.8810
-1.8534 -40.4926 0.7075 0.8503
27.3392 -43.8282 0.9017 0.8133
33.9822 -42.1594 0.9452 0.8052
35.4473 -34.4885 0.8633 0.8205
35.4931 -27.0379 0.7788 0.8365
56.2805 -24.4353 1.0710 0.7823
68.7899 13.5046 1.2236 0.7554
60.1214 19.5601 1.1036 0.7765
8.4132 8.6161 0.2102 0.9530
6.5811 8.6071 0.1891 0.9576
35.8390 60.8740 1.2330 0.7538
1.7562 5.8699 0.1069 0.9758
-8.6975 26.8971 0.4934 0.8931
-4.0308 8.7098 0.1675 0.9623
-11.3888 8.7405 0.2506 0.9442
-14.8199 8.7609 0.3005 0.9334
-24.0145 -31.1748 0.6869 0.8543
-19.8822 -33.4952 0.6799 0.8557
-15.5792 -35.3604 0.6745 0.8568
5.3433 -78.7182 1.3772 0.7293
40.1111 -87.4946 1.6801 0.6804
33.4835 -42.1564 0.9397 0.8062
35.4442 -34.9842 0.8693 0.8194
35.4883 -27.4389 0.7830 0.8357
28.1943 -16.8041 0.5729 0.8769
81.0027 -24.7111 1.4782 0.7126
61.2099 19.4295 1.1210 0.7734
10.8904 8.6181 0.2424 0.9460
6.6801 8.6078 0.1902 0.9573
2.6615 8.6687 0.1583 0.9644
1.5536 8.6755 0.1538 0.9654
-0.5571 8.6674 0.1516 0.9659
-1.6182 8.6527 0.1537 0.9654
-2.7319 8.6602 0.1585 0.9643
-3.9549 8.7093 0.1670 0.9625
-5.3084 8.7177 0.1782 0.9600
-6.8774 8.7229 0.1939 0.9565
-11.2196 8.7393 0.2482 0.9447
-14.5345 8.7336 0.2960 0.9344
-55.9719 -17.5459 1.0239 0.7908
-24.3714 -31.1726 0.6907 0.8536
-18.8279 -31.2065 0.6362 0.8643
-15.8824 -35.3585 0.6766 0.8564
-5.7079 -31.2276 0.5541 0.8807
31.3135 -51.8422 1.0572 0.7848
54.1102 -24.4220 1.0362 0.7886
78.9261 -24.6984 1.4435 0.7183
91.7116 5.3991 1.6036 0.6924
61.2069 18.9461 1.1184 0.7739
8.6624 8.6202 0.2133 0.9523
2.7296 8.6683 0.1586 0.9643
-0.4946 8.6670 0.1515 0.9659
-5.2227 8.7171 0.1774 0.9602
-17.2382 22.1896 0.4905 0.8937
-14.3271 8.7496 0.2930 0.9350
-19.3206 8.8038 0.3706 0.9186
-55.9918 -17.1118 1.0220 0.7912
-55.8464 -43.2243 1.2327 0.7539
-19.1336 -31.2046 0.6389 0.8638
-5.9396 -31.2261 0.5548 0.8806
35.1640 -79.7043 1.5206 0.7057
31.3083 -52.6845 1.0697 0.7826
32.9196 -42.6907 0.9410 0.8060
35.4380 -35.9971 0.8817 0.8170
35.4747 -28.2513 0.7916 0.8341
97.5214 -18.7310 1.7333 0.6721
28.2129 8.5116 0.5144 0.8888
45.8850 20.1453 0.8748 0.8183
14.5239 8.5958 0.2946 0.9347
5.3239 8.6131 0.1767 0.9603
4.0027 8.6604 0.1665 0.9626
1.6823 8.6747 0.1542 0.9653
-0.4322 8.6666 0.1515 0.9659
-1.4898 8.6518 0.1532 0.9655
-2.5955 8.6592 0.1578 0.9645
-3.8047 8.7084 0.1659 0.9627
-5.1377 8.7166 0.1766 0.9603
-6.6731 8.7183 0.1916 0.9570
-10.9021 8.7464 0.2440 0.9456
-14.0955 8.7477 0.2896 0.9358
-16.3015 -34.9409 0.6730 0.8571
-6.1718 -31.2247 0.5556 0.8804
-2.5047 -33.5796 0.5878 0.8740
0.7509 -16.2275 0.2836 0.9371
37.8204 -87.4193 1.6626 0.6831
38.0593 -39.2187 0.9539 0.8036
38.8605 -24.3103 0.8001 0.8325
52.0756 -24.4095 1.0039 0.7945
74.8981 -24.6236 1.3762 0.7295
92.7045 -18.4968 1.6500 0.6851
45.9465 19.7802 0.8732 0.8186
11.3819 8.6151 0.2492 0.9445
35.6766 34.4978 0.8663 0.8199
6.9945 8.6229 0.1938 0.9566
5.4095 8.6127 0.1775 0.9601
4.0782 8.6600 0.1671 0.9624
2.8668 8.6674 0.1593 0.9641
0.6775 8.6640 0.1517 0.9658
-0.3699 8.6662 0.1514 0.9659
-3.7303 8.7079 0.1654 0.9628
-5.0535 8.7161 0.1759 0.9605
-6.5798 8.7255 0.1908 0.9572
-26.4884 8.8139 0.4873 0.8943
-79.2580 -12.9170 1.4017 0.7252
-19.7531 -31.2008 0.6446 0.8627
-16.5462 -34.8113 0.6728 0.8571
-8.5112 -25.4264 0.4680 0.8983
-6.4048 -31.2233 0.5563 0.8803
-2.7471 -33.5781 0.5881 0.8739
0.6315 -16.1579 0.2823 0.9374
37.5116 -39.2136 0.9472 0.8049
38.2530 -24.3140 0.7912 0.8342
51.1048 -24.4035 0.9885 0.7973
54.7770 -18.4453 1.0089 0.7936
51.5585 8.2127 0.9113 0.8115
29.7182 8.5024 0.5395 0.8837
7.0979 8.6232 0.1949 0.9563
5.4958 8.6123 0.1783 0.9600
4.1542 8.6595 0.1676 0.9623
-3.6564 8.7075 0.1648 0.9629
-4.9699 8.7156 0.1751 0.9607
-8.2970 8.7360 0.2103 0.9529
-10.5917 8.7501 0.2398 0.9465
-56.0510 -15.8186 1.0166 0.7922
-20.0671 -31.1989 0.6475 0.8621
-8.6772 -25.3174 0.4671 0.8985
31.3707 -42.5458 0.9227 0.8094
36.9714 -39.2086 0.9407 0.8061
50.1638 -24.3977 0.9737 0.8000
91.3687 -19.5981 1.6311 0.6881
51.7893 7.8688 0.9144 0.8109
30.5280 8.4974 0.5531 0.8809
48.5331 20.0730 0.9168 0.8105
15.2565 8.5913 0.3056 0.9323
11.7251 8.6130 0.2539 0.9435
5.5829 8.6118 0.1791 0.9598
4.2306 8.6590 0.1682 0.9622
3.0052 8.6666 0.1601 0.9640
0.8034 8.6699 0.1520 0.9658
-1.2985 8.6506 0.1527 0.9656
-2.3932 8.6579 0.1568 0.9647
-4.8871 8.7151 0.1744 0.9608
-6.3846 8.7243 0.1887 0.9577
-8.1779 8.7353 0.2089 0.9533
-10.4371 8.7492 0.2377 0.9470
-13.4324 8.7423 0.2797 0.9379
-17.8865 8.7788 0.3478 0.9234
-79.0676 7.4696 1.3863 0.7278
-54.5449 -14.9718 0.9873 0.7975
-79.6352 -32.6022 1.5020 0.7087
-63.5149 -59.2484 1.5161 0.7065
-20.3838 -31.1970 0.6505 0.8615
-16.5385 -33.5443 0.6528 0.8610
-8.8965 -25.3622 0.4691 0.8981
-3.0082 -31.2441 0.5479 0.8820
35.6268 -87.4706 1.6486 0.6853
31.2864 -56.2650 1.1237 0.7729
35.4674 -29.9492 0.8103 0.8305
37.0717 -24.3173 0.7739 0.8375
51.9737 -18.3361 0.9620 0.8021
31.3791 8.4922 0.5674 0.8781
49.6643 20.1245 0.9354 0.8070
11.9018 8.6119 0.2564 0.9429
9.3159 8.6278 0.2216 0.9505
7.3071 8.6221 0.1973 0.9558
5.6708 8.6114 0.1800 0.9596
4.3077 8.6586 0.1688 0.9620
1.9419 8.6731 0.1551 0.9651
-1.2353 8.6523 0.1526 0.9656
-10.2850 8.7482 0.2357 0.9474
-17.5611 8.7761 0.3427 0.9245
-24.7394 8.8279 0.4585 0.9002
-61.3689 -33.6930 1.2220 0.7557
-70.1294 -50.3617 1.5070 0.7079
-20.7034 -31.1950 0.6535 0.8609
-16.5347 -32.9384 0.6433 0.8629
-6.4428 -28.2987 0.5066 0.8904
25.9381 -47.4455 0.9438 0.8055
31.3629 -43.8390 0.9409 0.8060
35.9131 -39.1987 0.9280 0.8084
35.4697 -30.3898 0.8153 0.8296
36.4923 -24.3137 0.7654 0.8391
48.3633 -24.3867 0.9454 0.8052
51.7781 -18.6862 0.9608 0.8023
52.1761 7.1629 0.9193 0.8100
32.2759 8.4867 0.5825 0.8750
50.6907 20.1182 0.9519 0.8040
12.0819 8.6108 0.2590 0.9424
9.4502 8.6270 0.2233 0.9501
7.4136 8.6215 0.1985 0.9555
4.3852 8.6581 0.1694 0.9619
2.0073 8.6727 0.1554 0.9650
-2.2597 8.6570 0.1562 0.9648
-3.4372 8.7062 0.1634 0.9632
-4.7234 8.7141 0.1730 0.9611
-7.9444 8.7338 0.2061 0.9539
-10.1357 8.7473 0.2337 0.9478
-17.2453 8.7735 0.3377 0.9255
-78.7486 18.3751 1.4115 0.7236
-3.5795 -15.2170 0.2729 0.9394
0.8865 -85.6104 1.4944 0.7100
47.5014 -24.3814 0.9320 0.8077
51.5832 -19.0353 0.9597 0.8025
12.2657 8.6096 0.2616 0.9418
9.5865 8.6261 0.2251 0.9497
7.5214 8.6209 0.1997 0.9553
5.8491 8.6106 0.1817 0.9592
3.2153 8.6653 0.1613 0.9637
0.9890 8.6437 0.1519 0.9658
-1.1096 8.6582 0.1524 0.9657
-3.3650 8.7057 0.1629 0.9633
-4.6425 8.7136 0.1723 0.9613
-9.9887 8.7464 0.2317 0.9483
-20.5315 2.3866 0.3608 0.9206
-54.4783 -13.6992 0.9805 0.7987
-3.6856 -15.1782 0.2726 0.9394
-3.6882 -31.2399 0.5491 0.8817
46.2330 -87.5310 1.7279 0.6730
31.3202 -45.1348 0.9589 0.8027
26.0941 -29.3153 0.6850 0.8547
35.4670 -31.2817 0.8255 0.8276
-49.8560 14.6246 -0.9069 0.8123
-52.1960 8.6720 -0.9236 0.8092
-73.7612 -5.6721 -1.2913 0.7438
-45.8447 -9.1710 -0.8161 0.8294
-62.8480 -29.4974 -1.2118 0.7575
-17.7032 -23.3261 -0.5111 0.8895
-15.2778 -35.3622 -0.6724 0.8572
-5.8061 -19.6628 -0.3579 0.9213
-3.3717 -20.0709 -0.3552 0.9218
40.8774 -87.5029 -1.6858 0.6795
26.8643 -33.3287 -0.7472 0.8426
35.4931 -27.0379 -0.7788 0.8365
41.5206 -24.3446 -0.8401 0.8248
56.2805 -24.4353 -1.0710 0.7823
43.3645 20.1633 -0.8347 0.8259
8.4055 8.6082 -0.2100 0.9530
27.7139 47.0732 -0.9535 0.8037
3.7792 8.6618 -0.1650 0.9629
1.4895 8.6759 -0.1537 0.9654
0.4272 8.6522 -0.1512 0.9659
-0.6182 8.6475 -0.1513 0.9659
-11.3679 8.7245 -0.2501 0.9443
-14.8199 8.7609 -0.3005 0.9334
-20.0905 8.8085 -0.3829 0.9160
-52.1936 9.0570 -0.9247 0.8090
-32.9705 1.6871 -0.5762 0.8763
-46.4238 -8.9408 -0.8252 0.8277
-57.0555 -18.3365 -1.0461 0.7868
-8.8169 -20.0119 -0.3817 0.9162
-5.9068 -19.4879 -0.3554 0.9218
-3.5351 -20.1574 -0.3572 0.9214
1.5420 -22.7178 -0.3974 0.9129
28.1956 -88.2765 -1.6176 0.6902
40.1127 -87.4982 -1.6801 0.6804
31.0040 -50.5071 -1.0344 0.7889
35.4442 -34.9842 -0.8693 0.8194
55.1774 -24.4285 -1.0533 0.7855
81.0027 -24.7112 -1.4782 0.7126
61.2099 19.4295 -1.1210 0.7734
44.1804 20.1583 -0.8476 0.8234
10.8904 8.6181 -0.2424 0.9460
8.5329 8.6142 -0.2116 0.9527
6.6597 8.5814 -0.1896 0.9575
5.1730 8.6441 -0.1758 0.9605
3.8532 8.6613 -0.1655 0.9628
1.5536 8.6755 -0.1538 0.9654
-0.5558 8.6471 -0.1512 0.9659
-1.6109 8.6140 -0.1530 0.9655
-6.8774 8.7229 -0.1939 0.9565
-8.7906 8.7391 -0.2164 0.9516
-53.4523 3.1198 -0.9346 0.8072
-70.6471 -4.4134 -1.2355 0.7534
-56.3732 -17.6717 -1.0312 0.7895
-58.3054 -35.3603 -1.1903 0.7612
-60.7107 -47.6899 -1.3476 0.7343
-9.0368 -20.1183 -0.3850 0.9155
-9.8314 -31.6164 -0.5779 0.8759
27.6141 -88.6464 -1.6207 0.6897
30.6849 -50.8015 -1.0359 0.7886
35.4881 -27.8480 -0.7874 0.8349
40.1733 -24.3363 -0.8199 0.8287
54.1102 -24.4220 -1.0362 0.7886
61.3071 18.9771 -1.1202 0.7736
41.6647 18.6503 -0.7968 0.8331
11.0513 8.6171 -0.2446 0.9455
8.6624 8.6202 -0.2133 0.9523
3.9277 8.6609 -0.1660 0.9627
1.6179 8.6751 -0.1540 0.9653
0.5521 8.6581 -0.1514 0.9659
-0.4935 8.6468 -0.1512 0.9659
-3.8796 8.7089 -0.1664 0.9626
-15.3414 19.7480 -0.4365 0.9048
-8.6646 8.7383 -0.2148 0.9520
-11.0548 8.7392 -0.2460 0.9452
-14.1971 8.6702 -0.2904 0.9356
-25.7604 8.1628 -0.4717 0.8975
-53.4097 10.0599 -0.9487 0.8046
-53.6555 3.5184 -0.9386 0.8064
-86.0824 -4.7576 -1.5049 0.7083
-72.0067 -12.7987 -1.2766 0.7463
-56.1988 -17.1750 -1.0257 0.7905
-71.9339 -31.8903 -1.3734 0.7299
-55.7393 -43.1415 -1.2303 0.7543
-10.0804 -31.6149 -0.5792 0.8757
-6.3827 -33.5559 -0.5962 0.8723
-1.4197 -21.0712 -0.3686 0.9190
26.9591 -34.9611 -0.7706 0.8381
35.4380 -35.9971 -0.8817 0.8170
35.4753 -28.2518 -0.7916 0.8341
39.5239 -24.3323 -0.8101 0.8305
53.0767 -24.4156 -1.0198 0.7916
72.2414 3.7328 -1.2627 0.7487
53.0698 9.2365 -0.9403 0.8061
61.2039 18.4648 -1.1159 0.7743
41.7188 18.3162 -0.7953 0.8334
5.2947 8.5658 -0.1758 0.9605
4.0027 8.6604 -0.1665 0.9626
2.7980 8.6678 -0.1590 0.9642
0.6148 8.6610 -0.1516 0.9659
-0.4312 8.6464 -0.1511 0.9660
-3.8047 8.7084 -0.1659 0.9627
-5.1377 8.7166 -0.1766 0.9603
-6.6731 8.7183 -0.1916 0.9570
-8.5403 8.7375 -0.2133 0.9523
-10.9021 8.7464 -0.2440 0.9456
-13.9692 8.6692 -0.2870 0.9363
-18.9539 8.8015 -0.3648 0.9198
-56.2170 -16.7405 -1.0239 0.7908
-71.9697 -31.2900 -1.3698 0.7306
-56.0769 -42.7627 -1.2309 0.7542
-21.0068 -26.0885 -0.5846 0.8746
-9.3684 -20.0804 -0.3868 0.9152
-2.5047 -33.5796 -0.5878 0.8740
0.7509 -16.2266 -0.2835 0.9371
37.8204 -87.4193 -1.6626 0.6831
26.9559 -35.4807 -0.7778 0.8367
37.7660 -38.9164 -0.9466 0.8050
75.2338 -24.7340 -1.3824 0.7285
72.2267 3.2124 -1.2620 0.7488
28.5055 8.3772 -0.5186 0.8879
42.3943 18.2509 -0.8057 0.8314
14.7622 8.5943 -0.2982 0.9339
35.6766 34.4978 -0.8663 0.8199
6.9727 8.5960 -0.1932 0.9567
5.3796 8.5652 -0.1765 0.9603
4.0782 8.6600 -0.1671 0.9624
2.8668 8.6674 -0.1593 0.9641
0.6775 8.6640 -0.1517 0.9658
-1.4212 8.6231 -0.1525 0.9656
-2.5154 8.6164 -0.1567 0.9647
-5.0535 8.7161 -0.1759 0.9605
-6.5798 8.7255 -0.1908 0.9572
-10.7741 8.7714 -0.2425 0.9459
-26.4884 8.8139 -0.4873 0.8943
-85.9425 17.4685 -1.5308 0.7041
-86.0746 -3.5185 -1.5037 0.7085
-71.8453 -30.6245 -1.3632 0.7317
-61.0227 -35.2339 -1.2299 0.7543
-56.7397 -54.4723 -1.3729 0.7300
-6.8827 -33.5528 -0.5979 0.8719
-1.7071 -20.8671 -0.3655 0.9197
37.0652 -87.3895 -1.6569 0.6840
30.5976 -40.8799 -0.8913 0.8152
37.2225 -38.9114 -0.9399 0.8062
51.1048 -24.4035 -0.9885 0.7973
73.7682 -24.8402 -1.3587 0.7324
53.0649 8.4527 -0.9379 0.8066
43.1427 18.2072 -0.8174 0.8292
15.0064 8.5928 -0.3018 0.9332
11.5519 8.6140 -0.2515 0.9440
9.0297 8.6068 -0.2177 0.9513
5.4653 8.5646 -0.1773 0.9602
0.7404 8.6669 -0.1518 0.9658
-0.3068 8.6456 -0.1510 0.9660
-2.4483 8.6160 -0.1563 0.9648
-6.4816 8.7249 -0.1897 0.9574
-8.2970 8.7360 -0.2103 0.9529
-53.4023 11.2543 -0.9526 0.8039
-53.6484 4.6798 -0.9400 0.8062
-86.0707 -2.8999 -1.5032 0.7086
-79.5006 -12.3713 -1.4044 0.7248
-60.1307 -44.5035 -1.3058 0.7414
-6.6647 -19.4456 -0.3588 0.9211
-2.9896 -33.5766 -0.5884 0.8738
2.2097 -69.2766 -1.2098 0.7578
35.4778 -29.5242 -0.8056 0.8314
37.6638 -24.3209 -0.7826 0.8358
50.1638 -24.3977 -0.9737 0.8000
81.2423 2.4455 -1.4187 0.7224
53.0625 8.0623 -0.9368 0.8068
30.2894 8.4310 -0.5488 0.8818
11.7251 8.6130 -0.2539 0.9435
7.1802 8.5966 -0.1955 0.9562
3.0052 8.6666 -0.1601 0.9640
1.8767 8.6735 -0.1549 0.9651
0.8034 8.6699 -0.1520 0.9658
-2.3815 8.6157 -0.1560 0.9649
-3.5829 8.7070 -0.1643 0.9630
-4.8871 8.7151 -0.1744 0.9608
-6.3846 8.7243 -0.1887 0.9577
-8.1779 8.7353 -0.2089 0.9533
-10.4371 8.7492 -0.2377 0.9470
-13.3385 8.6812 -0.2778 0.9383
-17.6993 8.6869 -0.3441 0.9242
-23.4269 8.1705 -0.4331 0.9055
-85.9344 18.7553 -1.5353 0.7034
-53.6460 5.0680 -0.9406 0.8061
-86.0668 -2.2816 -1.5028 0.7086
-72.1458 -10.6968 -1.2731 0.7469
-55.1451 -15.1366 -0.9982 0.7955
-10.0102 -20.3034 -0.3951 0.9134
30.2995 -54.4903 -1.0883 0.7792
26.6242 -36.6566 -0.7908 0.8342
36.2382 -38.9877 -0.9291 0.8082
37.0717 -24.3173 -0.7739 0.8375
52.1763 -18.4076 -0.9658 0.8014
61.6187 -13.6804 -1.1017 0.7768
50.9199 7.3631 -0.8980 0.8140
31.3213 8.4766 -0.5664 0.8783
15.4656 8.5634 -0.3086 0.9317
11.9018 8.6119 -0.2564 0.9429
7.2850 8.5959 -0.1967 0.9559
5.6391 8.5633 -0.1790 0.9598
3.0749 8.6661 -0.1605 0.9639
1.9419 8.6731 -0.1551 0.9651
-0.1826 8.6449 -0.1509 0.9660
-1.2324 8.6320 -0.1522 0.9657
-2.3150 8.6153 -0.1557 0.9649
-3.5098 8.7066 -0.1639 0.9631
-4.8049 8.7146 -0.1737 0.9610
-6.2884 8.7237 -0.1877 0.9579
-13.1456 8.6905 -0.2751 0.9389
-17.4106 8.7009 -0.3397 0.9251
-22.9019 8.1722 -0.4244 0.9073
-53.3974 12.0563 -0.9555 0.8033
-53.6436 5.4564 -0.9412 0.8060
-86.0629 -1.6633 -1.5025 0.7087
-72.0009 -10.1479 -1.2692 0.7476
-62.4097 -34.2644 -1.2427 0.7521
-55.7649 -51.2752 -1.3223 0.7385
-4.4491 -19.5417 -0.3498 0.9230
0.3849 -21.9567 -0.3833 0.9159
32.1645 -80.6210 -1.5151 0.7066
26.2227 -36.6541 -0.7867 0.8350
35.4725 -30.3921 -0.8154 0.8295
36.4923 -24.3137 -0.7654 0.8391
48.3633 -24.3867 -0.9454 0.8052
45.6419 18.1144 -0.8571 0.8216
16.4446 8.9518 -0.3268 0.9278
12.0819 8.6108 -0.2590 0.9424
9.4502 8.6270 -0.2233 0.9501
7.3910 8.5952 -0.1979 0.9557
3.1449 8.6657 -0.1609 0.9638
2.0073 8.6727 -0.1554 0.9650
0.9297 8.6758 -0.1523 0.9657
-1.1696 8.6350 -0.1521 0.9657
-3.4372 8.7062 -0.1634 0.9632
-4.7234 8.7141 -0.1730 0.9611
-6.1934 8.7231 -0.1867 0.9581
-10.1357 8.7473 -0.2337 0.9478
-22.5100 8.2150 -0.4183 0.9086
-78.7387 18.3728 -1.4113 0.7236
-53.4357 5.8231 -0.9382 0.8065
-54.2283 -14.0511 -0.9778 0.7992
-72.0578 -28.2993 -1.3513 0.7337
-59.8090 -42.3029 -1.2787 0.7460
-56.4652 -51.1763 -1.3302 0.7372
-14.5448 -21.5776 -0.4542 0.9011
-10.3206 -20.1966 -0.3959 0.9133
-2.2972 -20.7347 -0.3641 0.9199
32.8125 -83.9923 -1.5740 0.6972
47.0450 -87.5408 -1.7347 0.6719
35.1999 -38.9781 -0.9167 0.8105
35.4698 -30.8342 -0.8204 0.8286
52.8932 -19.5187 -0.9841 0.7981
33.2213 8.4809 -0.5985 0.8718
46.3656 18.0174 -0.8683 0.8195
16.5232 8.8415 -0.3271 0.9278
12.2657 8.6096 -0.2616 0.9418
9.5865 8.6261 -0.2251 0.9497
4.4634 8.6576 -0.1700 0.9618
3.2153 8.6653 -0.1613 0.9637
2.0729 8.6723 -0.1556 0.9650
0.9890 8.6437 -0.1519 0.9658
-0.0585 8.6441 -0.1509 0.9660
-1.1070 8.6380 -0.1520 0.9658
-3.3650 8.7057 -0.1629 0.9633
-4.6425 8.7136 -0.1723 0.9613
-6.0993 8.7225 -0.1858 0.9583
-12.7706 8.7086 -0.2698 0.9400
-16.8549 8.7278 -0.3313 0.9269
-23.6677 8.8305 -0.4409 0.9039
-85.9222 20.7006 -1.5427 0.7022
-86.0551 -0.4275 -1.5021 0.7087
-72.1001 -27.7203 -1.3483 0.7342
-59.8119 -41.6642 -1.2723 0.7471
-10.4218 -20.0383 -0.3942 0.9136
-13.2707 -35.3745 -0.6595 0.8597
-3.6834 -15.1690 -0.2725 0.9395
-2.4351 -20.6257 -0.3625 0.9203
33.4102 -87.3670 -1.6327 0.6878
42.1560 -79.8122 -1.5755 0.6969
31.3542 -45.1838 -0.9600 0.8025
26.0889 -29.3095 -0.6849 0.8547
-19.1335 8.2257 -1.0915 0.9200
-44.8387 7.4496 -2.3821 0.8335
-45.0878 -3.4671 -2.3699 0.8343
-36.9703 -7.3958 -1.9759 0.8598
-42.5769 -14.0213 -2.3492 0.8356
-43.2080 -20.2794 -2.5014 0.8260
-40.4520 -25.3341 -2.5014 0.8260
-37.1076 -30.0202 -2.5014 0.8260
-17.5317 -23.1001 -1.5198 0.8903
-0.9602 -20.9793 -1.1006 0.9193
9.2787 -46.8197 -2.5014 0.8260
14.8483 -45.3620 -2.5014 0.8260
20.2018 -43.2443 -2.5014 0.8260
25.1991 -40.3973 -2.4953 0.8264
26.9282 -33.4080 -2.2488 0.8421
32.1284 -31.2594 -2.3492 0.8356
38.6694 -22.6729 -2.3492 0.8356
41.1179 -17.8522 -2.3492 0.8356
45.7520 -13.5992 -2.5014 0.8260
47.6764 -2.2680 -2.5014 0.8260
47.6026 3.4888 -2.5014 0.8260
30.6309 9.9656 -1.6881 0.8790
30.6957 14.2726 -1.7741 0.8732
13.8421 8.6000 -0.8540 0.9368
10.6385 18.0699 -1.0989 0.9194
1.7556 5.8680 -0.3210 0.9758
0.4272 8.6522 -0.4540 0.9659
-0.6167 8.6273 -0.4533 0.9659
-1.6705 8.5908 -0.4587 0.9656
-4.0308 8.7098 -0.5030 0.9623
-6.9836 8.7279 -0.5858 0.9562
-8.9186 8.7398 -0.6544 0.9512
-14.8199 8.7609 -0.9022 0.9334
-18.7559 8.2234 -1.0733 0.9212
-37.1905 -7.1626 -1.9849 0.8592
-42.6764 -13.7153 -2.3492 0.8356
-43.2895 -19.9398 -2.4978 0.8262
-40.6328 -25.0431 -2.5014 0.8260
-33.4682 -34.0303 -2.5014 0.8260
-18.1045 -23.5027 -1.5548 0.8880
-12.0430 -20.2888 -1.2365 0.9098
-3.4460 -19.6489 -1.0455 0.9232
14.5223 -45.4674 -2.5014 0.8260
24.9502 -40.6452 -2.4994 0.8261
27.8798 -35.1013 -2.3492 0.8356
35.3862 -27.3601 -2.3442 0.8360
28.1336 -16.7680 -1.7164 0.8771
47.6589 -2.6102 -2.5014 0.8260
47.6265 3.1470 -2.5014 0.8260
44.0474 8.3193 -2.3492 0.8356
14.0641 8.5986 -0.8639 0.9361
10.8904 8.6181 -0.7278 0.9459
6.6393 8.5552 -0.5675 0.9576
5.1730 8.6441 -0.5279 0.9605
-1.6072 8.5938 -0.4582 0.9656
-2.7050 8.5752 -0.4712 0.9646
-14.3046 8.5955 -0.8746 0.9353
-18.4845 8.2631 -1.0611 0.9221
-45.2667 2.6421 -2.3764 0.8339
-45.1386 -2.8199 -2.3702 0.8343
-41.2709 -7.6417 -2.1997 0.8453
-42.7737 -13.4086 -2.3492 0.8356
-43.3449 -19.5895 -2.4928 0.8265
-37.5346 -29.4845 -2.5014 0.8260
-18.7768 -24.0168 -1.5977 0.8851
-8.8892 -19.7897 -1.1370 0.9168
-5.9355 -19.0879 -1.0476 0.9231
-1.2440 -20.6748 -1.0855 0.9204
14.1956 -45.5705 -2.5014 0.8260
19.5791 -43.5298 -2.5014 0.8260
24.6775 -40.8559 -2.5014 0.8260
26.0637 -33.3026 -2.2163 0.8442
31.6764 -31.7174 -2.3492 0.8356
47.6478 2.8051 -2.5014 0.8260
31.6373 5.7405 -1.6851 0.8792
30.6870 13.7363 -1.7620 0.8740
14.2913 8.5972 -0.8741 0.9354
11.0513 8.6171 -0.7344 0.9454
8.6624 8.6202 -0.6405 0.9522
5.1821 8.5198 -0.5226 0.9608
3.9277 8.6609 -0.4984 0.9626
2.7296 8.6683 -0.4763 0.9643
-5.2227 8.7171 -0.5326 0.9601
-14.8225 19.0801 -1.2662 0.9078
-11.0548 8.7392 -0.7385 0.9451
-45.1590 -2.4959 -2.3703 0.8343
-40.9881 -24.4573 -2.5014 0.8260
-37.7453 -29.2143 -2.5014 0.8260
-12.5890 -20.5313 -1.2622 0.9080
-3.7120 -19.5153 -1.0411 0.9235
-1.3905 -20.6377 -1.0840 0.9205
1.1801 -22.0713 -1.1584 0.9153
8.2685 -47.0087 -2.5014 0.8260
13.8681 -45.6712 -2.5014 0.8260
24.3836 -41.0319 -2.5014 0.8260
27.3731 -35.4979 -2.3492 0.8356
31.4479 -31.9440 -2.3492 0.8356
40.7240 -18.7333 -2.3492 0.8356
42.9187 -13.7694 -2.3622 0.8348
47.6165 -3.2940 -2.5014 0.8260
47.6667 2.4630 -2.5014 0.8260
14.5239 8.5958 -0.8845 0.9346
8.7940 8.6264 -0.6456 0.9519
6.8458 8.5645 -0.5746 0.9570
5.2657 8.5190 -0.5249 0.9607
1.6823 8.6747 -0.4631 0.9652
0.6148 8.6610 -0.4550 0.9658
-0.4302 8.6262 -0.4526 0.9660
-3.8047 8.7084 -0.4980 0.9627
-5.1377 8.7166 -0.5303 0.9603
-8.5403 8.7375 -0.6403 0.9522
-13.8844 8.6166 -0.8564 0.9366
-18.4898 8.5860 -1.0684 0.9216
-22.0824 7.1722 -1.2168 0.9112
-44.6311 8.7386 -2.3834 0.8335
-45.1769 -2.1717 -2.3704 0.8343
-40.9154 -6.9698 -2.1752 0.8468
-20.2014 -25.0882 -1.6881 0.8790
-12.8604 -20.6400 -1.2745 0.9072
-3.8548 -19.5022 -1.0418 0.9235
26.9844 -35.5182 -2.3377 0.8364
31.2178 -32.1688 -2.3492 0.8356
40.5885 -19.0251 -2.3492 0.8356
30.6786 13.2073 -1.7505 0.8748
33.3214 32.2204 -2.4292 0.8306
1.7469 8.6743 -0.4637 0.9652
-0.3681 8.6259 -0.4525 0.9660
-1.4179 8.6029 -0.4569 0.9657
-2.5031 8.5744 -0.4681 0.9649
-3.7303 8.7079 -0.4965 0.9628
-8.4178 8.7368 -0.6358 0.9526
-13.6807 8.6269 -0.8476 0.9373
-18.1936 8.6078 -1.0548 0.9225
-21.6579 7.2065 -1.1962 0.9126
-44.5859 9.0624 -2.3844 0.8334
-44.9771 3.5984 -2.3647 0.8347
-43.0525 -12.4846 -2.3492 0.8356
-34.4314 -33.0555 -2.5014 0.8260
-21.5993 -26.4335 -1.7890 0.8722
-13.0377 -20.5936 -1.2774 0.9070
-9.3641 -19.7009 -1.1432 0.9163
-3.9746 -19.3762 -1.0366 0.9238
-1.6889 -20.6436 -1.0855 0.9204
7.5928 -47.1225 -2.5014 0.8260
13.2110 -45.8656 -2.5014 0.8260
26.8607 -35.8872 -2.3492 0.8356
30.9861 -32.3920 -2.3492 0.8356
37.8310 -24.0458 -2.3492 0.8356
40.4509 -19.3161 -2.3492 0.8356
47.5643 -3.9772 -2.5014 0.8260
44.2681 7.0514 -2.3492 0.8356
30.6745 12.9453 -1.7449 0.8752
15.0064 8.5928 -0.9063 0.9331
11.5519 8.6140 -0.7552 0.9439
5.4352 8.5173 -0.5295 0.9603
0.7404 8.6669 -0.4559 0.9658
-0.3061 8.6255 -0.4523 0.9660
-3.6564 8.7075 -0.4949 0.9629
-6.4816 8.7249 -0.5696 0.9574
-45.2054 -1.5231 -2.3705 0.8343
-40.0432 -6.2312 -2.1238 0.8502
-43.1410 -12.1752 -2.3492 0.8356
-42.0033 -17.5491 -2.3857 0.8333
-34.6678 -32.8074 -2.5014 0.8260
-1.8253 -20.5003 -1.0786 0.9209
7.2545 -47.1758 -2.5014 0.8260
18.3214 -44.0739 -2.5014 0.8260
30.7528 -32.6137 -2.3492 0.8356
33.0810 -27.5296 -2.2555 0.8417
40.3112 -19.6058 -2.3492 0.8356
44.3175 6.7336 -2.3492 0.8356
29.6556 8.2546 -1.6133 0.8840
20.8130 8.6081 -1.1804 0.9137
15.2565 8.5913 -0.9176 0.9323
11.7251 8.6130 -0.7625 0.9434
5.5211 8.5165 -0.5319 0.9602
4.2306 8.6590 -0.5051 0.9621
3.0052 8.6666 -0.4807 0.9639
1.8767 8.6735 -0.4651 0.9651
-0.2441 8.6251 -0.4522 0.9660
-1.2922 8.6089 -0.4562 0.9657
-2.3699 8.5738 -0.4662 0.9650
-3.5829 8.7070 -0.4934 0.9630
-8.1779 8.7353 -0.6271 0.9532
-17.6092 8.6427 -1.0280 0.9244
-45.2250 -1.1989 -2.3710 0.8343
-39.7900 -5.8995 -2.1081 0.8512
-43.2273 -11.8653 -2.3492 0.8356
-41.6664 -17.0580 -2.3595 0.8350
-41.6733 -23.2706 -2.5014 0.8260
-28.8589 -34.3009 -2.3492 0.8356
-13.7167 -20.9931 -1.3142 0.9044
-9.7522 -19.7801 -1.1558 0.9155
-6.7422 -19.2207 -1.0675 0.9217
-4.2274 -19.2040 -1.0305 0.9243
5.6499 -38.5836 -2.0437 0.8554
23.1958 -41.7150 -2.5014 0.8260
26.3427 -36.2691 -2.3492 0.8356
30.5180 -32.8335 -2.3492 0.8356
34.2490 -28.9204 -2.3492 0.8356
40.1694 -19.8948 -2.3492 0.8356
42.2726 -14.9136 -2.3492 0.8356
46.5957 -10.3450 -2.5014 0.8260
44.3647 6.4152 -2.3492 0.8356
21.1528 8.5713 -1.1961 0.9126
15.4656 8.5634 -0.9265 0.9316
11.9018 8.6119 -0.7699 0.9429
9.3159 8.6278 -0.6654 0.9504
5.6077 8.5156 -0.5344 0.9600
3.0749 8.6661 -0.4819 0.9638
1.9419 8.6731 -0.4658 0.9650
0.8664 8.6728 -0.4568 0.9657
-0.1822 8.6248 -0.4521 0.9660
-1.2295 8.6119 -0.4559 0.9658
-2.3037 8.5735 -0.4653 0.9651
-4.8049 8.7146 -0.5215 0.9609
-8.0604 8.7346 -0.6229 0.9535
-10.2850 8.7482 -0.7076 0.9474
-17.3277 8.6595 -1.0152 0.9253
-44.4308 10.0318 -2.3871 0.8332
-32.6542 3.3214 -1.7202 0.8768
-37.2464 -9.9367 -2.0203 0.8569
-41.6051 -16.6853 -2.3492 0.8356
-41.8393 -22.9708 -2.5014 0.8260
-38.7692 -27.8412 -2.5014 0.8260
-29.1043 -34.0929 -2.3492 0.8356
-14.1311 -21.2921 -1.3393 0.9027
-10.0046 -19.9299 -1.1687 0.9146
-6.9956 -19.4941 -1.0854 0.9204
-2.1106 -20.3870 -1.0741 0.9212
0.3774 -21.5291 -1.1285 0.9174
5.4002 -38.8188 -2.0540 0.8547
30.2815 -33.0517 -2.3492 0.8356
34.0406 -29.1654 -2.3492 0.8356
40.0257 -20.1825 -2.3492 0.8356
42.1644 -15.2167 -2.3492 0.8356
47.4677 -5.0003 -2.5014 0.8260
47.7244 0.7511 -2.5014 0.8260
44.4096 6.0967 -2.3492 0.8356
32.2759 8.4867 -1.7490 0.8749
21.5931 8.5699 -1.2175 0.9111
7.3684 8.5690 -0.5923 0.9557
5.6952 8.5147 -0.5369 0.9598
4.3852 8.6581 -0.5086 0.9619
3.1449 8.6657 -0.4831 0.9637
2.0073 8.6727 -0.4665 0.9650
0.9297 8.6758 -0.4573 0.9657
-1.1669 8.6149 -0.4556 0.9658
-7.9444 8.7338 -0.6188 0.9538
-10.1357 8.7473 -0.7017 0.9478
-21.2487 7.7547 -1.1854 0.9134
-32.6750 3.5608 -1.7226 0.8766
-45.2691 -0.5500 -2.3726 0.8342
-39.2586 -5.2459 -2.0757 0.8533
-36.8295 -9.5429 -1.9939 0.8587
-35.3661 -32.0534 -2.5014 0.8260
-29.3482 -33.8832 -2.3492 0.8356
-14.2882 -21.1970 -1.3397 0.9027
-7.1093 -19.3724 -1.0815 0.9207
-3.5731 -15.1897 -0.8178 0.9394
-2.2538 -20.3425 -1.0726 0.9213
0.2226 -21.4930 -1.1265 0.9175
22.5946 -42.0437 -2.5014 0.8260
25.8194 -36.6435 -2.3492 0.8356
33.8304 -29.4090 -2.3492 0.8356
35.7693 -24.2044 -2.2634 0.8411
39.8797 -20.4694 -2.3492 0.8356
42.0541 -15.5188 -2.3492 0.8356
47.4306 -5.3410 -2.5014 0.8260
44.4523 5.7777 -2.3492 0.8356
22.0498 8.5684 -1.2398 0.9096
