ply
format ascii 1.0
element vertex 1581
property float32 x
property float32 y
property float32 z
property float32 I
end_header
-49.9833 -24.8835 12.8905 0.7952
-10.2341 -25.2763 6.2957 0.8941
-7.6476 -28.2897 6.7656 0.8867
26.7312 -40.7259 11.2467 0.8187
37.6995 -44.6194 13.4858 0.7868
56.0621 19.6851 13.7176 0.7835
34.7393 22.7139 9.5824 0.8433
34.3900 47.2022 13.4830 0.7868
-8.9613 40.9937 9.6876 0.8418
-9.5453 27.3393 6.6854 0.8879
-12.2239 24.8846 6.4008 0.8924
-15.0952 23.1765 6.3855 0.8927
-58.5734 54.7980 18.5179 0.7194
-50.4121 -24.6531 12.9557 0.7942
-10.4519 -25.2977 6.3193 0.8937
26.3394 -40.7551 11.2030 0.8194
37.0982 -44.5437 13.3832 0.7882
59.4245 -33.5729 15.7573 0.7556
57.3355 19.6772 13.9948 0.7797
41.6257 20.1739 10.6792 0.8270
34.3229 36.2993 11.5335 0.8146
34.3857 46.5007 13.3519 0.7887
34.4735 60.7673 16.1295 0.7507
-8.9527 42.3909 10.0026 0.8371
-12.1682 25.2208 6.4649 0.8914
-19.1847 23.2016 6.9505 0.8837
-61.4363 -12.8613 14.4911 0.7728
-61.7000 -20.9312 15.0419 0.7653
-5.3527 -33.7066 7.8793 0.8693
31.0668 -92.1124 22.4428 0.6709
26.1528 -41.1021 11.2472 0.8187
58.6616 19.6690 14.2841 0.7757
42.1708 20.0705 10.7823 0.8255
34.3198 35.7849 11.4470 0.8158
34.3815 45.8127 13.2239 0.7905
34.4674 59.7663 15.9282 0.7533
-8.9435 43.8824 10.3393 0.8321
-11.9746 25.2754 6.4570 0.8915
-14.3132 22.6716 6.1900 0.8958
-18.9083 23.1999 6.9097 0.8844
-55.5538 53.4684 17.8010 0.7287
-56.5197 -18.7285 13.7463 0.7831
-54.4663 -25.6862 13.9027 0.7810
-0.7099 -16.1702 3.7368 0.9357
35.9237 -44.3975 13.1851 0.7910
59.7765 -25.8196 15.0328 0.7654
43.1532 20.1645 10.9967 0.8224
34.3166 35.2781 11.3623 0.8171
34.3773 45.1378 13.0990 0.7922
34.9667 59.6519 15.9633 0.7529
-9.0426 27.7822 6.7452 0.8870
-11.7789 25.3242 6.4480 0.8917
-18.6350 23.1982 6.8697 0.8850
-55.4935 54.1727 17.9041 0.7273
-56.7659 -18.3651 13.7742 0.7828
-18.6546 -31.5674 8.4653 0.8603
-13.9033 -31.7244 7.9966 0.8675
-9.4549 -31.4147 7.5740 0.8740
-5.2136 -30.0743 7.0468 0.8822
25.4739 -41.3156 11.2058 0.8193
33.4461 -41.9391 12.3841 0.8023
59.7541 -26.3135 15.0737 0.7649
94.8829 18.1161 22.3012 0.6726
34.2671 27.2284 10.1046 0.8355
34.4555 57.8371 15.5426 0.7585
-9.0384 28.4526 6.8923 0.8847
-11.6290 25.4722 6.4646 0.8914
-13.8664 22.6689 6.1350 0.8966
-55.4888 54.9411 18.0277 0.7257
-62.2400 -11.6551 14.6190 0.7711
-57.0020 -44.9651 16.7615 0.7423
-18.9564 -31.5655 8.5006 0.8597
-14.1276 -31.6251 7.9966 0.8675
-9.6920 -31.3950 7.5856 0.8738
-6.0887 -33.7020 7.9067 0.8688
-0.7101 -12.2214 2.8263 0.9510
25.3411 -41.7592 11.2772 0.8183
33.0630 -42.0666 12.3525 0.8028
59.7316 -26.8101 15.1155 0.7643
9.4626 5.7194 2.5527 0.9556
34.2646 26.8328 10.0476 0.8364
34.4498 56.9070 15.3578 0.7610
-8.9118 49.0275 11.5044 0.8150
-9.0341 29.1530 7.0463 0.8822
-11.5176 25.7084 6.5037 0.8908
-13.8321 22.9768 6.1917 0.8957
-18.0980 23.1949 6.7922 0.8862
-55.1629 55.3970 18.0488 0.7255
-61.7173 -37.0052 16.6135 0.7442
-19.2608 -31.5637 8.5366 0.8592
-14.3512 -31.5243 7.9966 0.8675
-9.9677 -31.4952 7.6267 0.8732
-2.6404 -40.4876 9.3672 0.8466
25.3136 -42.3879 11.3982 0.8165
32.5814 -42.0636 12.2836 0.8038
59.7089 -27.3096 15.1583 0.7637
34.4442 55.9987 15.1782 0.7635
0.4047 5.8853 1.3620 0.9761
-8.8996 51.0107 11.9546 0.8085
-9.0296 29.8854 7.2076 0.8797
-11.3270 25.7706 6.4989 0.8909
-14.0278 23.6798 6.3542 0.8932
-54.5255 55.5381 17.9685 0.7265
-25.4022 -40.9726 11.1297 0.8204
-14.5741 -31.4219 7.9966 0.8675
-6.5823 -33.6990 7.9271 0.8685
-2.9283 -40.4859 9.3713 0.8465
9.7694 5.7175 2.6133 0.9546
35.3106 34.3003 11.3651 0.8170
34.3615 42.5599 12.6284 0.7989
34.4387 55.1114 15.0034 0.7658
-11.2200 26.0261 6.5432 0.8902
-17.5728 23.1917 6.7177 0.8874
-58.2155 -17.0286 14.0033 0.7796
-50.3340 -29.2187 13.4365 0.7875
-55.7956 -42.1219 16.1400 0.7505
-6.8301 -33.6975 7.9379 0.8684
-3.2165 -40.4841 9.3759 0.8464
47.7215 -82.5440 22.0123 0.6761
45.0833 19.1526 11.3086 0.8178
34.7225 19.9925 9.2502 0.8483
34.7335 54.7170 14.9626 0.7664
-9.0200 31.4558 7.5548 0.8743
-13.8252 24.1100 6.4164 0.8922
-65.1537 53.5622 19.4723 0.7073
-58.8383 -16.7594 14.1242 0.7779
-50.6921 -28.9489 13.4771 0.7869
-6.4918 -30.9025 7.2901 0.8784
31.4036 -42.3727 12.1763 0.8053
34.8099 19.7159 9.2360 0.8485
34.2552 25.2938 9.8307 0.8396
2.7772 5.7200 1.4680 0.9742
-11.1527 26.9122 6.7256 0.8873
-13.7259 24.3347 6.4502 0.8916
-17.0262 23.1442 6.6334 0.8887
59.8095 13.6303 11.9239 0.7788
39.2004 19.6889 8.5269 0.8363
34.7415 23.0682 8.1062 0.8437
34.2797 29.2768 8.7627 0.8322
35.4031 49.3228 11.8015 0.7808
4.7443 8.6460 1.9170 0.9606
2.3111 8.6708 1.7443 0.9641
-1.9658 8.6971 1.7332 0.9643
-15.3310 23.1779 5.4017 0.8929
-19.4334 22.8360 5.8286 0.8850
-80.2094 11.4306 15.7486 0.7188
-60.3212 -65.1675 17.2610 0.6964
-24.2034 -33.4687 8.0285 0.8451
-17.8958 -32.3410 7.1847 0.8602
-10.2393 -25.2891 5.3033 0.8948
-8.3918 -31.0425 6.2507 0.8772
-4.8648 -33.7095 6.6204 0.8704
25.8895 -52.2356 11.3323 0.7885
49.7239 -46.1898 13.1921 0.7584
59.7066 -43.3388 14.3409 0.7403
40.8945 20.1784 8.8641 0.8304
34.7393 22.7139 8.0679 0.8444
34.2771 28.8574 8.7096 0.8331
35.3986 48.5865 11.6850 0.7827
3.5343 8.6410 1.8147 0.9627
1.2836 8.6771 1.7050 0.9649
0.2273 8.6836 1.6885 0.9652
-0.8239 8.6901 1.6968 0.9651
-3.0388 8.7037 1.7920 0.9631
-12.2322 24.9013 5.3928 0.8931
-19.3716 23.0927 5.8590 0.8844
-58.1874 54.4369 15.4885 0.7228
-24.5645 -33.4665 8.0695 0.8444
-10.4952 -25.4024 5.3426 0.8940
-8.5833 -30.8814 6.2303 0.8776
31.2867 -90.6405 18.6388 0.6766
25.1321 -51.6230 11.1605 0.7914
25.7024 -39.7695 9.2043 0.8245
49.7199 -46.8463 13.2787 0.7570
41.6257 20.1739 8.9914 0.8282
34.2746 28.4429 8.6576 0.8340
35.3942 47.8645 11.5714 0.7846
2.4429 8.6700 1.7509 0.9640
1.3464 8.6768 1.7068 0.9649
-0.7618 8.6897 1.6956 0.9651
-2.9697 8.7033 1.7875 0.9632
-12.1682 25.2208 5.4432 0.8922
-19.1847 23.2016 5.8520 0.8845
-50.8898 -24.4416 10.9737 0.7945
-54.7778 -45.1310 13.7961 0.7489
-14.1891 -33.6657 7.1014 0.8617
-5.3527 -33.7066 6.6340 0.8702
49.7158 -47.5116 13.3671 0.7556
59.6988 -44.6376 14.4894 0.7380
60.0979 -34.5170 13.4715 0.7540
59.5208 -25.2105 12.5647 0.7684
42.1708 20.0705 9.0782 0.8267
34.3198 35.7849 9.6378 0.8171
35.3898 47.1563 11.4605 0.7864
0.3504 8.6829 1.6892 0.9652
-0.6998 8.6893 1.6945 0.9651
-1.7723 8.6959 1.7251 0.9645
-18.9083 23.1999 5.8177 0.8852
-55.5537 53.4684 14.9876 0.7304
-67.1553 -13.5628 13.3172 0.7564
-56.6087 -18.7580 11.5920 0.7843
-64.9152 -30.6140 13.9510 0.7464
-55.1093 -44.7527 13.7994 0.7488
-18.3553 -31.5692 7.0983 0.8617
-0.7098 -16.1663 3.1454 0.9362
25.2235 -40.2683 9.2362 0.8240
34.0425 -42.0726 10.5199 0.8021
49.5759 -48.0542 13.4207 0.7548
59.8462 19.5959 12.2407 0.7737
43.1532 20.1645 9.2587 0.8236
34.7329 21.6706 7.9577 0.8464
34.4358 27.7626 8.5981 0.8351
35.3855 46.4616 11.3522 0.7882
3.7520 8.6444 1.8317 0.9623
2.5757 8.6692 1.7579 0.9638
1.4724 8.6760 1.7106 0.9648
0.4120 8.6825 1.6896 0.9652
-1.7082 8.6955 1.7225 0.9645
-2.8325 8.7024 1.7789 0.9634
-14.0888 22.6702 5.1883 0.8969
-67.1740 -13.0723 13.3023 0.7566
-57.5562 -18.6208 11.7587 0.7815
-64.8602 -30.0284 13.8932 0.7473
-53.8252 -43.0810 13.4011 0.7551
-14.7525 -33.6622 7.1441 0.8609
-9.3683 -31.1271 6.3186 0.8759
-5.8428 -33.7035 6.6490 0.8699
-0.6969 -13.6647 2.6596 0.9458
59.9127 -46.1348 14.6985 0.7348
34.7308 21.3291 7.9224 0.8470
34.3136 34.7788 9.4968 0.8195
35.3813 45.7798 11.2466 0.7900
0.4736 8.6821 1.6901 0.9652
-0.5760 8.6886 1.6926 0.9651
-1.6442 8.6951 1.7201 0.9646
-13.8664 22.6689 5.1654 0.8974
-18.3650 23.1966 5.7510 0.8864
-14.9722 -33.5159 7.1353 0.8611
-6.0887 -33.7020 6.6571 0.8697
33.2526 -42.3078 10.4599 0.8031
74.5970 -44.9783 16.9320 0.7012
59.5615 -26.7338 12.6903 0.7664
95.0969 17.4597 18.7939 0.6744
59.8404 18.6598 12.1842 0.7746
34.7287 20.9906 7.8878 0.8476
34.8256 27.2721 8.5981 0.8351
34.7408 34.7166 9.5467 0.8186
3.9059 8.6610 1.8468 0.9620
2.7097 8.6684 1.7654 0.9637
1.5990 8.6752 1.7147 0.9647
0.3634 5.8932 1.1477 0.9762
-0.5142 8.6882 1.6918 0.9652
-1.5805 8.6947 1.7178 0.9646
-2.6965 8.7016 1.7708 0.9636
-13.8321 22.9768 5.2131 0.8965
-18.0980 23.1949 5.7187 0.8870
-54.5485 -16.7980 11.0945 0.7925
-54.9762 -42.7390 13.5356 0.7530
-19.2608 -31.5637 7.1875 0.8601
-15.3229 -33.6587 7.1887 0.8601
-10.6573 -33.6741 6.8656 0.8660
-6.3352 -33.7005 6.6655 0.8696
38.6937 -87.1944 18.5428 0.6779
24.1130 -40.3775 9.1416 0.8256
32.7683 -42.3048 10.4015 0.8041
49.6989 -50.2645 13.7400 0.7497
74.4462 -45.6095 16.9707 0.7006
59.8375 18.1950 12.1571 0.7750
44.6075 19.7006 9.4788 0.8198
35.0583 34.5411 9.5665 0.8183
35.3732 44.4535 11.0427 0.7933
2.7771 8.6680 1.7692 0.9636
-3.8277 8.7086 1.8491 0.9620
-20.8530 -33.6349 7.6925 0.8511
-10.8131 -33.3437 6.8137 0.8669
-6.5823 -33.6990 6.6742 0.8694
38.0837 -87.4857 18.5469 0.6779
25.2220 -42.9220 9.6770 0.8164
49.6945 -50.9772 13.8382 0.7482
59.6781 -48.0076 14.8878 0.7319
59.5054 -27.7277 12.7608 0.7653
44.7189 19.3725 9.4731 0.8199
35.1317 26.7178 8.5794 0.8354
35.3106 34.3003 9.5689 0.8182
34.4388 55.1114 12.6322 0.7673
2.7184 5.8069 1.2463 0.9742
2.8448 8.6675 1.7732 0.9635
1.7263 8.6744 1.7192 0.9646
0.6588 8.6810 1.6923 0.9651
-0.3898 8.6665 1.6863 0.9653
-2.5618 8.7008 1.7630 0.9637
-3.7541 8.7081 1.8433 0.9621
-5.0804 8.7162 1.9611 0.9597
-17.5728 23.1917 5.6560 0.8882
-53.7538 55.5334 15.0233 0.7298
-56.6641 -16.5748 11.4759 0.7862
-68.3735 -29.3331 14.4619 0.7385
-15.9005 -33.6552 7.2353 0.8593
-5.0358 -15.1617 3.1054 0.9370
-3.2166 -40.4841 7.8941 0.8475
37.3253 -87.4302 18.4786 0.6788
31.8155 -42.2989 10.2883 0.8060
49.6901 -51.7001 13.9386 0.7466
59.6738 -48.7042 14.9724 0.7306
45.0834 19.1527 9.5213 0.8191
34.7225 19.9925 7.7882 0.8494
35.1912 26.3718 8.5481 0.8359
34.7335 54.7170 12.5978 0.7679
1.7901 8.6740 1.7216 0.9646
-1.3902 8.6936 1.7113 0.9648
-2.4948 8.7004 1.7593 0.9638
-3.6810 8.7077 1.8376 0.9622
-4.9978 8.7157 1.9529 0.9599
-17.3144 23.1901 5.6255 0.8888
-52.9928 55.5287 14.9201 0.7314
-65.1537 53.5622 16.3948 0.7091
-79.3701 26.8306 16.2856 0.7108
-79.8982 6.7752 15.5864 0.7213
-56.6342 -16.1315 11.4464 0.7867
-65.4470 -37.3750 14.6499 0.7356
36.6149 -87.4767 18.4332 0.6795
24.8073 -43.6193 9.7540 0.8151
49.6856 -52.4337 14.0411 0.7450
59.6694 -49.4088 15.0587 0.7293
59.8291 16.8128 12.0800 0.7763
45.9725 19.1472 9.6802 0.8163
34.8099 19.7159 7.7763 0.8496
2.9811 8.6667 1.7815 0.9633
-1.3270 8.6932 1.7094 0.9648
-2.4282 8.7000 1.7557 0.9639
-3.6084 8.7072 1.8321 0.9623
-17.0262 23.1442 5.5850 0.8895
-52.2421 55.5241 14.8191 0.7330
59.8095 13.6303 9.7158 0.7800
54.6151 19.6125 9.1910 0.7906
39.2004 19.6889 6.9479 0.8372
34.8118 23.1149 6.6184 0.8443
34.7824 29.7062 7.2447 0.8309
7.9374 8.6362 1.8578 0.9536
6.2066 8.6469 1.6858 0.9578
4.7497 8.6558 1.5638 0.9608
3.4722 8.6637 1.4783 0.9629
0.1658 8.6840 1.3757 0.9654
-0.8860 8.6905 1.3836 0.9652
-1.9658 8.6971 1.4122 0.9645
-5.7681 8.7205 1.6560 0.9585
-57.9599 53.4594 12.4886 0.7266
-79.4013 43.7531 14.3589 0.6927
-38.2489 -8.5745 6.2084 0.8532
-8.5584 -31.6590 5.1943 0.8756
-1.8871 -83.3664 13.2073 0.7134
31.2490 -88.4944 14.8643 0.6838
21.1879 -42.7494 7.5568 0.8243
35.6299 -42.1699 8.7439 0.7997
47.2813 -43.9208 10.2211 0.7700
59.9315 -43.5020 11.7292 0.7409
55.7823 19.5868 9.3639 0.7871
8.0503 8.6356 1.8699 0.9533
4.8295 8.6554 1.5698 0.9607
0.2273 8.6836 1.3758 0.9654
-0.8239 8.6901 1.3825 0.9653
-1.9011 8.6967 1.4100 0.9646
-12.2321 24.9013 4.3941 0.8937
-7.3233 8.7300 1.8048 0.9549
-57.4439 53.7414 12.4591 0.7272
-78.9928 44.2600 14.3413 0.6930
-71.8726 -15.5781 11.6478 0.7424
-65.1071 -31.8394 11.4790 0.7456
-81.5812 -52.9297 15.4025 0.6745
-60.8269 -64.7874 14.0751 0.6977
-24.5645 -33.4665 6.5752 0.8452
-17.7640 -31.5728 5.7378 0.8635
-13.0709 -31.6366 5.4216 0.8706
-8.5919 -30.9123 5.0816 0.8782
-4.7926 -31.6235 5.0659 0.8785
-2.4777 -83.3628 13.2092 0.7134
26.0707 -40.3394 7.6073 0.8232
46.5686 -43.8772 10.1339 0.7717
59.5216 -33.6277 10.8278 0.7582
59.5737 -24.7368 10.2167 0.7701
63.8093 13.5942 10.3332 0.7678
57.0493 19.5790 9.5530 0.7833
41.6258 20.1740 7.3264 0.8292
6.3932 8.6457 1.7031 0.9574
2.4429 8.6700 1.4267 0.9642
0.2889 8.6833 1.3761 0.9654
-1.8366 8.6963 1.4077 0.9646
-12.1682 25.2208 4.4352 0.8928
-5.5915 8.7194 1.6406 0.9589
-56.3522 53.4733 12.3041 0.7301
-80.5079 45.8611 14.6749 0.6871
-57.8003 -12.1001 9.3531 0.7873
-66.3580 -31.8707 11.6594 0.7422
-62.2783 -65.3990 14.3034 0.6937
-18.0584 -31.5710 5.7606 0.8630
-13.3332 -31.6350 5.4373 0.8702
-8.9630 -31.3843 5.1695 0.8762
-3.0698 -83.3956 13.2175 0.7132
33.7006 -41.0520 8.4123 0.8065
59.6178 -34.2412 10.8890 0.7570
59.6705 -25.2738 10.2637 0.7692
65.7584 13.5232 10.6331 0.7619
6.4880 8.6452 1.7120 0.9572
27.6077 64.8607 11.1648 0.7517
1.4094 8.6764 1.3922 0.9650
-0.6998 8.6893 1.3807 0.9653
-1.7723 8.6959 1.4056 0.9647
-5.5044 8.7189 1.6331 0.9591
-7.1141 8.7288 1.7835 0.9554
-68.4452 -13.8233 11.0596 0.7537
-25.4078 -33.6070 6.6728 0.8431
-18.3553 -31.5692 5.7838 0.8625
-13.5971 -31.6334 5.4535 0.8698
24.2251 -51.6046 9.0292 0.7938
25.4557 -40.6391 7.5951 0.8235
33.2143 -41.0490 8.3633 0.8075
45.1797 -43.7929 9.9657 0.7751
68.8097 13.6437 11.1106 0.7527
60.0466 19.6615 10.0073 0.7742
34.7329 21.6706 6.4841 0.8472
8.3837 8.6187 1.9044 0.9525
6.5838 8.6446 1.7210 0.9569
5.0727 8.6539 1.5888 0.9602
3.7520 8.6444 1.4925 0.9626
-1.7082 8.6955 1.4036 0.9647
-5.4181 8.7183 1.6258 0.9593
-7.0113 8.7281 1.7732 0.9557
-63.7158 -65.0386 14.4206 0.6916
-25.7821 -33.6047 6.7085 0.8424
-18.6546 -31.5674 5.8075 0.8620
-13.8627 -31.6317 5.4700 0.8695
-9.5266 -31.6531 5.2355 0.8747
-5.4856 -31.6429 5.0865 0.8780
-1.9514 -38.2615 6.0679 0.8563
25.1358 -40.7672 7.5856 0.8237
32.5908 -40.8669 8.2789 0.8092
59.9149 -46.1365 11.9770 0.7362
59.5112 -35.3102 10.9599 0.7556
60.0134 -26.4277 10.3860 0.7668
34.7308 21.3291 6.4553 0.8478
6.6806 8.6440 1.7303 0.9567
1.5356 8.6756 1.3954 0.9649
-1.6442 8.6951 1.4016 0.9648
-3.9762 8.7095 1.5164 0.9620
-55.4888 54.9411 12.3677 0.7289
-79.9634 47.8292 14.7576 0.6857
-80.5689 24.7166 13.3478 0.7108
-18.9564 -31.5655 5.8318 0.8615
-14.1298 -31.6301 5.4869 0.8691
-9.7712 -31.6516 5.2466 0.8745
-5.7164 -31.6415 5.0927 0.8779
-1.9437 -33.4510 5.3071 0.8731
24.7917 -40.8539 7.5688 0.8240
59.6865 -46.6375 11.9971 0.7358
60.0102 -26.9352 10.4182 0.7661
34.7287 20.9906 6.4271 0.8485
35.2695 27.6198 7.0952 0.8341
8.6380 8.6320 1.9341 0.9517
5.2382 8.6528 1.6020 0.9599
3.9059 8.6610 1.5048 0.9623
2.7097 8.6684 1.4385 0.9639
0.3633 5.8921 0.9350 0.9764
-1.5805 8.6947 1.3997 0.9648
-3.9017 8.7090 1.5115 0.9621
-6.8092 8.7269 1.7532 0.9562
-78.1435 24.5789 12.9745 0.7177
-14.3986 -31.6285 5.5041 0.8687
-10.0168 -31.6501 5.2579 0.8742
-2.0634 -31.6402 5.0220 0.8795
24.5511 -41.1110 7.5841 0.8237
32.3152 -41.7198 8.3582 0.8076
41.9388 -42.4161 9.4475 0.7854
54.1582 -42.9390 10.9467 0.7559
59.7034 -36.5772 11.0896 0.7531
76.3419 13.4581 12.2778 0.7306
59.9377 18.2254 9.9224 0.7759
44.6075 19.7006 7.7235 0.8208
5.3220 8.6523 1.6089 0.9597
3.9797 8.6606 1.5096 0.9621
0.4046 5.8839 0.9341 0.9764
-0.4524 8.6878 1.3779 0.9654
-2.6290 8.7012 1.4397 0.9639
-3.8277 8.7086 1.5067 0.9622
-5.1638 8.7168 1.6047 0.9598
-6.7098 8.7263 1.7435 0.9564
-79.9314 49.3600 14.8792 0.6835
-22.3644 -21.8789 4.9553 0.8810
-14.6691 -31.6268 5.5218 0.8683
-10.2634 -31.6486 5.2696 0.8739
-2.2884 -31.6388 5.0242 0.8794
22.6271 -51.9787 8.9788 0.7949
31.9844 -41.9025 8.3492 0.8078
42.0053 -43.0896 9.5310 0.7837
59.6999 -37.1591 11.1376 0.7522
75.4859 -24.6272 12.5760 0.7250
59.8347 17.7325 9.8843 0.7767
8.8847 8.6304 1.9618 0.9511
6.9774 8.6421 1.7592 0.9560
0.6588 8.6810 1.3789 0.9654
-0.3898 8.6665 1.3740 0.9655
-5.0804 8.7162 1.5979 0.9600
-52.4635 17.3220 8.7506 0.7995
-56.3030 -16.4692 9.2912 0.7885
-57.1255 -43.1258 11.3366 0.7484
-19.8994 -31.5949 5.9140 0.8597
-14.9349 -31.6113 5.5374 0.8680
-5.0345 -15.1578 2.5297 0.9374
-6.4125 -31.6373 5.1127 0.8775
-2.5137 -31.6374 5.0267 0.8794
22.7802 -53.3600 9.1893 0.7906
41.9029 -43.5980 9.5775 0.7828
52.3948 -42.7632 10.7116 0.7604
59.6963 -37.7460 11.1865 0.7512
59.9038 -28.4315 10.5022 0.7645
60.2326 17.3873 9.9294 0.7758
34.7226 19.9925 6.3460 0.8502
35.2622 26.4250 6.9792 0.8366
35.3077 33.8147 7.7432 0.8204
2.7403 5.7474 1.0085 0.9745
2.9128 8.6671 1.4482 0.9636
-1.3902 8.6936 1.3944 0.9650
-2.4948 8.7004 1.4335 0.9640
-4.9978 8.7157 1.5913 0.9601
-6.5144 8.7251 1.7246 0.9569
-8.3198 8.7179 1.9086 0.9524
-57.6299 -16.4152 9.4907 0.7845
-79.7750 -33.5576 13.7075 0.7043
-56.9392 -42.3559 11.2398 0.7502
-6.6458 -31.6358 5.1200 0.8773
-2.7391 -31.6360 5.0294 0.8793
28.8888 -38.9795 7.6844 0.8216
59.5923 -38.2737 11.2175 0.7506
59.5489 -28.7815 10.4755 0.7650
45.9726 19.1472 7.8876 0.8174
35.2598 26.0356 6.9421 0.8374
35.3047 33.3361 7.6906 0.8215
2.7766 5.7188 1.0069 0.9746
2.9811 8.6667 1.4516 0.9636
1.8542 8.6736 1.4048 0.9647
0.7825 8.6802 1.3804 0.9653
-1.3270 8.6932 1.3928 0.9650
-3.6084 8.7072 1.4928 0.9625
-4.9158 8.7152 1.5848 0.9603
-64.2141 53.5564 13.2436 0.7127
54.6151 19.6125 7.1252 0.7915
39.2004 19.6889 5.3862 0.8380
12.9348 8.5886 1.9064 0.9393
10.0965 8.6230 1.6303 0.9479
4.7497 8.6558 1.2123 0.9610
3.4722 8.6637 1.1460 0.9631
-0.8860 8.6905 1.0726 0.9654
-1.9658 8.6971 1.0948 0.9647
-4.3399 8.6790 1.1915 0.9616
-7.4298 8.7307 1.4076 0.9548
-9.4794 8.7433 1.5834 0.9494
-60.3517 -65.2004 10.9088 0.6990
-17.8958 -32.3410 4.5384 0.8616
27.0899 -41.2722 6.0617 0.8196
35.6298 -42.1698 6.7785 0.8005
58.1442 -42.2047 8.8217 0.7486
59.4751 -33.0481 8.3543 0.7602
64.0516 -17.4369 8.1508 0.7653
66.5387 -1.6241 8.1723 0.7647
66.5882 6.4318 8.2140 0.7637
62.1758 13.7071 7.8175 0.7737
56.0621 19.6851 7.2956 0.7871
40.8946 20.1785 5.5992 0.8321
4.8295 8.6554 1.2170 0.9608
3.5343 8.6411 1.1463 0.9631
-1.9011 8.6967 1.0930 0.9648
-3.0388 8.7037 1.1319 0.9635
-12.2239 24.8846 3.4042 0.8943
-5.6794 8.7199 1.2777 0.9589
-7.3233 8.7300 1.3991 0.9551
-9.3448 8.7425 1.5712 0.9497
-66.2690 -32.4075 9.0577 0.7428
-2.5032 -84.2196 10.3454 0.7121
24.4320 -29.3355 4.6876 0.8574
45.3715 -42.7493 7.6542 0.7778
57.3007 -42.2153 8.7389 0.7506
59.5738 -24.7369 7.9203 0.7711
64.0984 -9.8304 7.9623 0.7700
66.5358 -2.0955 8.1736 0.7647
66.5853 5.9559 8.2083 0.7638
63.5287 13.5344 7.9754 0.7697
57.3355 19.6772 7.4430 0.7833
41.6258 20.1740 5.6796 0.8299
15.3226 9.8643 2.2375 0.9292
10.3888 8.6212 1.6576 0.9470
8.1647 8.6349 1.4591 0.9532
4.9099 8.6549 1.2218 0.9607
2.4429 8.6700 1.1060 0.9643
1.3464 8.6768 1.0781 0.9652
-1.8366 8.6963 1.0913 0.9648
-2.9697 8.7033 1.1291 0.9636
-12.1682 25.2208 3.4383 0.8933
-5.5915 8.7194 1.2718 0.9591
-9.2123 8.7416 1.5593 0.9501
-80.8341 -51.6352 11.7773 0.6794
-18.0585 -31.5711 4.4658 0.8637
-14.1891 -33.6657 4.4858 0.8631
-9.0056 -31.5334 4.0266 0.8762
44.6968 -42.7151 7.5912 0.7795
59.5182 -34.1840 8.4275 0.7584
64.0898 -18.4261 8.1880 0.7643
66.4830 -10.6785 8.2677 0.7623
64.0083 -2.4697 7.8651 0.7725
64.1096 5.2771 7.8983 0.7716
15.3838 9.7503 2.2363 0.9292
8.2806 8.6341 1.4689 0.9529
6.4880 8.6452 1.3272 0.9574
4.9910 8.6544 1.2267 0.9605
0.3504 8.6829 1.0670 0.9656
-1.7723 8.6959 1.0897 0.9649
-9.0818 8.7408 1.5477 0.9505
-80.8704 46.8292 11.4743 0.6862
-24.4017 -32.2761 4.9681 0.8495
-5.5735 -33.5608 4.1772 0.8719
29.1540 -88.5068 11.4417 0.6869
33.0979 -40.9052 6.4607 0.8089
43.6319 -42.2926 7.4610 0.7828
59.5147 -34.7448 8.4616 0.7575
59.5677 -25.7293 7.9671 0.7699
83.7710 -24.7281 10.7245 0.7033
64.1692 -10.7735 7.9893 0.7693
64.0055 -2.9237 7.8671 0.7724
66.6299 13.2115 8.3404 0.7605
60.0466 19.6615 7.7580 0.7752
1.4724 8.6760 1.0805 0.9652
0.4120 8.6825 1.0673 0.9656
-1.7082 8.6955 1.0881 0.9649
-2.8325 8.7024 1.1237 0.9638
-5.4181 8.7183 1.2604 0.9595
-7.0113 8.7281 1.3746 0.9559
-18.6547 -31.5674 4.5022 0.8626
-14.7525 -33.6623 4.5127 0.8623
-5.8428 -33.7036 4.2000 0.8712
27.7879 -86.4136 11.1453 0.6936
24.5486 -39.8149 5.7432 0.8282
56.2101 -43.2837 8.7108 0.7513
59.5112 -35.3103 8.4965 0.7566
64.0082 -11.2131 7.9789 0.7696
64.1772 -3.3871 7.8909 0.7718
64.0988 12.2385 8.0125 0.7688
43.9514 20.1596 5.9372 0.8229
10.8463 8.6184 1.7010 0.9457
8.5172 8.6327 1.4890 0.9523
6.6806 8.6440 1.3414 0.9569
5.1551 8.6533 1.2367 0.9602
3.8325 8.6615 1.1630 0.9625
1.5357 8.6756 1.0818 0.9651
-0.5760 8.6886 1.0692 0.9655
-1.6442 8.6951 1.0865 0.9650
-2.7643 8.7020 1.1211 0.9639
-3.9762 8.7095 1.1756 0.9622
-11.2860 8.7544 1.7538 0.9441
-2.3471 -40.3940 4.9681 0.8495
24.0493 -39.6304 5.6919 0.8296
32.4231 -41.2524 6.4424 0.8094
42.4850 -42.3643 7.3668 0.7852
54.0908 -42.2652 8.4286 0.7583
64.0807 -19.9066 8.2390 0.7631
66.4741 -12.1308 8.2968 0.7616
64.1012 3.9074 7.8852 0.7720
64.0959 11.7679 8.0015 0.7690
44.5231 20.0413 5.9951 0.8214
14.8851 8.9968 2.1356 0.9323
11.0041 8.6174 1.7161 0.9452
8.6380 8.6320 1.4994 0.9520
6.7784 8.6434 1.3487 0.9567
3.9059 8.6610 1.1666 0.9624
1.5990 8.6752 1.0831 0.9651
0.3632 5.8909 0.7247 0.9765
-0.5142 8.6882 1.0686 0.9655
-1.5805 8.6947 1.0851 0.9650
-3.9017 8.7090 1.1717 0.9623
-5.2478 8.7173 1.2493 0.9598
-8.7016 8.7385 1.5142 0.9515
-11.1212 8.7534 1.7377 0.9446
-19.2608 -31.5637 4.5401 0.8616
-15.3229 -33.6588 4.5409 0.8615
-2.6331 -40.3764 4.9681 0.8495
24.4983 -41.0227 5.8668 0.8248
59.5584 -27.2407 8.0415 0.7680
64.1767 -4.2992 7.8976 0.7717
66.5707 3.5853 8.1857 0.7644
66.6209 11.7444 8.3061 0.7614
59.9377 18.2254 7.6921 0.7769
34.7267 20.6550 4.9611 0.8497
5.3219 8.6523 1.2473 0.9599
3.9797 8.6606 1.1703 0.9623
1.6626 8.6748 1.0845 0.9650
-0.4525 8.6878 1.0682 0.9655
-1.5169 8.6943 1.0837 0.9651
-3.8277 8.7086 1.1680 0.9624
-5.1638 8.7168 1.2440 0.9600
-8.5784 8.7377 1.5035 0.9519
-10.9593 8.7524 1.7221 0.9450
-80.7267 -13.9369 10.0586 0.7188
-20.8530 -33.6349 4.8592 0.8526
-15.6108 -33.6570 4.5554 0.8611
-6.5823 -33.6991 4.2159 0.8708
-2.9190 -40.3568 4.9681 0.8495
26.4764 -88.7628 11.3732 0.6885
41.2911 -42.3569 7.2631 0.7879
52.5501 -42.2736 8.2810 0.7620
59.5006 -37.0351 8.6054 0.7539
59.5552 -27.7509 8.0674 0.7674
64.0304 -20.8898 8.2698 0.7623
63.9460 -12.6078 8.0027 0.7690
64.0479 -4.7464 7.8857 0.7720
66.6179 11.2584 8.2956 0.7616
44.7190 19.3726 5.9839 0.8217
11.3285 8.6154 1.7475 0.9443
2.7179 5.8059 0.7871 0.9745
0.6588 8.6810 1.0690 0.9655
-1.4534 8.6940 1.0823 0.9651
-2.5618 8.7008 1.1137 0.9641
-6.6116 8.7257 1.3442 0.9568
-8.4570 8.7370 1.4930 0.9522
-21.1829 -33.6329 4.8804 0.8520
-15.9005 -33.6552 4.5703 0.8607
-6.8301 -33.6975 4.2217 0.8706
26.0395 -89.6104 11.4579 0.6866
21.6871 -50.7995 6.7820 0.8004
23.8893 -41.3214 5.8605 0.8250
31.3427 -41.6704 6.4022 0.8105
40.7282 -42.3758 7.2167 0.7891
51.7892 -42.2690 8.2080 0.7638
59.4970 -37.6200 8.6432 0.7530
64.0715 -21.4065 8.2945 0.7617
64.1409 10.3731 7.9778 0.7696
60.0322 17.3295 7.6720 0.7774
34.7226 19.9925 4.9196 0.8509
35.2622 26.4250 5.4105 0.8373
7.0785 8.6415 1.3716 0.9560
5.4917 8.6513 1.2582 0.9595
-3.6810 8.7077 1.1608 0.9626
-4.9978 8.7157 1.2336 0.9603
-6.5144 8.7251 1.3370 0.9571
-8.3373 8.7363 1.4828 0.9525
-79.4257 -33.4106 10.5799 0.7066
-64.6383 -36.9131 9.1396 0.7408
-26.0096 -31.5242 5.0181 0.8481
-10.8035 -31.7732 4.1206 0.8735
-3.4903 -40.3114 4.9681 0.8495
22.6396 -54.0883 7.1995 0.7895
23.5084 -41.3353 5.8387 0.8256
40.2695 -42.4969 7.1885 0.7898
59.4934 -38.2102 8.6817 0.7521
73.3868 -25.0978 9.5231 0.7316
45.9726 19.1472 6.1147 0.8182
34.8099 19.7159 4.9121 0.8511
11.6650 8.6133 1.7804 0.9432
9.1384 8.6289 1.5432 0.9506
7.1809 8.6409 1.3795 0.9557
2.7765 5.7187 0.7806 0.9747
2.9811 8.6667 1.1253 0.9637
1.8542 8.6736 1.0891 0.9649
0.7825 8.6802 1.0701 0.9655
-1.3270 8.6932 1.0798 0.9652
-6.4182 8.7245 1.3299 0.9573
-52.2420 55.5240 9.3608 0.7355
39.2003 19.6889 3.8379 0.8385
12.9600 8.6054 1.3610 0.9394
4.7497 8.6558 0.8638 0.9611
3.4722 8.6637 0.8166 0.9632
2.3111 8.6708 0.7851 0.9646
1.2210 8.6775 0.7667 0.9654
0.1658 8.6840 0.7599 0.9657
-3.1083 8.7041 0.8086 0.9636
-5.7681 8.7205 0.9147 0.9589
-7.4298 8.7307 1.0030 0.9550
-12.1353 8.7431 1.3086 0.9417
-15.8868 8.7542 1.5870 0.9298
-35.6704 -7.9963 3.1983 0.8635
-47.2425 -23.5191 4.6172 0.8090
-80.5619 -53.0828 8.4411 0.6788
-60.2161 -65.0540 7.7555 0.7005
-10.2398 -25.2904 2.3871 0.8962
-7.6364 -28.2484 2.5601 0.8891
-4.5724 -31.6835 2.8007 0.8794
35.6145 -42.1517 4.8279 0.8013
58.1617 -42.2174 6.2877 0.7493
59.9735 -33.3250 6.0026 0.7592
37.4405 -15.2365 3.5365 0.8502
63.9660 -9.3470 5.6557 0.7714
64.0139 -1.5625 5.6022 0.7733
62.3329 13.7417 5.5844 0.7739
10.2414 8.6221 1.1713 0.9477
8.0503 8.6356 1.0329 0.9537
6.2994 8.6463 0.9359 0.9580
3.5343 8.6411 0.8168 0.9632
1.2836 8.6771 0.7674 0.9654
-3.0388 8.7037 0.8066 0.9637
-12.2321 24.9013 2.4272 0.8946
-11.9771 8.7586 1.2982 0.9422
-15.6725 8.7814 1.5717 0.9304
27.7296 -80.3352 7.4353 0.7109
22.2860 -45.7769 4.4544 0.8151
29.9818 -46.3911 4.8325 0.8011
34.0310 -40.8609 4.6523 0.8077
57.3518 -42.2529 6.2323 0.7512
59.5738 -24.7369 5.6435 0.7718
63.9135 -17.8864 5.8065 0.7661
41.6258 20.1740 4.0469 0.8305
8.1647 8.6349 1.0397 0.9534
6.3932 8.6457 0.9407 0.9577
-0.7618 8.6897 0.7632 0.9656
-1.8366 8.6963 0.7776 0.9649
-2.9697 8.7033 0.8045 0.9637
-7.2181 8.7294 0.9910 0.9555
-5.0310 -31.6806 2.8064 0.8791
-2.0889 -56.7475 4.9681 0.7961
27.2515 -80.8003 7.4604 0.7101
25.2559 -39.6925 4.1160 0.8279
33.7006 -41.0520 4.6468 0.8079
43.0164 -41.1092 5.2057 0.7875
59.6178 -34.2412 6.0150 0.7588
63.9105 -18.3746 5.8179 0.7657
63.9603 -10.2733 5.6675 0.7710
64.0083 -2.4697 5.6042 0.7732
64.0559 5.2726 5.6231 0.7725
64.1046 13.1831 5.7258 0.7689
58.3689 19.5709 5.3860 0.7810
42.1710 20.0706 4.0860 0.8290
6.4880 8.6452 0.9457 0.9575
4.9910 8.6544 0.8740 0.9607
27.6078 64.8608 6.1672 0.7535
1.4094 8.6764 0.7690 0.9653
0.3504 8.6829 0.7603 0.9657
-0.6998 8.6893 0.7627 0.9656
-2.9009 8.7029 0.8026 0.9638
-4.1075 8.6700 0.8393 0.9622
-7.1141 8.7288 0.9852 0.9558
-9.0818 8.7408 1.1028 0.9506
-11.6249 8.7565 1.2733 0.9432
-15.1593 8.7782 1.5326 0.9321
-20.6005 8.8116 1.9603 0.9140
-25.4079 -33.6070 3.6860 0.8444
-4.0616 -24.4565 2.1690 0.9052
-0.7089 -16.1461 1.4140 0.9372
25.0201 -39.9436 4.1236 0.8276
33.2143 -41.0490 4.6197 0.8089
42.3499 -41.0500 5.1601 0.7891
59.5147 -34.7449 6.0292 0.7583
64.0055 -2.9237 5.6056 0.7732
64.1017 12.7102 5.7173 0.7692
10.6911 8.6193 1.2015 0.9464
8.3981 8.6334 1.0537 0.9528
3.7520 8.6444 0.8245 0.9629
1.4724 8.6760 0.7699 0.9653
0.4120 8.6825 0.7605 0.9657
-0.6378 8.6889 0.7622 0.9656
-1.7082 8.6955 0.7753 0.9650
-4.0512 8.7099 0.8404 0.9622
-5.4181 8.7183 0.8981 0.9596
-7.0113 8.7281 0.9795 0.9560
-11.4538 8.7554 1.2613 0.9438
-25.7822 -33.6047 3.7056 0.8436
-18.6547 -31.5674 3.2080 0.8631
-13.8627 -31.6318 3.0215 0.8705
-2.0651 -40.4912 3.5471 0.8498
27.2072 -84.6077 7.7755 0.6999
32.5908 -40.8669 4.5731 0.8107
54.9172 -42.2881 6.0640 0.7571
60.8358 -18.4273 5.5613 0.7747
63.9546 -11.2037 5.6805 0.7705
64.0027 -3.3779 5.6073 0.7731
59.9435 19.1589 5.5057 0.7767
43.9514 20.1596 4.2305 0.8235
10.8463 8.6184 1.2120 0.9459
8.5172 8.6327 1.0610 0.9525
6.6806 8.6440 0.9558 0.9571
1.5356 8.6756 0.7708 0.9652
0.4736 8.6821 0.7607 0.9657
-1.6442 8.6951 0.7742 0.9651
-2.7643 8.7020 0.7988 0.9640
-5.3326 8.7178 0.8941 0.9598
-6.9097 8.7275 0.9739 0.9563
-8.8264 8.7393 1.0867 0.9513
-14.6708 8.7752 1.4956 0.9337
-19.7952 8.8009 1.8953 0.9167
-18.9564 -31.5656 3.2214 0.8626
-14.1142 -31.5952 3.0275 0.8703
-9.7712 -31.6516 2.8981 0.8755
-4.4592 -24.6827 2.1944 0.9042
-1.9437 -33.4511 2.9315 0.8741
22.9059 -50.6468 4.8631 0.8000
25.0195 -41.2292 4.2193 0.8240
32.5181 -41.3733 4.6039 0.8095
63.9999 -3.8326 5.6093 0.7730
64.0959 11.7679 5.7014 0.7698
44.5231 20.0413 4.2717 0.8220
8.6380 8.6320 1.0684 0.9521
5.2382 8.6528 0.8849 0.9602
3.9059 8.6610 0.8312 0.9626
0.3631 5.8897 0.5163 0.9766
-3.9017 8.7090 0.8349 0.9624
-5.2478 8.7173 0.8902 0.9600
-6.8092 8.7269 0.9684 0.9565
-8.7016 8.7385 1.0789 0.9517
-2.0672 -31.6988 2.7792 0.8802
22.8598 -51.5135 4.9307 0.7975
24.8065 -41.5387 4.2329 0.8234
53.3250 -42.2784 5.9537 0.7609
63.9971 -4.2872 5.6116 0.7729
59.8376 18.1950 5.4718 0.7779
44.6075 19.7006 4.2663 0.8222
14.4526 8.5962 1.4712 0.9347
11.1649 8.6164 1.2339 0.9449
8.7604 8.6312 1.0759 0.9518
5.3219 8.6523 0.8887 0.9600
3.9797 8.6606 0.8339 0.9625
2.7771 8.6680 0.7963 0.9641
1.6626 8.6748 0.7728 0.9652
0.4045 5.8818 0.5158 0.9766
-0.4525 8.6878 0.7611 0.9657
-2.6290 8.7012 0.7952 0.9642
-3.8277 8.7086 0.8322 0.9625
-8.5784 8.7377 1.0713 0.9520
-10.9593 8.7524 1.2271 0.9452
-14.2055 8.7723 1.4607 0.9352
-19.0661 8.8022 1.8373 0.9191
-20.8530 -33.6349 3.4623 0.8531
-6.1867 -31.6736 2.8234 0.8785
-2.2926 -31.6974 2.7804 0.8802
25.7750 -86.4115 7.8892 0.6962
24.3074 -41.3656 4.1976 0.8248
31.9844 -41.9025 4.6119 0.8092
41.1035 -42.1645 5.1517 0.7894
52.5501 -42.2736 5.9005 0.7628
60.1474 -11.8589 5.3635 0.7818
64.0419 2.9944 5.6091 0.7730
59.3383 10.0281 5.2650 0.7853
59.8347 17.7325 5.4599 0.7783
14.6859 8.5948 1.4887 0.9340
8.8847 8.6304 1.0837 0.9515
6.9774 8.6421 0.9718 0.9564
2.7179 5.8058 0.5608 0.9746
0.6588 8.6810 0.7617 0.9656
-0.3898 8.6665 0.7590 0.9658
-3.7541 8.7081 0.8296 0.9626
-6.6116 8.7257 0.9578 0.9570
-10.8003 8.7514 1.2162 0.9457
-13.9808 8.7710 1.4439 0.9359
-18.7120 8.8000 1.8091 0.9203
-21.1829 -33.6329 3.4775 0.8525
21.8722 -51.2330 4.8737 0.7996
31.7001 -42.1455 4.6138 0.8092
40.6766 -42.3221 5.1356 0.7900
51.7891 -42.2689 5.8485 0.7646
58.6262 -19.5872 5.4078 0.7802
60.1877 2.3871 5.2699 0.7852
59.8319 17.2717 5.4483 0.7788
14.9247 8.5933 1.5067 0.9332
7.0785 8.6415 0.9773 0.9561
2.7403 5.7473 0.5570 0.9748
2.9128 8.6671 0.8000 0.9640
1.7901 8.6740 0.7749 0.9651
0.7206 8.6806 0.7621 0.9656
-1.3902 8.6936 0.7703 0.9653
-2.4948 8.7004 0.7919 0.9643
-4.9978 8.7157 0.8790 0.9605
-10.6441 8.7504 1.2055 0.9462
-18.3686 8.7979 1.7819 0.9215
-57.3465 -42.6588 6.2531 0.7505
-21.5158 -33.6309 3.4929 0.8519
-6.6532 -31.6707 2.8313 0.8781
-2.7442 -31.6946 2.7833 0.8801
24.9294 -88.1141 8.0116 0.6923
22.3281 -53.3441 5.0593 0.7928
51.0413 -42.2643 5.7977 0.7664
59.8337 -38.4287 6.2214 0.7516
58.9569 -20.1629 5.4514 0.7787
63.9402 -13.5502 5.7183 0.7692
58.6947 9.0663 5.1960 0.7878
45.9726 19.1472 4.3570 0.8188
15.1695 8.5918 1.5252 0.9324
11.6650 8.6133 1.2686 0.9434
2.9811 8.6667 0.8018 0.9639
-1.3270 8.6932 0.7694 0.9653
-2.4282 8.7000 0.7902 0.9644
-3.6084 8.7072 0.8246 0.9629
-4.9158 8.7152 0.8754 0.9606
-10.4906 8.7495 1.1951 0.9466
59.8095 13.6303 3.2148 0.7822
39.2004 19.6889 2.2990 0.8389
12.9600 8.6054 0.8153 0.9396
10.0965 8.6230 0.6958 0.9482
7.9374 8.6362 0.6147 0.9541
4.7497 8.6558 0.5174 0.9612
2.3064 8.6534 0.4693 0.9648
0.1657 8.6785 0.4549 0.9658
-0.8852 8.6825 0.4574 0.9656
-1.9620 8.6801 0.4664 0.9650
-3.1074 8.7015 0.4842 0.9637
-9.4793 8.7433 0.6758 0.9497
-12.1353 8.7431 0.7839 0.9418
-15.8868 8.7542 0.9506 0.9299
-35.6664 -7.9954 1.9155 0.8638
-80.6614 -53.1483 5.0627 0.6791
-16.9196 -30.5768 1.8314 0.8694
-1.9065 -84.2233 4.4151 0.7136
24.9688 -50.3779 2.9467 0.7983
45.4611 -42.2300 3.2519 0.7799
59.9735 -33.3250 3.5957 0.7597
67.1868 -18.2904 3.6492 0.7566
68.8829 6.6534 3.6268 0.7579
34.3867 12.0742 1.9100 0.8642
40.8946 20.1785 2.3899 0.8331
13.1594 8.6041 0.8240 0.9390
10.2414 8.6221 0.7016 0.9478
8.0503 8.6356 0.6187 0.9538
4.8295 8.6554 0.5194 0.9611
3.5343 8.6411 0.4893 0.9633
2.3723 8.6539 0.4703 0.9647
1.2822 8.6674 0.4592 0.9655
0.2272 8.6781 0.4550 0.9658
-0.8231 8.6824 0.4571 0.9657
-5.6794 8.7199 0.5454 0.9592
-11.9771 8.7586 0.7776 0.9423
-21.4477 8.8168 1.2153 0.9113
-38.4348 -8.3307 2.0611 0.8543
-47.6495 -23.3021 2.7797 0.8086
-23.1504 -31.5399 2.0504 0.8550
-12.6438 -30.6030 1.7353 0.8758
29.4383 -85.2855 4.7284 0.6967
34.0310 -40.8609 2.7869 0.8082
43.4820 -40.9690 3.1310 0.7872
59.5216 -33.6278 3.5828 0.7605
67.0556 -18.7658 3.6492 0.7566
68.8861 6.1617 3.6246 0.7580
63.8094 13.5942 3.4192 0.7700
10.3888 8.6212 0.7075 0.9474
27.4846 65.8615 3.7401 0.7514
2.4385 8.6544 0.4712 0.9646
0.2887 8.6776 0.4550 0.9658
-0.7611 8.6823 0.4568 0.9657
-12.1682 25.2208 1.4676 0.8939
-7.2181 8.7294 0.5936 0.9556
-9.2123 8.7416 0.6656 0.9504
-11.7993 8.7575 0.7701 0.9428
-15.4126 8.7798 0.9296 0.9314
-21.0167 8.8142 1.1944 0.9128
-23.4943 -31.5378 2.0610 0.8543
-2.0433 -55.5069 2.9110 0.8005
28.4026 -84.2134 4.6577 0.7005
42.8657 -40.9652 3.1074 0.7886
66.4920 -19.1167 3.6259 0.7580
68.7507 -11.0427 3.6492 0.7566
68.9439 -2.6601 3.6159 0.7585
65.7583 13.5232 3.5184 0.7642
42.1710 20.0706 2.4476 0.8294
8.2806 8.6341 0.6270 0.9532
4.9910 8.6544 0.5236 0.9608
28.0323 65.8582 3.7511 0.7507
2.5049 8.6550 0.4722 0.9646
0.3502 8.6772 0.4551 0.9658
-1.7692 8.6810 0.4643 0.9651
-4.1075 8.6700 0.5028 0.9623
-5.5044 8.7189 0.5404 0.9595
-7.1141 8.7288 0.5901 0.9559
-20.6005 8.8116 1.1742 0.9142
-23.8418 -31.5356 2.0719 0.8535
-17.7753 -30.5716 1.8533 0.8679
-13.1529 -30.5999 1.7455 0.8751
-9.2965 -31.7000 1.7313 0.8761
-0.7088 -16.1450 0.8469 0.9373
27.6641 -83.9836 4.6340 0.7018
33.0022 -40.7869 2.7496 0.8105
42.3557 -41.0556 3.0914 0.7896
34.1220 -25.8923 2.2448 0.8423
60.0165 -25.9232 3.4262 0.7696
66.7831 -19.7135 3.6492 0.7566
68.6708 -11.5293 3.6492 0.7566
68.3022 13.5430 3.6492 0.7566
34.3916 11.2611 1.8965 0.8651
43.1533 20.1646 2.4963 0.8263
13.7843 8.6003 0.8515 0.9370
10.6911 8.6193 0.7197 0.9465
8.3981 8.6334 0.6312 0.9529
5.0727 8.6539 0.5257 0.9606
2.5717 8.6556 0.4732 0.9645
1.4705 8.6648 0.4606 0.9654
0.4117 8.6767 0.4552 0.9658
-0.6373 8.6821 0.4562 0.9657
-1.7054 8.6812 0.4637 0.9652
-4.0512 8.7099 0.5034 0.9623
-7.0113 8.7281 0.5867 0.9561
-11.4538 8.7554 0.7556 0.9439
-14.9121 8.7767 0.9068 0.9330
-34.3179 1.6894 1.8007 0.8714
-24.1931 -31.5335 2.0829 0.8528
-18.6547 -31.5674 1.9217 0.8634
-10.0452 -33.3761 1.8267 0.8697
-5.7906 -33.4021 1.7766 0.8730
4.1012 -58.7147 3.0846 0.7900
27.3414 -85.0251 4.6807 0.6993
23.4231 -50.8286 2.9330 0.7992
32.5454 -40.8100 2.7356 0.8113
60.0134 -26.4277 3.4366 0.7690
68.5874 -12.0153 3.6492 0.7566
68.9503 -3.6390 3.6186 0.7584
68.3964 13.0590 3.6492 0.7566
26.6606 8.5212 1.4669 0.8939
10.8463 8.6184 0.7260 0.9460
8.5172 8.6327 0.6356 0.9526
6.6806 8.6440 0.5725 0.9572
3.8325 8.6615 0.4964 0.9628
0.4733 8.6762 0.4554 0.9658
-1.6416 8.6815 0.4630 0.9652
-2.7615 8.6932 0.4780 0.9641
-3.9762 8.7095 0.5018 0.9624
-6.9097 8.7275 0.5834 0.9564
-8.8264 8.7393 0.6510 0.9515
-18.9564 -31.5656 1.9297 0.8629
-13.6682 -30.5967 1.7562 0.8744
-6.0342 -33.4007 1.7788 0.8729
26.2803 -83.7560 4.6005 0.7036
25.6503 -42.2688 2.5912 0.8203
59.3983 -18.4520 3.2597 0.7795
68.5006 -12.5006 3.6492 0.7566
68.9536 -4.1292 3.6202 0.7583
53.3899 9.8023 2.8448 0.8046
27.3138 8.5172 1.4994 0.8917
11.0041 8.6174 0.7325 0.9456
6.7784 8.6434 0.5757 0.9570
5.2382 8.6528 0.5301 0.9603
2.7061 8.6569 0.4753 0.9643
-2.6934 8.6917 0.4769 0.9642
-3.9017 8.7090 0.5001 0.9625
-5.2478 8.7173 0.5332 0.9601
-8.7016 8.7385 0.6463 0.9518
-11.1212 8.7534 0.7417 0.9449
-14.4355 8.7738 0.8853 0.9346
-24.9070 -31.5291 2.1058 0.8513
-10.6117 -33.5299 1.8431 0.8686
26.3772 -86.1972 4.7242 0.6969
24.0721 -54.2453 3.1102 0.7884
32.1353 -41.4877 2.7502 0.8104
60.0071 -27.4460 3.4582 0.7677
59.8962 -19.0728 3.2943 0.7774
68.9568 -4.6194 3.6220 0.7582
53.1218 9.3647 2.8269 0.8057
27.9965 8.5130 1.5336 0.8894
11.1649 8.6164 0.7391 0.9451
6.8773 8.6428 0.5789 0.9567
-6.7098 8.7263 0.5769 0.9569
-27.4678 8.8538 1.5125 0.8908
-10.8132 -33.3439 1.8371 0.8690
25.7260 -86.2472 4.7168 0.6973
23.4461 -53.8602 3.0785 0.7903
25.9993 -44.2449 2.6895 0.8142
41.1416 -42.2036 3.0888 0.7897
52.5501 -42.2736 3.5345 0.7633
60.0040 -27.9600 3.4693 0.7671
68.9601 -5.1104 3.6239 0.7581
52.7885 8.9212 2.8058 0.8070
28.7105 8.5086 1.5693 0.8870
14.6859 8.5948 0.8918 0.9341
11.3285 8.6154 0.7459 0.9446
5.4065 8.6518 0.5347 0.9600
2.7178 5.8057 0.3360 0.9747
1.7236 8.6610 0.4628 0.9652
0.6583 8.6745 0.4559 0.9658
-0.3898 8.6665 0.4547 0.9658
-2.5582 8.6886 0.4747 0.9644
-3.7541 8.7081 0.4970 0.9627
-5.0804 8.7162 0.5287 0.9604
-8.4570 8.7370 0.6373 0.9525
-10.8003 8.7514 0.7285 0.9458
-13.9808 8.7710 0.8650 0.9360
-18.7121 8.8000 1.0837 0.9205
-26.8035 8.8498 1.4793 0.8931
-58.7796 -17.1936 3.2096 0.7825
-25.6369 -31.5247 2.1295 0.8498
-19.8785 -31.5618 1.9548 0.8612
-14.4533 -30.5919 1.7732 0.8733
-5.0317 -15.1493 0.8366 0.9381
23.3236 -54.6328 3.1132 0.7883
31.6318 -42.0547 2.7578 0.8100
51.7892 -42.2690 3.5034 0.7651
68.2196 -13.9530 3.6492 0.7566
68.9085 2.7330 3.6142 0.7586
52.7019 8.5231 2.7979 0.8075
14.9775 11.2240 0.9809 0.9278
7.0785 8.6415 0.5854 0.9562
5.4917 8.6513 0.5370 0.9598
2.9101 8.6591 0.4787 0.9641
0.7201 8.6739 0.4561 0.9657
-3.6810 8.7077 0.4954 0.9628
-4.9978 8.7157 0.5265 0.9606
-6.5144 8.7251 0.5707 0.9573
-13.7612 8.7696 0.8552 0.9367
-18.3686 8.7979 1.0674 0.9217
-59.0864 -16.8300 3.2197 0.7819
-26.0369 -31.5573 2.1441 0.8489
-11.6501 -24.2133 1.4082 0.8980
-3.1910 -36.8546 1.9387 0.8623
24.7042 -87.3180 4.7558 0.6953
24.2549 -42.6479 2.5713 0.8216
31.1658 -42.0518 2.7431 0.8109
39.9846 -42.1962 3.0465 0.7923
51.3129 -42.4893 3.4915 0.7658
59.5489 -28.7815 3.4662 0.7673
53.4953 -18.2951 2.9630 0.7974
68.9117 2.2445 3.6134 0.7587
45.9726 19.1472 2.6099 0.8192
15.1695 8.5918 0.9137 0.9326
11.6650 8.6133 0.7599 0.9436
9.1384 8.6289 0.6587 0.9509
7.1809 8.6409 0.5888 0.9560
5.5777 8.6508 0.5394 0.9596
2.9788 8.6598 0.4799 0.9640
-3.6084 8.7072 0.4940 0.9630
-6.4182 8.7245 0.5676 0.9575
-10.4906 8.7495 0.7159 0.9468
54.6151 19.6125 1.0129 0.7928
10.0965 8.6230 0.2318 0.9483
7.9374 8.6362 0.2047 0.9542
6.1931 8.6281 0.1854 0.9584
2.3111 8.6708 0.1566 0.9647
1.2210 8.6775 0.1530 0.9656
0.1658 8.6840 0.1516 0.9658
-3.0935 8.6627 0.1606 0.9639
-7.4298 8.7307 0.2001 0.9552
-12.1353 8.7431 0.2611 0.9419
-35.6608 -7.9942 0.6379 0.8640
-80.6857 -53.1644 1.6869 0.6794
-59.9993 -64.8197 1.5417 0.7023
-22.5509 -31.1837 0.6717 0.8573
-17.6057 -31.8166 0.6347 0.8646
-1.5082 -66.6286 1.1633 0.7660
29.9868 -45.6859 0.9539 0.8036
33.1010 -39.1768 0.8952 0.8145
34.0940 -31.6708 0.8123 0.8301
37.4323 -15.2332 0.7054 0.8507
90.9886 -24.7700 1.6460 0.6857
40.8946 20.1785 0.7960 0.8332
4.8074 8.6157 0.1722 0.9613
-0.8219 8.6690 0.1520 0.9658
-1.8965 8.6758 0.1550 0.9651
-3.0243 8.6622 0.1601 0.9640
-9.3448 8.7425 0.2234 0.9501
-11.9771 8.7586 0.2590 0.9424
-15.6348 8.7602 0.3128 0.9308
-21.4477 8.8168 0.4048 0.9114
-22.8874 -31.1816 0.6752 0.8566
-7.8686 -28.3099 0.5129 0.8891
-4.7335 -31.2335 0.5514 0.8813
-1.9800 -66.6163 1.1633 0.7660
32.6246 -39.1724 0.8898 0.8155
50.6391 -21.0269 0.9571 0.8030
88.4642 -24.7570 1.6035 0.6925
63.5287 13.5344 1.1338 0.7712
57.0495 19.5790 1.0528 0.7856
41.6258 20.1740 0.8074 0.8311
4.8875 8.6153 0.1729 0.9611
2.4429 8.6700 0.1572 0.9646
1.3464 8.6768 0.1533 0.9655
0.2889 8.6833 0.1516 0.9658
-12.2220 25.3324 0.4909 0.8936
-9.2123 8.7416 0.2217 0.9505
-21.0167 8.8142 0.3978 0.9129
-73.6623 -6.3260 1.2905 0.7440
-8.5305 -29.8700 0.5423 0.8831
-4.9598 -31.2321 0.5520 0.8812
-2.4516 -66.6006 1.1633 0.7660
31.2739 -92.7267 1.7081 0.6760
42.3960 -24.3500 0.8534 0.8223
59.5708 -25.2316 1.1292 0.7720
86.0587 -24.7423 1.5630 0.6989
90.7921 7.4734 1.5901 0.6946
58.3690 19.5709 1.0746 0.7817
34.4293 16.3861 0.6656 0.8585
13.5714 8.6016 0.2805 0.9377
10.5387 8.6203 0.2377 0.9470
8.2806 8.6341 0.2088 0.9533
4.9682 8.6149 0.1736 0.9610
27.6078 64.8608 1.2304 0.7543
2.5092 8.6696 0.1575 0.9645
1.4094 8.6764 0.1534 0.9654
0.3504 8.6829 0.1517 0.9658
-1.7680 8.6750 0.1545 0.9652
-2.8870 8.6612 0.1594 0.9641
-9.0818 8.7408 0.2200 0.9508
-11.6249 8.7565 0.2540 0.9434
-15.1210 8.7560 0.3050 0.9325
-20.6005 8.8116 0.3911 0.9143
-63.3697 -29.8851 1.2229 0.7556
-23.5710 -31.1774 0.6822 0.8552
-15.1294 -35.1981 0.6687 0.8579
-9.1517 -31.2064 0.5676 0.8780
-5.1866 -31.2307 0.5526 0.8810
-0.7088 -16.1448 0.2821 0.9374
34.1354 -25.9024 0.7480 0.8425
41.7020 -24.3457 0.8429 0.8243
43.1533 20.1646 0.8314 0.8265
10.6911 8.6193 0.2397 0.9465
5.0496 8.6145 0.1743 0.9608
3.7520 8.6444 0.1645 0.9630
2.5757 8.6692 0.1579 0.9645
1.4724 8.6760 0.1536 0.9654
-1.7041 8.6746 0.1543 0.9653
-5.4181 8.7183 0.1792 0.9598
-8.9532 8.7400 0.2184 0.9512
-11.4538 8.7554 0.2516 0.9440
-20.1513 8.7888 0.3837 0.9158
-34.3423 1.6906 0.6002 0.8715
-74.1395 -5.3106 1.2974 0.7428
-23.9182 -31.1753 0.6859 0.8545
-2.0651 -40.4913 0.7077 0.8503
30.1171 -48.8465 1.0016 0.7949
34.1330 -26.2836 0.7520 0.8417
81.5930 -24.7147 1.4881 0.7110
30.3645 5.7975 0.5396 0.8837
43.9514 20.1596 0.8440 0.8241
5.1317 8.6141 0.1750 0.9607
2.6426 8.6688 0.1582 0.9644
0.4736 8.6821 0.1518 0.9658
-1.6403 8.6742 0.1541 0.9653
-2.7511 8.6603 0.1586 0.9643
-5.3326 8.7178 0.1784 0.9599
-6.9097 8.7275 0.1943 0.9564
-14.6321 8.7520 0.2976 0.9341
-57.8498 -18.2644 1.0589 0.7845
-24.2692 -31.1732 0.6896 0.8538
-18.9564 -31.5656 0.6427 0.8630
-15.7956 -35.3590 0.6760 0.8565
-5.6417 -31.2279 0.5539 0.8808
34.0857 -33.9887 0.8402 0.8248
40.3640 -24.3375 0.8227 0.8281
54.4152 -24.4238 1.0411 0.7877
79.5176 -24.7020 1.4534 0.7167
27.3138 8.5172 0.4994 0.8918
44.5220 20.0409 0.8523 0.8226
11.0041 8.6174 0.2440 0.9456
6.7640 8.6250 0.1913 0.9571
5.2144 8.6136 0.1758 0.9605
3.8876 8.6204 0.1651 0.9629
2.7097 8.6684 0.1585 0.9643
1.5990 8.6752 0.1540 0.9653
0.3630 5.8874 0.1030 0.9767
-0.5137 8.6805 0.1518 0.9658
-2.6836 8.6598 0.1582 0.9644
-5.2478 8.7173 0.1776 0.9601
-6.8092 8.7269 0.1932 0.9567
-8.7016 8.7385 0.2153 0.9519
-11.1211 8.7534 0.2470 0.9450
-14.3966 8.7501 0.2941 0.9348
-19.4025 8.7913 0.3718 0.9183
-57.3202 -17.6515 1.0469 0.7867
-19.2608 -31.5637 0.6454 0.8625
-9.8749 -31.2020 0.5713 0.8773
38.8235 -87.4869 1.6707 0.6819
32.6493 -42.1512 0.9306 0.8079
77.3757 -24.6388 1.4174 0.7226
49.9747 8.8099 0.8858 0.8163
27.9965 8.5130 0.5108 0.8895
15.0753 8.9666 0.3062 0.9322
8.7604 8.6312 0.2147 0.9520
6.8628 8.6245 0.1924 0.9569
5.2986 8.6144 0.1765 0.9603
3.9611 8.6200 0.1656 0.9628
2.7771 8.6680 0.1589 0.9642
-0.4522 8.6834 0.1518 0.9658
-2.6166 8.6602 0.1579 0.9645
-3.8097 8.6677 0.1653 0.9628
-8.5784 8.7377 0.2137 0.9522
-14.1736 8.7527 0.2908 0.9355
-19.0360 8.7883 0.3660 0.9195
-24.9828 -31.1688 0.6972 0.8523
-10.8132 -33.3439 0.6118 0.8692
-2.9283 -40.4860 0.7085 0.8501
38.0823 -87.4825 1.6654 0.6827
29.9541 -50.9750 1.0320 0.7894
32.1721 -42.1484 0.9255 0.8089
52.3883 -24.4114 1.0088 0.7936
93.9169 -18.5170 1.6709 0.6818
50.0167 8.4528 0.8854 0.8163
28.7105 8.5086 0.5227 0.8871
46.4997 20.1440 0.8845 0.8165
8.8847 8.6304 0.2162 0.9517
6.9627 8.6239 0.1935 0.9566
1.7263 8.6744 0.1544 0.9652
0.6588 8.6810 0.1520 0.9658
-0.3898 8.6665 0.1514 0.9659
-1.4499 8.6730 0.1535 0.9654
-2.5507 8.6633 0.1576 0.9645
-3.7365 8.6672 0.1647 0.9629
-8.4570 8.7370 0.2122 0.9525
-10.8003 8.7514 0.2426 0.9459
-13.9615 8.7588 0.2877 0.9362
-26.8035 8.8498 0.4927 0.8932
-57.3602 -16.7784 1.0432 0.7873
-57.2023 -43.1838 1.2510 0.7507
-25.3456 -31.1666 0.7012 0.8515
-21.0916 -33.4878 0.6908 0.8536
-5.0300 -15.1443 0.2785 0.9382
-6.3287 -31.2237 0.5561 0.8803
29.9490 -51.8028 1.0445 0.7871
31.7002 -42.1456 0.9205 0.8098
38.4507 -24.3124 0.7941 0.8336
29.4592 8.5040 0.5352 0.8846
47.1719 20.0399 0.8946 0.8146
14.1329 10.5910 0.3083 0.9318
7.0637 8.6234 0.1946 0.9564
2.7402 5.7472 0.1111 0.9748
-0.3291 8.6855 0.1517 0.9658
-1.3868 8.6726 0.1533 0.9655
-2.4851 8.6664 0.1574 0.9646
-4.9978 8.7157 0.1754 0.9606
-6.5144 8.7251 0.1901 0.9574
-13.7418 8.7572 0.2844 0.9369
-18.3364 8.7825 0.3549 0.9219
-26.1529 8.8408 0.4819 0.8954
-57.3801 -16.3440 1.0414 0.7877
-25.7126 -31.1643 0.7052 0.8508
-19.9603 -31.1996 0.6465 0.8623
-10.8036 -31.7734 0.5858 0.8744
-6.5590 -31.2223 0.5569 0.8802
31.5555 -42.5777 0.9250 0.8090
34.0736 -35.9582 0.8647 0.8202
34.1097 -28.2443 0.7730 0.8376
50.4830 -24.3997 0.9787 0.7991
53.9313 -18.4441 0.9951 0.7961
48.3387 20.1327 0.9140 0.8110
15.2931 8.6618 0.3068 0.9321
11.6650 8.6133 0.2531 0.9436
9.1384 8.6289 0.2194 0.9510
5.5625 8.6271 0.1792 0.9598
2.7765 5.7186 0.1110 0.9749
2.9811 8.6667 0.1600 0.9640
-2.0030 65.0430 1.1359 0.7708
-1.3238 8.6722 0.1531 0.9655
-2.4197 8.6695 0.1571 0.9646
-4.9158 8.7152 0.1747 0.9608
-48.2198 51.2491 1.2282 0.7546
12.9600 8.6054 -0.2715 0.9397
7.9374 8.6362 -0.2047 0.9542
2.3111 8.6708 -0.1566 0.9647
1.2210 8.6775 -0.1530 0.9656
-0.8832 8.6632 -0.1520 0.9658
-1.9564 8.6555 -0.1549 0.9651
-4.3399 8.6790 -0.1694 0.9619
-9.4793 8.7433 -0.2251 0.9497
-21.8940 8.8196 -0.4120 0.9099
-87.4057 1.8237 -1.5260 0.7049
-73.2243 -7.3346 -1.2845 0.7450
-35.6524 -7.9923 -0.6378 0.8640
-73.4844 -26.0952 -1.3611 0.7320
-50.2283 -25.0055 -0.9794 0.7989
-61.0274 -40.2114 -1.2757 0.7465
-15.5690 -21.5290 -0.4638 0.8992
-7.6842 -28.4251 -0.5140 0.8889
-3.0059 -20.8288 -0.3673 0.9193
24.7661 -29.3120 -0.6692 0.8577
63.4362 13.9850 -1.1339 0.7711
10.2414 8.6221 -0.2337 0.9479
8.0503 8.6356 -0.2061 0.9539
4.7817 8.5696 -0.1713 0.9615
2.3769 8.6704 -0.1569 0.9647
1.2836 8.6771 -0.1531 0.9655
0.2273 8.6836 -0.1516 0.9658
-0.8216 8.6661 -0.1519 0.9658
-3.0097 8.6204 -0.1594 0.9641
-12.3714 25.1848 -0.4898 0.8938
-5.6794 8.7199 -0.1816 0.9592
-11.9771 8.7586 -0.2590 0.9424
-15.4835 8.6755 -0.3098 0.9315
-50.2405 13.8684 -0.9097 0.8118
-53.5626 8.0206 -0.9454 0.8052
-38.4001 -8.3232 -0.6858 0.8545
-8.0323 -19.4413 -0.3672 0.9193
-2.5032 -84.2197 -1.4707 0.7139
31.1984 -90.3845 -1.6690 0.6821
29.9823 -46.3918 -0.9642 0.8017
32.4450 -38.9567 -0.8849 0.8164
34.0971 -32.1265 -0.8177 0.8291
43.1076 -24.3544 -0.8642 0.8203
88.5615 -24.7843 -1.6052 0.6922
97.2929 8.7027 -1.7050 0.6765
41.6258 20.1740 -0.8074 0.8311
10.3888 8.6212 -0.2356 0.9474
8.1647 8.6349 -0.2074 0.9536
6.3611 8.6022 -0.1867 0.9581
4.8620 8.5705 -0.1720 0.9613
23.9726 57.4459 -1.0865 0.7796
2.4429 8.6700 -0.1572 0.9646
0.2889 8.6833 -0.1517 0.9658
-2.9425 8.6236 -0.1590 0.9642
-12.2220 25.3324 -0.4909 0.8936
-5.5915 8.7194 -0.1808 0.9594
-9.2123 8.7416 -0.2217 0.9505
-15.2277 8.6744 -0.3059 0.9323
-21.0167 8.8142 -0.3978 0.9129
-50.2374 14.2512 -0.9115 0.8115
-53.5601 8.4085 -0.9463 0.8050
-87.3979 3.0625 -1.5265 0.7048
-47.6436 -9.9739 -0.8496 0.8231
-73.4470 -24.9162 -1.3538 0.7332
-63.1484 -30.3292 -1.2228 0.7556
-60.5907 -38.7041 -1.2550 0.7500
-16.2086 -21.7577 -0.4736 0.8971
-11.4910 -20.0894 -0.4040 0.9116
-0.8074 -21.9332 -0.3831 0.9159
25.9107 -54.1942 -1.0485 0.7864
29.9780 -47.1138 -0.9747 0.7998
34.0943 -32.5827 -0.8232 0.8281
34.1377 -25.5252 -0.7440 0.8432
42.3960 -24.3500 -0.8534 0.8223
49.3815 -20.9159 -0.9361 0.8069
97.2886 8.0081 -1.7039 0.6767
66.6342 13.7033 -1.1874 0.7617
58.3690 19.5709 -1.0746 0.7817
10.5387 8.6203 -0.2377 0.9470
8.2806 8.6341 -0.2088 0.9533
6.4553 8.6016 -0.1877 0.9579
-1.7638 8.6544 -0.1542 0.9653
-2.8755 8.6268 -0.1587 0.9643
-5.5044 8.7189 -0.1800 0.9596
-7.1141 8.7288 -0.1966 0.9560
-9.0817 8.7408 -0.2200 0.9508
-11.6249 8.7565 -0.2540 0.9434
-73.3666 -24.3110 -1.3491 0.7340
-63.7193 -30.0500 -1.2297 0.7544
-60.4275 -38.0000 -1.2460 0.7516
-16.7135 -22.1070 -0.4837 0.8951
-3.4438 -20.7365 -0.3669 0.9193
25.4879 -54.2946 -1.0469 0.7867
29.2474 -46.6923 -0.9617 0.8022
83.8642 -24.7556 -1.5263 0.7048
88.7996 -14.9088 -1.5717 0.6975
49.5704 9.8289 -0.8821 0.8170
60.0466 19.6615 -1.1029 0.7766
10.6911 8.6193 -0.2397 0.9465
6.5506 8.6010 -0.1887 0.9577
5.0284 8.5782 -0.1736 0.9610
2.5757 8.6692 -0.1579 0.9645
-1.7000 8.6540 -0.1539 0.9653
-4.0114 8.6243 -0.1660 0.9627
-8.9532 8.7400 -0.2184 0.9512
-11.4538 8.7554 -0.2516 0.9440
-27.2794 8.1577 -0.4970 0.8923
-53.5552 9.1866 -0.9485 0.8046
-34.3423 1.6906 -0.6002 0.8715
-64.8222 -4.6432 -1.1344 0.7711
-47.1893 -9.1832 -0.8391 0.8250
-64.1019 -29.6773 -1.2330 0.7538
-73.3822 -45.4246 -1.5064 0.7080
-17.2403 -22.4713 -0.4944 0.8929
-11.8159 -19.9949 -0.4054 0.9113
-3.6022 -20.7788 -0.3681 0.9191
-1.1090 -21.7442 -0.3800 0.9166
4.0999 -58.6959 -1.0270 0.7903
30.0547 -93.4625 -1.7137 0.6752
29.2026 -47.3631 -0.9712 0.8004
34.0886 -33.5137 -0.8344 0.8259
55.4777 -24.4304 -1.0581 0.7847
98.0500 6.6744 -1.7154 0.6749
40.3533 18.5093 -0.7749 0.8373
14.0020 8.5990 -0.2868 0.9364
8.5172 8.6327 -0.2117 0.9526
6.6468 8.6003 -0.1897 0.9574
5.1127 8.5822 -0.1744 0.9608
3.7950 8.5767 -0.1637 0.9632
2.6426 8.6688 -0.1582 0.9644
1.5356 8.6756 -0.1538 0.9654
-6.9097 8.7275 -0.1943 0.9564
-11.2860 8.7544 -0.2493 0.9445
-14.5387 8.6962 -0.2957 0.9345
-19.5501 8.6919 -0.3735 0.9180
-50.2286 15.4089 -0.9171 0.8104
-54.7760 9.7958 -0.9713 0.8004
-54.8022 3.0871 -0.9581 0.8028
-70.3381 -4.5379 -1.2303 0.7543
-47.7818 -8.9477 -0.8485 0.8233
-73.2726 -33.2950 -1.4048 0.7247
-73.4154 -44.7295 -1.5006 0.7090
-8.6711 -19.4106 -0.3711 0.9185
