ply
format ascii 1.0
element vertex 1574
property float32 x
property float32 y
property float32 z
property float32 I
end_header
-15.3199 23.1338 5.3934 0.8931
-79.9631 11.3559 15.6992 0.7196
-39.6438 -8.9061 7.8980 0.8474
-52.4865 -26.1584 11.3992 0.7874
-61.0527 -66.0125 17.4781 0.6932
-18.5964 -33.6387 7.4714 0.8550
-12.7795 -31.5983 6.6254 0.8703
26.1289 -39.7806 9.2514 0.8237
36.1766 -42.7900 10.8918 0.7959
48.2438 -44.7879 12.7958 0.7647
58.7790 -42.6393 14.1151 0.7439
57.9916 -32.2021 12.8937 0.7632
61.3839 13.5476 12.2190 0.7740
55.7426 19.5870 11.4847 0.7860
33.2446 21.7466 7.7219 0.8505
33.8973 46.5434 11.1922 0.7909
4.8273 8.6548 1.9263 0.9604
3.5418 8.6633 1.8193 0.9626
1.2823 8.6771 1.7050 0.9649
0.2261 8.6836 1.6885 0.9652
-1.9022 8.6967 1.7304 0.9644
-3.0399 8.7037 1.7921 0.9631
-4.2804 8.7113 1.8867 0.9612
-15.4631 23.7364 5.5065 0.8910
-57.1718 53.4783 15.2171 0.7269
-39.6735 -8.5995 7.8908 0.8475
-59.7960 -38.7940 13.8550 0.7479
-13.0565 -31.5966 6.6455 0.8700
-5.3435 -35.2406 6.9284 0.8648
25.7004 -39.7778 9.2055 0.8245
-54.4677 17.7287 9.0723 0.7930
-79.8369 5.8629 12.6790 0.7231
-79.3591 -13.4648 12.7489 0.7218
-27.0914 -33.5967 6.8357 0.8396
-19.6962 -31.5610 5.8923 0.8601
-6.2775 -31.6381 5.1087 0.8775
22.3670 -51.8079 8.9376 0.7957
23.8648 -40.8952 7.4994 0.8255
31.0538 -40.9403 8.1386 0.8121
52.8885 -42.8123 10.7772 0.7591
58.4215 -36.6120 10.9199 0.7564
80.7084 13.3813 12.9575 0.7180
58.7929 17.2241 9.7033 0.7803
7.0224 8.6419 1.7637 0.9559
4.0876 8.6599 1.5167 0.9620
1.7551 8.6742 1.4017 0.9648
0.6868 8.6808 1.3792 0.9653
-3.7206 8.7079 1.4998 0.9624
-5.0424 8.7160 1.5949 0.9600
-6.5667 8.7254 1.7296 0.9567
-8.3928 8.7275 1.9177 0.9521
-65.6652 53.5654 13.4218 0.7095
-81.3241 -13.1689 13.0482 0.7163
-60.7529 -45.5439 12.0259 0.7353
-27.5093 -33.5941 6.8771 0.8387
-10.5491 -31.4025 5.2468 0.8745
-3.4471 -41.5785 6.6080 0.8445
22.1427 -52.3685 9.0053 0.7943
58.5148 -28.0249 10.2759 0.7689
95.6221 15.1150 15.3331 0.6757
58.7899 16.7437 9.6817 0.7807
45.5291 19.1499 7.8230 0.8187
33.2631 24.7408 6.5658 0.8454
7.1306 8.6412 1.7744 0.9556
4.1674 8.6594 1.5221 0.9618
1.8231 8.6738 1.4038 0.9647
0.7526 8.6804 1.3800 0.9653
-0.2972 8.6869 1.3767 0.9654
-3.6431 8.7074 1.4950 0.9625
-4.9549 8.7155 1.5879 0.9602
-6.4639 8.7248 1.7198 0.9570
-8.2623 8.7224 1.9029 0.9525
-58.1766 -16.3325 9.5705 0.7829
-80.9574 -33.6930 13.8885 0.7011
-56.1532 -41.4387 11.0533 0.7538
-15.3653 -31.6225 5.5685 0.8673
-10.8843 -31.6098 5.2950 0.8734
-6.7736 -31.6350 5.1241 0.8772
23.1578 -41.0931 7.4709 0.8261
30.7525 -41.8370 8.2239 0.8104
40.3472 -42.9163 9.3295 0.7878
51.0742 -42.6328 10.5372 0.7638
58.3771 -37.8204 11.0168 0.7545
58.2622 -28.4452 10.2689 0.7691
71.0068 -24.5996 11.9022 0.7376
58.7870 16.2653 9.6608 0.7811
46.4914 19.1440 7.9634 0.8158
33.8057 31.6624 7.3360 0.8290
7.2401 8.6405 1.7854 0.9554
5.6274 8.6504 1.6345 0.9591
3.0207 8.6665 1.4536 0.9635
-2.3894 8.6997 1.4289 0.9641
-3.5661 8.7069 1.4902 0.9626
-8.1483 8.7328 1.8917 0.9528
-63.6679 53.5531 13.1769 0.7140
-53.5635 18.7827 8.9901 0.7946
-79.2389 7.6219 12.6081 0.7244
-80.2162 -11.7528 12.8406 0.7201
-20.6971 -31.5549 5.9770 0.8583
-11.1629 -31.6430 5.3145 0.8729
-7.0228 -31.6335 5.1322 0.8770
-3.4425 -35.0954 5.5852 0.8669
21.1051 -52.0877 8.9014 0.7964
22.7965 -41.1737 7.4541 0.8265
30.4130 -42.0347 8.2175 0.8105
40.2871 -43.5042 9.3911 0.7865
25.0150 -16.4750 4.7440 0.8858
58.7840 15.7889 9.6405 0.7815
35.7579 19.7101 6.4669 0.8476
33.8028 31.1852 7.2842 0.8301
7.3509 8.6399 1.7967 0.9551
5.7202 8.6499 1.6425 0.9589
1.2940 5.7267 0.9299 0.9765
-1.2235 8.6926 1.3903 0.9651
-3.4896 8.7065 1.4856 0.9627
-4.7821 8.7144 1.5744 0.9605
-6.2617 8.7235 1.7008 0.9574
-8.0276 8.7344 1.8789 0.9531
-79.6121 28.5919 13.3979 0.7099
-79.2433 8.2249 12.6183 0.7242
-83.7433 -11.6261 13.3909 0.7101
-59.7787 -15.8150 9.7938 0.7785
-15.9566 -31.6189 5.6095 0.8664
-11.4310 -31.6414 5.3285 0.8726
21.5835 -54.4427 9.2758 0.7888
28.1591 -39.5431 7.6887 0.8215
39.6495 -43.4676 9.3185 0.7880
58.0561 -29.4354 10.3096 0.7683
50.6908 19.9858 8.6301 0.8020
36.3964 19.7061 6.5553 0.8457
33.2560 23.5878 6.4576 0.8478
33.7999 30.7147 7.2335 0.8311
7.4632 8.6392 1.8082 0.9548
3.1675 8.6656 1.4613 0.9633
0.9504 8.6792 1.3829 0.9653
-2.2489 8.6988 1.4231 0.9643
-4.6968 8.7139 1.5679 0.9607
-6.1623 8.7229 1.6915 0.9577
-7.9065 8.7336 1.8659 0.9534
-79.2963 29.1542 13.3813 0.7102
-83.9388 -11.0096 13.4085 0.7097
-66.0626 -35.4474 11.8744 0.7381
-16.2556 -31.6171 5.6307 0.8659
-11.7004 -31.6397 5.3429 0.8723
-3.5842 -31.6308 5.0419 0.8790
21.0978 -54.4101 9.2429 0.7895
22.1540 -41.4753 7.4474 0.8266
27.9955 -39.9466 7.7260 0.8207
37.9006 -42.1838 8.9819 0.7948
48.5030 -42.3816 10.2017 0.7704
58.1549 -30.0383 10.3670 0.7671
58.7782 14.8420 9.6018 0.7823
52.1508 20.1091 8.8527 0.7974
37.2386 19.8009 6.6800 0.8430
33.2537 23.2117 6.4231 0.8485
7.5770 8.6385 1.8199 0.9545
4.4924 8.6574 1.5448 0.9613
1.3897 5.7463 0.9364 0.9763
1.0166 8.6788 1.3840 0.9652
-3.3380 8.7055 1.4767 0.9629
-4.6121 8.7134 1.5615 0.9609
-81.6379 -10.0832 13.0284 0.7167
-81.7894 -31.1842 13.8638 0.7015
-11.9715 -31.6381 5.3577 0.8720
-7.7754 -31.6289 5.1587 0.8764
20.1097 -53.0431 8.9847 0.7947
22.3349 -42.5823 7.6158 0.8231
26.8954 -38.9983 7.5032 0.8254
61.1235 -42.2661 11.7701 0.7401
58.3456 14.2663 9.5133 0.7841
37.7275 19.6979 6.7409 0.8417
33.2514 22.8397 6.3892 0.8493
5.9964 8.6370 1.6653 0.9583
-2.1094 8.6980 1.4176 0.9644
-3.2628 8.7051 1.4724 0.9631
-4.5282 8.7129 1.5552 0.9610
-5.9666 8.7217 1.6737 0.9581
-7.6690 8.7322 1.8407 0.9540
-80.0126 42.4796 14.3480 0.6929
-59.7400 -14.3692 9.7317 0.7797
-83.5626 -31.1418 14.1242 0.6969
-12.2305 -31.6016 5.3670 0.8718
-8.0369 -31.6622 5.1738 0.8761
26.7879 -39.4750 7.5559 0.8243
48.2517 -43.4606 10.2853 0.7687
60.1418 -42.2601 11.6420 0.7425
63.2130 -24.6017 10.7435 0.7598
58.3218 13.7959 9.4922 0.7845
39.3856 20.1878 7.0098 0.8359
33.2491 22.4716 6.3561 0.8500
33.9067 48.0610 9.3158 0.7880
4.6586 8.6564 1.5570 0.9610
16.7410 64.9276 10.6199 0.7622
1.1492 8.6780 1.3865 0.9652
0.0953 8.6845 1.3756 0.9654
-2.0401 8.6976 1.4149 0.9645
-3.1881 8.7046 1.4682 0.9632
-58.9378 53.4892 12.6060 0.7245
-85.5973 -31.1677 14.4281 0.6915
-65.6266 -33.3265 11.6577 0.7422
-24.5397 -21.1462 5.1307 0.8771
-23.9061 -33.6161 6.5333 0.8462
-12.5042 -31.5999 5.3825 0.8714
-8.2907 -31.6606 5.1836 0.8759
-2.1994 -16.1413 2.5802 0.9362
28.5738 -78.9347 13.2960 0.7118
20.8627 -41.2748 7.3249 0.8292
26.5627 -39.7846 7.5767 0.8239
36.2030 -42.1732 8.8032 0.7984
59.4535 -42.4491 11.5704 0.7439
62.0853 -24.7027 10.5831 0.7629
59.3158 13.5603 9.6371 0.7816
54.4510 19.5950 9.1656 0.7911
33.7887 28.8954 7.0416 0.8352
7.9273 8.6363 1.8567 0.9536
6.1797 8.6209 1.6800 0.9580
4.7427 8.6559 1.5633 0.9608
3.4661 8.6637 1.4779 0.9629
1.2157 8.6776 1.3878 0.9651
0.1607 8.6840 1.3757 0.9654
-1.9710 8.6971 1.4124 0.9645
-3.1138 8.7042 1.4642 0.9633
-4.3623 8.7118 1.5431 0.9613
-15.3199 23.1339 4.3946 0.8937
-58.0475 53.4837 12.5014 0.7264
-60.7324 -13.6436 9.8588 0.7772
-67.5200 -33.6509 11.9487 0.7367
-62.9104 -68.0212 14.6748 0.6871
-24.2876 -33.6138 6.5682 0.8454
-8.5455 -31.6590 5.1938 0.8756
28.2531 -79.9237 13.4263 0.7094
26.2139 -39.9101 7.5627 0.8242
35.6522 -42.1698 8.7462 0.7996
45.7771 -42.4978 9.8931 0.7765
61.5835 -25.0417 10.5294 0.7640
40.6795 20.0833 7.1855 0.8322
33.2446 21.7466 6.2919 0.8514
33.7860 28.4554 6.9962 0.8362
8.0473 8.6356 1.8696 0.9533
6.2971 8.6463 1.6941 0.9576
4.8276 8.6554 1.5697 0.9607
2.3754 8.6704 1.4239 0.9642
1.2823 8.6771 1.3893 0.9651
0.2261 8.6836 1.3758 0.9654
-0.8250 8.6901 1.3826 0.9653
-1.9022 8.6967 1.4100 0.9646
-3.0399 8.7037 1.4602 0.9634
-57.1718 53.4783 12.3991 0.7283
-82.0577 45.9706 14.8972 0.6832
-52.0171 -25.4374 9.1710 0.7910
-78.6684 -51.0379 14.8524 0.6840
-61.3771 -65.3690 14.2019 0.6955
-24.6731 -33.6115 6.6039 0.8446
-2.2251 -14.6743 2.3508 0.9417
-2.4855 -83.3890 13.2134 0.7133
-25.4231 -31.5278 4.9729 0.8494
-19.6962 -31.5610 4.5679 0.8608
-11.0300 -33.6718 4.3505 0.8669
-6.6863 -33.6984 4.2183 0.8707
-3.5130 -46.6365 5.7425 0.8282
23.1181 -39.6157 5.6319 0.8312
57.9663 -36.3267 8.3995 0.7590
58.0694 -27.2759 7.8774 0.7722
65.0774 2.8403 7.9981 0.7691
11.4022 8.6150 1.7547 0.9440
8.9405 8.6301 1.5257 0.9512
7.0224 8.6419 1.3672 0.9561
4.0876 8.6599 1.1758 0.9621
2.8754 8.6674 1.1213 0.9639
-0.3628 8.6873 1.0676 0.9656
-1.4246 8.6938 1.0817 0.9651
-2.5312 8.7006 1.1126 0.9641
-5.0424 8.7160 1.2364 0.9602
-81.1103 27.0776 10.4994 0.7085
-60.5206 -17.4832 7.7348 0.7758
-25.8153 -31.5254 5.0030 0.8486
-20.0267 -31.5590 4.5893 0.8602
-16.0405 -33.6543 4.5776 0.8605
-10.5759 -31.4823 4.0778 0.8747
25.2962 -88.1889 11.2649 0.6909
21.0497 -49.7835 6.6366 0.8043
22.7086 -39.5960 5.6046 0.8320
40.4214 -42.3516 7.1885 0.7898
51.4180 -42.2668 8.1726 0.7647
58.0123 -36.9668 8.4463 0.7579
58.0662 -27.8100 7.9051 0.7715
62.4586 -21.1128 8.0952 0.7667
62.4548 -13.0042 7.8329 0.7733
65.0260 -5.5142 8.0128 0.7687
65.1233 10.2941 8.0954 0.7667
58.8400 16.7579 7.5119 0.7815
34.5311 19.7176 4.8824 0.8519
9.0755 8.6292 1.5376 0.9508
7.1306 8.6412 1.3756 0.9559
5.5356 8.6510 1.2611 0.9595
4.1674 8.6594 1.1800 0.9620
1.8231 8.6738 1.0883 0.9649
0.7526 8.6804 1.0698 0.9655
-0.2972 8.6869 1.0672 0.9656
-3.6431 8.7074 1.1589 0.9627
-4.9549 8.7155 1.2310 0.9604
-6.4639 8.7248 1.3332 0.9572
-82.8522 -12.7770 10.2932 0.7133
-60.7389 -17.0518 7.7461 0.7755
-58.7303 -43.3405 8.9621 0.7452
-20.3603 -31.5569 4.6112 0.8595
-16.3517 -33.6525 4.5940 0.8600
-11.5931 -33.6683 4.3722 0.8663
25.1801 -90.3455 11.5158 0.6852
23.1030 -40.9959 5.7779 0.8273
39.8127 -42.3478 7.1367 0.7912
50.6296 -42.2617 8.0976 0.7666
58.0085 -37.5816 8.4867 0.7569
71.9292 -24.9192 9.3467 0.7358
64.9736 -14.0399 8.1619 0.7650
58.8371 16.2792 7.4957 0.7819
11.7634 8.6127 1.7901 0.9429
9.2125 8.6284 1.5498 0.9504
5.6275 8.6504 1.2671 0.9593
1.2544 5.7523 0.7229 0.9766
-0.2318 8.6865 1.0669 0.9656
-1.2904 8.6930 1.0791 0.9652
-2.3894 8.6997 1.1077 0.9643
-4.8681 8.7150 1.2257 0.9606
-8.1505 8.7351 1.4669 0.9530
-10.4014 8.7490 1.6688 0.9467
-81.6972 7.8583 10.0775 0.7184
-59.1659 -16.1307 7.5298 0.7810
-83.1072 -33.8558 11.0185 0.6965
-20.6971 -31.5549 4.6335 0.8589
-16.5935 -33.5060 4.5909 0.8601
-11.8768 -33.6666 4.3834 0.8660
22.1525 -40.0106 5.6154 0.8317
39.2395 -42.3729 7.0910 0.7924
49.9202 -42.3114 8.0349 0.7682
58.0047 -38.2023 8.5280 0.7559
58.0595 -28.8896 7.9626 0.7700
70.7191 -25.0979 9.2138 0.7390
64.9704 -14.5521 8.1750 0.7647
58.8341 15.8023 7.4800 0.7823
7.3509 8.6399 1.3929 0.9553
5.7202 8.6499 1.2733 0.9591
1.2940 5.7266 0.7209 0.9766
0.8844 8.6796 1.0712 0.9655
-1.2235 8.6926 1.0778 0.9652
-2.3190 8.6993 1.1054 0.9644
-3.4896 8.7065 1.1517 0.9629
-6.2617 8.7235 1.3185 0.9576
-8.0276 8.7344 1.4566 0.9533
-10.2427 8.7480 1.6539 0.9472
-22.3811 -33.5683 4.9538 0.8499
-16.9809 -33.6486 4.6278 0.8591
23.3145 -88.8011 11.2729 0.6907
20.1644 -50.8630 6.7181 0.8021
22.7727 -41.8720 5.8524 0.8252
29.5146 -41.4467 6.2475 0.8146
38.6953 -42.4216 7.0501 0.7934
49.0966 -42.2526 7.9533 0.7702
62.4993 -14.4936 7.8776 0.7722
65.0169 -6.9959 8.0292 0.7683
60.4804 8.1645 7.4934 0.7820
36.3964 19.7061 5.0819 0.8464
12.1397 8.6104 1.8274 0.9418
9.4932 8.6267 1.5750 0.9496
4.4102 8.6579 1.1930 0.9616
0.9504 8.6792 1.0720 0.9654
-0.1009 8.6857 1.0665 0.9656
-1.1567 8.6921 1.0767 0.9653
-3.4135 8.7060 1.1482 0.9630
-4.6968 8.7139 1.2155 0.9609
-6.1623 8.7229 1.3113 0.9579
-7.9065 8.7336 1.4465 0.9536
-10.0868 8.7470 1.6393 0.9476
-23.1475 2.5789 2.8598 0.9104
-27.4321 -31.5136 5.1300 0.8450
20.0011 -51.5816 6.7929 0.8001
22.0779 -41.3329 5.7537 0.8279
27.6061 -39.3909 5.9061 0.8238
48.3500 -42.2479 7.8837 0.7720
58.0553 -29.9868 8.0230 0.7685
62.3921 -23.2063 8.1735 0.7647
65.0139 -7.4910 8.0355 0.7682
62.5907 0.3734 7.6853 0.7771
52.1508 20.1091 6.8628 0.7983
12.3338 8.6092 1.8468 0.9412
9.6371 8.6258 1.5880 0.9492
7.5770 8.6385 1.4109 0.9547
4.4924 8.6574 1.1976 0.9615
1.3897 5.7462 0.7259 0.9765
1.0166 8.6788 1.0729 0.9654
-0.0355 8.6853 1.0664 0.9656
-1.0901 8.6917 1.0756 0.9653
-12.7605 8.7529 1.9000 0.9395
-23.1058 2.7505 2.8570 0.9105
-80.0869 -55.4553 11.9607 0.6753
-27.8803 -31.5460 5.1693 0.8439
-22.9501 -33.3232 4.9681 0.8495
-17.6196 -33.6447 4.6632 0.8581
-8.2818 -33.6886 4.2596 0.8695
19.6804 -51.9109 6.8165 0.7995
37.3273 -42.1803 6.9158 0.7969
61.1235 -42.2661 9.1246 0.7412
58.0518 -30.5406 8.0541 0.7677
64.6734 -24.6107 8.4964 0.7566
62.4876 -7.6774 7.7302 0.7759
37.7275 19.6980 5.2257 0.8424
9.7833 8.6249 1.6014 0.9488
7.6922 8.6378 1.4202 0.9545
4.5752 8.6569 1.2022 0.9613
0.0299 8.6849 1.0664 0.9656
-2.1094 8.6980 1.0989 0.9646
-3.2628 8.7051 1.1415 0.9632
-4.5282 8.7129 1.2057 0.9612
-5.9666 8.7217 1.2975 0.9583
-81.7889 43.4227 11.3700 0.6885
-59.6415 -14.3455 7.5319 0.7810
-23.2003 -33.1494 4.9681 0.8495
-12.2922 -31.7610 4.1816 0.8718
-8.5508 -33.6870 4.2674 0.8693
21.9418 -42.6098 5.8847 0.8244
26.9153 -39.6628 5.8854 0.8243
36.7617 -42.1768 6.8697 0.7981
46.9994 -42.3326 7.7665 0.7750
60.1418 -42.2601 9.0252 0.7436
62.5394 -24.3396 8.2399 0.7630
62.4846 -8.1550 7.7372 0.7757
62.7338 -0.5704 7.7030 0.7766
62.5779 7.0124 7.7317 0.7759
58.3218 13.7959 7.3586 0.7854
53.2113 19.6026 6.9627 0.7957
12.7346 8.6068 1.8872 0.9399
9.9113 8.6060 1.6117 0.9485
33.9067 48.0611 7.2219 0.7890
4.6586 8.6564 1.2070 0.9612
1.1492 8.6780 1.0748 0.9653
0.0953 8.6845 1.0664 0.9656
-0.9573 8.6909 1.0736 0.9654
-2.0401 8.6976 1.0969 0.9646
-3.1881 8.7046 1.1382 0.9633
-4.4450 8.7124 1.2009 0.9613
-5.8703 8.7211 1.2908 0.9585
-7.5527 8.7314 1.4175 0.9545
-58.9765 53.5242 9.7790 0.7254
-12.3688 8.7611 1.8611 0.9407
-61.0072 -14.1890 7.6907 0.7769
-67.2729 -34.1624 9.2641 0.7378
-2.1441 -15.7357 1.9499 0.9380
24.2171 -47.9112 6.5915 0.8055
58.0449 -31.6623 8.1184 0.7661
61.8099 -24.5931 8.1680 0.7648
64.9545 -17.1399 8.2484 0.7628
65.0047 -8.9822 8.0574 0.7676
62.7846 6.5573 7.7509 0.7754
59.3156 13.5603 7.4709 0.7825
54.7242 19.6933 7.1411 0.7911
12.9187 8.5902 1.9049 0.9394
7.9273 8.6363 1.4394 0.9539
1.2157 8.6776 1.0759 0.9653
0.1607 8.6840 1.0664 0.9656
-0.8911 8.6905 1.0727 0.9654
-4.3623 8.7118 1.1963 0.9615
-15.3199 23.1338 3.4069 0.8942
-7.4379 8.7307 1.4083 0.9548
-9.4894 8.7434 1.5843 0.9493
-29.1685 -31.5381 5.2747 0.8410
-23.6969 -32.7963 4.9681 0.8495
-12.7795 -31.5983 4.1851 0.8717
-9.0920 -33.6836 4.2838 0.8688
-5.4344 -37.7554 4.6836 0.8575
23.0520 -46.4724 6.3695 0.8113
45.6543 -42.3839 7.6489 0.7780
58.0415 -32.2298 8.1516 0.7653
60.4598 -24.5848 8.0138 0.7687
65.0016 -9.4811 8.0656 0.7674
65.0987 6.3038 8.0305 0.7683
62.1720 13.7215 7.8175 0.7737
40.6795 20.0833 5.5704 0.8329
8.0473 8.6356 1.4493 0.9535
6.2971 8.6463 1.3133 0.9578
2.3754 8.6704 1.1038 0.9644
1.2823 8.6771 1.0770 0.9653
-0.8250 8.6901 1.0718 0.9654
-1.9022 8.6967 1.0931 0.9648
-4.2804 8.7113 1.1918 0.9616
-7.3246 8.7300 1.3992 0.9551
-39.7000 -8.6053 4.9877 0.8490
-66.9082 -32.7194 9.1450 0.7407
-81.3790 -52.7965 11.9107 0.6764
-23.9431 -32.6170 4.9681 0.8495
-9.3642 -33.6820 4.2925 0.8686
-5.3435 -35.2406 4.3765 0.8662
-2.5103 -84.2196 10.3454 0.7121
21.5712 -44.3224 6.0524 0.8198
-27.0914 -33.5967 3.7759 0.8409
-11.8779 -25.4119 2.4541 0.8935
-3.5893 -47.6486 4.1805 0.8254
23.4561 -40.1949 4.0716 0.8296
52.2205 -42.2716 5.8780 0.7636
58.5182 -27.4867 5.6563 0.7714
57.3867 -18.9180 5.2865 0.7846
58.3420 17.0921 5.3188 0.7834
33.9414 19.7212 3.4344 0.8542
11.4022 8.6150 1.2503 0.9442
7.0224 8.6419 0.9742 0.9563
5.4445 8.6516 0.8943 0.9598
0.6868 8.6808 0.7618 0.9656
-0.3628 8.6873 0.7607 0.9657
-1.4246 8.6938 0.7708 0.9652
-2.5312 8.7006 0.7928 0.9643
-6.5667 8.7254 0.9554 0.9571
-8.4016 8.7367 1.0604 0.9525
-10.7277 8.7510 1.2112 0.9459
-18.5510 8.7990 1.7963 0.9209
-60.4037 -17.4494 5.5007 0.7769
-6.5324 -31.6714 2.8292 0.8782
24.9745 -87.0674 7.9246 0.6951
23.6912 -41.3093 4.1663 0.8260
30.9475 -41.4447 4.5253 0.8125
58.4606 -37.2525 6.0648 0.7570
58.5148 -28.0249 5.6762 0.7707
57.0982 -19.3008 5.2731 0.7850
62.4548 -13.0042 5.5813 0.7740
62.5022 -5.3002 5.4879 0.7774
58.3391 16.6153 5.3070 0.7838
45.5292 19.1499 4.3213 0.8201
11.5810 8.6139 1.2627 0.9437
9.0754 8.6292 1.0956 0.9510
7.1306 8.6412 0.9802 0.9560
5.5356 8.6510 0.8985 0.9596
4.1674 8.6594 0.8408 0.9621
2.9479 8.6669 0.8009 0.9639
0.7526 8.6804 0.7623 0.9656
-0.2972 8.6869 0.7604 0.9657
-1.3574 8.6934 0.7698 0.9653
-3.6431 8.7074 0.8258 0.9628
-6.4639 8.7248 0.9500 0.9573
-8.2751 8.7359 1.0528 0.9528
-10.5631 8.7500 1.2000 0.9464
-60.5583 -17.0011 5.5030 0.7768
-15.3484 -31.5876 3.0725 0.8685
-6.7810 -31.6699 2.8336 0.8781
-3.6632 -40.4814 3.5561 0.8494
24.0718 -86.3689 7.8443 0.6977
23.4073 -41.5359 4.1712 0.8258
30.7332 -41.8106 4.5399 0.8119
39.7852 -42.3185 5.0817 0.7920
58.4568 -37.8721 6.0938 0.7560
58.2623 -28.4453 5.6724 0.7708
62.5458 1.7867 5.4743 0.7778
56.7621 8.5349 5.0219 0.7942
46.4915 19.1440 4.3988 0.8172
11.7634 8.6127 1.2755 0.9431
7.2401 8.6405 0.9862 0.9557
0.8184 8.6800 0.7628 0.9656
-1.2904 8.6930 0.7689 0.9653
-2.3894 8.6997 0.7893 0.9644
-6.3623 8.7241 0.9447 0.9576
-10.4014 8.7490 1.1891 0.9469
-17.8428 8.7947 1.7404 0.9232
-20.6972 -31.5549 3.3016 0.8594
-15.6425 -31.5858 3.0837 0.8680
-11.1629 -31.6431 2.9356 0.8740
-3.4050 -34.7134 3.0516 0.8693
20.6931 -51.0710 4.8210 0.8015
30.4014 -42.0187 4.5375 0.8120
39.2787 -42.4153 5.0576 0.7929
49.8562 -42.2571 5.7178 0.7692
58.3345 -38.4195 6.1111 0.7554
62.4963 -6.2489 5.4950 0.7771
47.4893 19.1379 4.4795 0.8142
11.9496 8.6116 1.2886 0.9426
7.3509 8.6399 0.9925 0.9555
5.7202 8.6499 0.9073 0.9592
4.3287 8.6584 0.8469 0.9619
1.2940 5.7266 0.5136 0.9767
-0.1663 8.6861 0.7601 0.9657
-1.2235 8.6926 0.7680 0.9654
-2.3190 8.6993 0.7877 0.9645
-6.2617 8.7235 0.9395 0.9578
-10.2427 8.7480 1.1785 0.9474
-13.2017 8.7662 1.3864 0.9384
-22.4191 -33.6253 3.5358 0.8502
-11.4310 -31.6414 2.9434 0.8736
-7.2808 -31.6668 2.8428 0.8777
22.5486 -85.8838 7.7685 0.7001
20.9492 -52.8427 4.9732 0.7959
22.4221 -41.2273 4.1059 0.8283
29.9771 -42.0961 4.5213 0.8126
38.4816 -42.1872 4.9957 0.7951
58.0009 -38.8290 6.1066 0.7556
58.0562 -29.4354 5.6948 0.7700
57.8371 -21.0178 5.3838 0.7811
62.4457 -14.4812 5.6083 0.7731
62.5400 0.8442 5.4720 0.7779
57.3017 7.7354 5.0587 0.7928
48.5241 19.1315 4.5634 0.8110
7.4632 8.6392 0.9988 0.9552
5.8139 8.6493 0.9118 0.9590
4.4102 8.6579 0.8501 0.9617
1.3386 5.7230 0.5142 0.9767
-0.1009 8.6857 0.7599 0.9657
-2.2489 8.6988 0.7861 0.9646
-4.6968 8.7139 0.8661 0.9610
-6.1623 8.7229 0.9344 0.9580
-12.9865 8.7649 1.3707 0.9390
-22.7851 -33.6231 3.5535 0.8495
-11.7004 -31.6398 2.9513 0.8733
-3.5909 -31.6894 2.7902 0.8798
22.0720 -86.7229 7.8292 0.6982
23.0110 -43.0796 4.2730 0.8219
29.6843 -42.3563 4.5251 0.8125
58.1549 -30.0383 5.7265 0.7689
62.3921 -23.2063 5.8239 0.7655
62.4427 -14.9771 5.6180 0.7727
62.4905 -7.2003 5.5034 0.7768
49.5982 19.1249 4.6507 0.8078
9.6371 8.6258 1.1315 0.9494
5.9086 8.6487 0.9164 0.9588
3.2415 8.6651 0.8094 0.9635
1.3897 5.7461 0.5172 0.9765
1.0166 8.6788 0.7645 0.9655
-2.1790 8.6984 0.7845 0.9646
-4.6121 8.7134 0.8625 0.9612
-6.0639 8.7223 0.9294 0.9582
-16.8592 8.7887 1.6634 0.9265
-23.1110 2.7512 2.0362 0.9108
-23.1551 -33.6208 3.5715 0.8488
-5.9486 -24.1976 2.1800 0.9048
21.8118 -88.4823 7.9729 0.6936
27.9095 -40.4688 4.3009 0.8209
37.4991 -42.3744 4.9505 0.7968
46.1420 -40.9353 5.3965 0.7806
61.1234 -42.2660 6.5016 0.7420
62.3888 -23.7413 5.8402 0.7649
62.5342 -0.0978 5.4710 0.7780
61.8701 7.4052 5.4516 0.7786
58.3247 14.2612 5.2531 0.7858
50.7153 19.1180 4.7418 0.8044
9.7833 8.6249 1.1411 0.9490
5.9964 8.6370 0.9199 0.9587
4.5752 8.6569 0.8566 0.9614
3.3159 8.6647 0.8117 0.9634
16.2214 64.9308 5.8553 0.7644
1.0828 8.6784 0.7651 0.9655
-1.0237 8.6913 0.7656 0.9655
-2.1094 8.6980 0.7830 0.9647
-3.2628 8.7051 0.8133 0.9634
-5.9666 8.7217 0.9245 0.9585
-7.6690 8.7322 1.0168 0.9544
-9.7531 8.7184 1.1445 0.9488
-12.5702 8.7623 1.3406 0.9403
-65.2801 -33.7715 6.4303 0.7444
-23.4271 -33.4735 3.5745 0.8487
-17.9426 -33.6427 3.3358 0.8580
-12.2305 -31.6017 2.9646 0.8728
-8.0369 -31.6622 2.8579 0.8771
-4.0748 -31.6865 2.7950 0.8796
20.0541 -54.1223 5.0497 0.7931
21.8709 -42.4721 4.1796 0.8255
27.5366 -40.5785 4.2904 0.8213
36.7458 -42.1586 4.8928 0.7989
58.4969 -31.3397 5.8060 0.7661
62.3855 -24.2797 5.8568 0.7643
62.5313 -0.5686 5.4710 0.7780
58.3218 13.7960 5.2433 0.7861
12.7346 8.6068 1.3447 0.9401
9.9113 8.6060 1.1484 0.9487
3.3908 8.6642 0.8140 0.9633
1.1492 8.6780 0.7659 0.9655
-0.9573 8.6909 0.7650 0.9655
-2.0401 8.6976 0.7816 0.9648
-5.8703 8.7211 0.9197 0.9587
-7.5527 8.7314 1.0100 0.9547
-56.4921 51.2695 6.6744 0.7362
-12.3688 8.7611 1.3261 0.9410
-16.2502 8.7849 1.6162 0.9285
-69.8933 -16.2557 6.2781 0.7497
-23.9061 -33.6162 3.6089 0.8474
-18.2682 -33.6407 3.3491 0.8575
-2.1988 -16.1372 1.4249 0.9367
20.1776 -87.5023 7.8564 0.6973
21.3673 -42.2731 4.1440 0.8268
36.2030 -42.1732 4.8627 0.8000
45.5890 -41.6886 5.4047 0.7803
59.1802 -42.2540 6.3619 0.7468
58.4935 -31.9070 5.8294 0.7653
62.0853 -24.7027 5.8459 0.7647
62.4335 -16.4747 5.6492 0.7716
62.5750 6.5354 5.5044 0.7768
10.0789 8.6193 1.1603 0.9481
7.9273 8.6363 1.0256 0.9540
4.7427 8.6559 0.8635 0.9611
2.2971 8.6393 0.7821 0.9647
-4.3624 8.7118 0.8524 0.9616
-15.3199 23.1339 2.4275 0.8946
-9.4894 8.7434 1.1289 0.9495
-12.1718 8.7598 1.3120 0.9416
-15.9585 8.7831 1.5937 0.9295
-34.4456 -37.2439 4.4384 0.8157
-12.7795 -31.5983 2.9820 0.8721
-4.5604 -31.6835 2.8005 0.8794
19.2937 -54.5790 5.0646 0.7926
21.4878 -43.3190 4.2306 0.8235
26.0339 -39.6360 4.1488 0.8266
56.5179 -40.9991 6.1087 0.7555
61.5835 -25.0417 5.8163 0.7657
62.5255 -1.5104 5.4719 0.7779
62.5720 6.0592 5.4999 0.7769
62.2654 13.7421 5.5786 0.7741
55.7427 19.5871 5.1692 0.7888
40.6796 20.0834 3.9691 0.8335
13.1535 8.6042 1.3751 0.9388
10.2373 8.6221 1.1710 0.9477
6.2971 8.6463 0.9358 0.9580
3.5418 8.6633 0.8188 0.9631
2.3754 8.6704 0.7865 0.9645
0.2261 8.6836 0.7600 0.9657
-1.9022 8.6967 0.7789 0.9649
-4.2804 8.7113 0.8492 0.9618
-7.3246 8.7300 0.9970 0.9553
-13.0565 -31.5966 2.9911 0.8717
-4.8039 -31.6820 2.8035 0.8793
21.2244 -43.6099 4.2432 0.8230
25.5250 -39.5064 4.1150 0.8279
-14.2996 -30.5928 1.7698 0.8735
-4.8092 -24.2378 1.2950 0.9058
-3.5130 -46.6366 2.4510 0.8292
24.7250 -83.8112 4.5795 0.7047
21.9458 -50.8322 2.9017 0.8011
32.6434 -26.4243 2.2010 0.8452
58.4146 -36.6077 3.6129 0.7587
58.5182 -27.4867 3.3883 0.7719
58.4063 -19.2541 3.2230 0.7817
67.4177 2.9425 3.5366 0.7632
44.6001 19.1556 2.5439 0.8233
2.8725 8.6587 0.4781 0.9641
1.7523 8.6605 0.4631 0.9652
-0.3625 8.6812 0.4554 0.9658
-3.7206 8.7079 0.4963 0.9628
-6.5667 8.7254 0.5723 0.9572
-10.7277 8.7510 0.7255 0.9461
-13.8784 8.7703 0.8604 0.9364
-14.7573 -23.2552 1.4434 0.8955
-14.5805 -30.5911 1.7760 0.8731
-10.0298 -29.8565 1.6506 0.8815
-6.8879 -33.3954 1.7870 0.8723
3.7503 -98.7227 5.1776 0.6732
24.7351 -86.2327 4.7015 0.6981
33.5886 -79.4385 4.5201 0.7079
24.2257 -42.2412 2.5520 0.8228
40.2239 -42.1447 3.0532 0.7919
58.4108 -37.2207 3.6299 0.7577
58.5148 -28.0249 3.4002 0.7711
58.4033 -19.7420 3.2309 0.7812
67.5301 -14.0609 3.6150 0.7586
51.3890 8.1231 2.7266 0.8119
29.8505 8.5016 1.6266 0.8831
45.5292 19.1499 2.5885 0.8205
34.5311 19.7176 2.0839 0.8528
9.0755 8.6292 0.6563 0.9511
7.1306 8.6412 0.5871 0.9561
2.9453 8.6595 0.4794 0.9640
-0.2971 8.6810 0.4552 0.9658
-1.3556 8.6822 0.4605 0.9654
-2.4563 8.6865 0.4731 0.9645
-4.9549 8.7155 0.5254 0.9606
-6.4639 8.7248 0.5691 0.9574
-10.5631 8.7500 0.7188 0.9465
-13.6230 8.7532 0.8486 0.9372
-18.1914 8.7968 1.0590 0.9223
-25.8420 8.8438 1.4314 0.8964
-60.3792 -16.9508 3.2867 0.7779
-26.2399 -31.5561 2.1508 0.8484
-20.3604 -31.5569 1.9682 0.8603
-10.5971 -30.7757 1.7058 0.8778
-3.4262 -37.8619 1.9924 0.8588
24.0836 -86.4112 4.7012 0.6982
21.4961 -51.9259 2.9453 0.7984
30.5869 -41.6117 2.7065 0.8131
67.5336 -14.5931 3.6210 0.7582
35.1363 19.7139 2.1115 0.8510
11.7634 8.6127 0.7641 0.9433
5.6274 8.6504 0.5408 0.9595
-2.3854 8.6850 0.4720 0.9646
-3.5661 8.7069 0.4931 0.9630
-13.4220 8.7675 0.8402 0.9378
-17.8428 8.7947 1.0425 0.9234
-25.2093 8.8400 1.4000 0.8985
-58.8091 -42.7185 3.8093 0.7474
-26.6422 -31.5536 2.1643 0.8475
-11.8259 -33.5225 1.8630 0.8673
-7.4133 -33.3922 1.7926 0.8720
21.9998 -54.2958 3.0702 0.7908
23.9233 -43.2089 2.5884 0.8205
30.3622 -41.9644 2.7145 0.8126
39.0708 -42.1908 3.0136 0.7943
32.6186 -27.6469 2.2409 0.8426
58.3346 -38.4195 3.6606 0.7559
58.1592 -28.9392 3.4046 0.7709
51.8054 7.3910 2.7425 0.8109
31.6121 8.4907 1.7154 0.8771
47.4893 19.1379 2.6833 0.8146
35.7579 19.7101 2.1398 0.8491
11.9496 8.6116 0.7719 0.9427
5.7202 8.6499 0.5435 0.9593
3.0922 8.6613 0.4820 0.9638
1.2940 5.7265 0.3077 0.9768
0.8836 8.6721 0.4568 0.9657
-1.2220 8.6824 0.4595 0.9655
-3.4896 8.7065 0.4916 0.9631
-4.7821 8.7144 0.5209 0.9610
-6.2617 8.7235 0.5628 0.9579
-8.0276 8.7344 0.6217 0.9536
-23.3996 2.4287 1.2329 0.9101
-82.3896 -32.8424 4.6483 0.7010
-15.4353 -30.5859 1.7955 0.8718
-7.6771 -33.3906 1.7956 0.8718
23.0062 -87.6271 4.7480 0.6957
21.6992 -54.7345 3.0857 0.7899
22.9221 -42.1466 2.5144 0.8252
58.0009 -38.8290 3.6580 0.7561
58.0562 -29.4354 3.4113 0.7705
36.3964 19.7062 2.1691 0.8472
12.1397 8.6104 0.7800 0.9421
9.4932 8.6267 0.6723 0.9499
5.8139 8.6493 0.5462 0.9591
3.1663 8.6622 0.4833 0.9637
-2.2445 8.6820 0.4700 0.9647
-4.6968 8.7139 0.5188 0.9611
-6.1623 8.7229 0.5597 0.9581
-12.9865 8.7649 0.8211 0.9392
-17.1772 8.7906 1.0113 0.9256
-23.1452 2.5787 1.2205 0.9109
-21.3820 -31.5526 1.9975 0.8584
-15.7245 -30.5841 1.8023 0.8713
-12.3014 -33.2651 1.8587 0.8676
-5.8073 -24.4144 1.3152 0.9044
22.4160 -88.0745 4.7629 0.6949
22.7886 -42.6634 2.5349 0.8239
29.4920 -42.0819 2.6931 0.8140
57.9970 -39.4620 3.6763 0.7550
58.1549 -30.0383 3.4303 0.7694
67.4883 -7.7761 3.5603 0.7618
9.6371 8.6258 0.6778 0.9495
3.2408 8.6631 0.4847 0.9636
1.0156 8.6706 0.4575 0.9656
-0.0355 8.6797 0.4549 0.9658
-2.1746 8.6806 0.4690 0.9648
-3.3380 8.7055 0.4886 0.9633
-7.7869 8.7329 0.6132 0.9542
-9.9336 8.7461 0.6936 0.9484
-12.7760 8.7636 0.8119 0.9398
-23.4673 8.8293 1.3140 0.9044
-66.9442 -35.2738 3.9656 0.7385
-27.8804 -31.5460 2.2064 0.8448
-21.7292 -31.5504 2.0077 0.8577
-16.0158 -30.5823 1.8092 0.8709
-4.4417 -36.7234 1.9386 0.8623
29.0200 -42.0790 2.6789 0.8149
37.3270 -42.1800 2.9518 0.7980
46.1420 -40.9353 3.2327 0.7811
35.1244 -24.2880 2.2380 0.8428
51.1593 -19.4681 2.8687 0.8031
67.4917 -8.2922 3.5637 0.7616
67.4376 -0.1054 3.5343 0.7633
50.7153 19.1180 2.8404 0.8049
37.7275 19.6980 2.2305 0.8433
9.7833 8.6249 0.6835 0.9491
4.5752 8.6569 0.5132 0.9615
3.3157 8.6641 0.4862 0.9635
1.0817 8.6698 0.4579 0.9656
0.0299 8.6793 0.4549 0.9658
-3.2628 8.7051 0.4872 0.9634
-9.7531 8.7184 0.6856 0.9490
-12.5702 8.7623 0.8030 0.9405
-16.5503 8.7868 0.9820 0.9277
-22.9331 8.8260 1.2878 0.9063
-28.3042 -31.5434 2.2211 0.8439
-22.0797 -31.5483 2.0181 0.8571
-16.3094 -30.5805 1.8163 0.8704
-12.2922 -31.7612 1.7848 0.8725
-6.4031 -25.2258 1.3640 0.9010
-4.7181 -36.6889 1.9386 0.8623
21.4251 -57.8223 3.2317 0.7811
28.5530 -42.0762 2.6649 0.8157
36.7614 -42.1765 2.9321 0.7992
51.2610 -19.9502 2.8828 0.8023
67.4951 -8.8090 3.5673 0.7614
67.3876 7.5514 3.5537 0.7622
51.8763 19.1108 2.8973 0.8014
12.7346 8.6068 0.8055 0.9403
7.8089 8.6370 0.6102 0.9544
4.6586 8.6564 0.5152 0.9614
3.3908 8.6642 0.4876 0.9634
16.7410 64.9277 3.5140 0.7645
-0.9564 8.6825 0.4578 0.9656
-2.0359 8.6796 0.4672 0.9649
-5.8703 8.7211 0.5509 0.9588
-7.5527 8.7314 0.6050 0.9548
-54.6311 49.5805 3.8664 0.7442
-16.2502 8.7849 0.9681 0.9287
-22.4199 8.8228 1.2627 0.9080
-28.7334 -31.5408 2.2361 0.8429
-12.5042 -31.6000 1.7810 0.8727
-6.1334 -23.4222 1.2689 0.9076
20.3386 -56.1852 3.1315 0.7871
21.1866 -41.9156 2.4614 0.8285
28.4662 -42.6357 2.6867 0.8144
36.2030 -42.1731 2.9129 0.8004
45.5419 -41.6456 3.2342 0.7810
34.0322 -24.2986 2.1915 0.8458
67.5553 -17.8262 3.6616 0.7559
67.4986 -9.3268 3.5711 0.7611
67.4443 -1.1212 3.5351 0.7632
67.3909 7.0384 3.5510 0.7623
59.3156 13.5603 3.1888 0.7837
6.1797 8.6209 0.5559 0.9584
4.7427 8.6559 0.5173 0.9612
3.4661 8.6637 0.4890 0.9633
1.2144 8.6682 0.4587 0.9655
-1.9672 8.6800 0.4664 0.9650
-3.1130 8.7018 0.4843 0.9637
-4.3624 8.7118 0.5106 0.9617
-15.3199 23.1339 1.4541 0.8948
-7.4379 8.7307 0.6011 0.9551
-12.1718 8.7598 0.7859 0.9417
-15.9585 8.7831 0.9547 0.9296
-21.9262 8.8198 1.2386 0.9097
-22.7920 -31.5439 2.0395 0.8557
-6.2940 -23.3176 1.2658 0.9078
-5.0662 -35.1975 1.8636 0.8672
-1.3972 -62.7319 3.2885 0.7778
25.3061 -51.0166 2.9845 0.7960
27.6099 -42.0355 2.6357 0.8175
35.6521 -42.1697 2.8940 0.8016
45.2639 -42.0214 3.2368 0.7808
58.4899 -32.4789 3.5062 0.7649
67.1903 -18.2721 3.6492 0.7566
67.5020 -9.8458 3.5751 0.7609
67.3943 6.5262 3.5485 0.7625
62.2654 13.7421 3.3417 0.7746
10.2373 8.6221 0.7014 0.9478
8.0473 8.6356 0.6186 0.9538
6.2971 8.6463 0.5606 0.9581
3.5418 8.6633 0.4905 0.9632
-1.8986 8.6804 0.4657 0.9650
-3.0386 8.6999 0.4830 0.9638
-9.3463 8.7425 0.6707 0.9500
-11.9789 8.7587 0.7777 0.9423
-23.1524 -31.5398 2.0505 0.8549
-17.2046 -30.5750 1.8386 0.8689
-1.8685 -62.6883 3.2868 0.7779
27.6446 -80.1182 4.4417 0.7121
26.1124 -40.4154 2.5217 0.8247
-27.1965 8.8522 0.4992 0.8919
-16.4484 -35.1900 0.6780 0.8561
-6.1954 -31.2245 0.5556 0.8804
28.5214 -48.8749 0.9877 0.7974
29.6957 -39.1498 0.8577 0.8215
32.5987 -33.6444 0.8177 0.8291
32.6434 -26.4243 0.7331 0.8453
38.7904 -24.3094 0.7991 0.8327
51.9655 -24.4088 1.0021 0.7948
94.8924 -19.0138 1.6893 0.6790
48.7553 8.0835 0.8626 0.8206
11.4022 8.6150 0.2494 0.9444
8.9405 8.6301 0.2169 0.9515
7.0224 8.6419 0.1944 0.9564
1.7551 8.6742 0.1545 0.9652
0.6868 8.6808 0.1520 0.9658
-0.3628 8.6873 0.1518 0.9658
-2.5252 8.6799 0.1578 0.9645
-5.0195 8.6765 0.1750 0.9607
-6.5667 8.7254 0.1906 0.9573
-13.8604 8.7590 0.2862 0.9365
-10.0298 -29.8565 0.5499 0.8816
28.4735 -49.6479 0.9990 0.7954
38.1575 -24.3148 0.7898 0.8344
50.9516 -24.4026 0.9861 0.7977
48.9461 7.7369 0.8650 0.8202
47.8724 20.1355 0.9065 0.8124
9.0754 8.6292 0.2186 0.9511
7.1306 8.6412 0.1956 0.9562
4.1577 8.6394 0.1674 0.9624
0.7526 8.6804 0.1521 0.9657
-2.4543 8.6794 0.1574 0.9646
-4.9323 8.6758 0.1742 0.9609
-10.5631 8.7500 0.2394 0.9466
-13.6230 8.7532 0.2826 0.9373
-18.1752 8.7890 0.3524 0.9224
-25.8106 8.8331 0.4762 0.8966
-58.8480 -16.5210 1.0669 0.7831
-25.9131 -31.1631 0.7074 0.8503
-20.3603 -31.5569 0.6555 0.8605
-3.6632 -40.4814 0.7095 0.8499
24.5874 -43.6299 0.8742 0.8184
30.9760 -42.1410 0.9129 0.8112
32.5928 -34.6681 0.8306 0.8267
32.6384 -27.2440 0.7421 0.8436
37.5388 -24.3201 0.7807 0.8362
49.9696 -24.3965 0.9706 0.8005
88.5055 -19.1249 1.5805 0.6961
48.0836 19.7996 0.9077 0.8122
35.1364 19.7139 0.7032 0.8511
5.6150 8.6313 0.1797 0.9596
3.0063 8.6250 0.1594 0.9641
1.2543 5.7521 0.1028 0.9767
-0.2318 8.6865 0.1517 0.9658
-2.3837 8.6789 0.1571 0.9646
-3.5578 8.6866 0.1638 0.9631
-4.8459 8.6752 0.1734 0.9610
-6.3623 8.7241 0.1885 0.9577
-10.4014 8.7490 0.2372 0.9471
-25.1626 8.8236 0.4654 0.8988
-81.9736 7.8849 1.4375 0.7193
-58.8695 -16.0498 1.0651 0.7834
-75.4398 -30.7323 1.4219 0.7219
-26.3104 -31.1606 0.7119 0.8495
-17.5060 -35.3485 0.6885 0.8540
-11.0049 -31.1950 0.5774 0.8760
-6.9310 -31.2200 0.5582 0.8799
-3.9706 -40.4796 0.7100 0.8498
32.2893 -79.6904 1.5008 0.7089
28.4627 -51.4077 1.0257 0.7905
32.6358 -27.6615 0.7467 0.8427
36.9209 -24.3163 0.7717 0.8379
49.0180 -24.3907 0.9557 0.8033
52.1574 7.4412 0.9196 0.8100
11.9496 8.6116 0.2571 0.9428
7.3509 8.6399 0.1980 0.9556
1.2940 5.7265 0.1025 0.9768
0.8844 8.6796 0.1523 0.9657
-0.1663 8.6861 0.1516 0.9658
-1.2235 8.6926 0.1532 0.9655
-2.3135 8.6785 0.1568 0.9647
-3.4815 8.6861 0.1633 0.9633
-4.7602 8.6746 0.1727 0.9612
-24.5850 8.8295 0.4560 0.9008
-23.3400 2.4225 0.4096 0.9104
-7.1777 -31.2185 0.5591 0.8797
-4.2783 -40.4777 0.7105 0.8497
32.6332 -28.0842 0.7515 0.8418
36.3170 -24.3126 0.7629 0.8396
52.8542 -19.2070 0.9816 0.7985
32.5671 8.4849 0.5874 0.8740
50.7717 20.0176 0.9526 0.8039
36.3964 19.7062 0.7224 0.8474
9.4932 8.6267 0.2239 0.9500
3.1524 8.6242 0.1603 0.9639
0.9504 8.6792 0.1524 0.9657
-1.1567 8.6921 0.1531 0.9655
-4.6753 8.6739 0.1720 0.9613
-6.1623 8.7229 0.1864 0.9582
-17.1421 8.7727 0.3361 0.9259
-24.0240 8.8327 0.4468 0.9027
-57.3621 -14.7145 1.0337 0.7891
-27.1205 -31.1557 0.7210 0.8477
-22.6868 -33.4780 0.7059 0.8506
-18.1719 -35.3444 0.6937 0.8530
-4.5865 -40.4758 0.7110 0.8496
29.9478 -42.7322 0.9108 0.8116
35.2209 -39.2013 0.9199 0.8099
35.7267 -24.3090 0.7543 0.8412
47.1993 -24.3795 0.9273 0.8085
49.0858 -18.2571 0.9141 0.8110
52.1510 20.1092 0.9756 0.7996
12.3338 8.6092 0.2625 0.9416
9.6371 8.6258 0.2258 0.9496
7.5770 8.6385 0.2006 0.9551
5.9041 8.6422 0.1827 0.9590
4.4821 8.6376 0.1699 0.9618
3.2261 8.6238 0.1607 0.9638
1.3896 5.7460 0.1032 0.9766
1.0166 8.6788 0.1525 0.9656
-0.0355 8.6853 0.1516 0.9659
-1.0901 8.6917 0.1529 0.9656
-3.3302 8.6851 0.1624 0.9635
-4.5909 8.6733 0.1713 0.9615
-6.0639 8.7223 0.1854 0.9584
-9.9336 8.7461 0.2310 0.9484
-12.7760 8.7636 0.2704 0.9399
-23.1213 2.7524 0.4064 0.9111
-18.5086 -35.3424 0.6964 0.8525
-12.2967 -32.4977 0.6065 0.8702
-7.6738 -31.2155 0.5611 0.8793
-4.8954 -40.4739 0.7116 0.8495
29.4685 -42.7293 0.9060 0.8125
58.3247 14.2612 1.0480 0.7865
53.0331 19.9917 0.9893 0.7971
37.7275 19.6980 0.7429 0.8434
12.5321 8.6080 0.2654 0.9410
7.6922 8.6378 0.2019 0.9548
5.9964 8.6370 0.1835 0.9588
4.5647 8.6371 0.1705 0.9617
3.3002 8.6235 0.1612 0.9637
1.0828 8.6784 0.1527 0.9656
0.0299 8.6849 0.1516 0.9659
-2.1062 8.6848 0.1560 0.9649
-4.5074 8.6727 0.1706 0.9617
-7.6690 8.7322 0.2029 0.9546
-12.5702 8.7623 0.2675 0.9405
-16.5140 8.7675 0.3264 0.9279
-22.9331 8.8260 0.4289 0.9064
-23.2331 2.9433 0.4088 0.9106
-57.3134 -13.7856 1.0289 0.7899
-65.3500 -33.8077 1.2843 0.7450
-18.8479 -35.3403 0.6991 0.8519
-12.2922 -31.7612 0.5945 0.8726
-7.9231 -31.2139 0.5621 0.8791
34.1596 -39.1914 0.9075 0.8122
32.6252 -29.3857 0.7664 0.8389
34.5850 -24.3020 0.7378 0.8444
48.6977 -18.9525 0.9121 0.8114
58.3218 13.7960 1.0461 0.7868
39.3856 20.1877 0.7725 0.8377
7.8089 8.6370 0.2032 0.9545
32.2636 45.7321 0.9769 0.7994
3.3747 8.6231 0.1616 0.9636
16.7410 64.9277 1.1704 0.7647
-2.0379 8.6880 0.1558 0.9649
-4.4244 8.6721 0.1699 0.9618
-7.5527 8.7314 0.2015 0.9549
-19.1007 -35.1737 0.6986 0.8520
-12.5042 -31.6000 0.5932 0.8729
-8.1733 -31.2124 0.5632 0.8789
-2.1987 -16.1359 0.2843 0.9369
31.6549 -87.4462 1.6233 0.6893
28.5163 -42.7107 0.8964 0.8143
32.6225 -29.8314 0.7716 0.8379
34.0322 -24.2986 0.7299 0.8460
59.3156 13.5603 1.0621 0.7839
54.4511 19.5950 1.0101 0.7933
10.0789 8.6193 0.2315 0.9483
7.9273 8.6363 0.2046 0.9542
4.7319 8.6362 0.1719 0.9614
-1.9697 8.6912 0.1556 0.9650
-3.1065 8.6837 0.1610 0.9638
-7.4379 8.7307 0.2002 0.9552
-12.1718 8.7598 0.2618 0.9418
-15.9212 8.7626 0.3172 0.9299
-21.9262 8.8198 0.4125 0.9098
-64.3496 -32.0709 1.2550 0.7500
-19.3061 -34.9225 0.6965 0.8525
-12.7795 -31.5983 0.5949 0.8725
-5.3557 -37.2086 0.6562 0.8604
-1.9063 -85.5933 1.4944 0.7100
43.4102 -87.5142 1.7052 0.6765
28.5121 -43.4090 0.9065 0.8124
33.1260 -39.1818 0.8956 0.8144
33.4915 -24.2953 0.7222 0.8474
48.2809 -19.6325 0.9097 0.8118
91.0870 -24.7707 1.6477 0.6855
89.0012 8.6185 1.5608 0.6993
61.3837 13.5476 1.0972 0.7776
40.6796 20.0834 0.7919 0.8340
10.2373 8.6221 0.2336 0.9479
4.8166 8.6357 0.1726 0.9612
2.3639 8.6285 0.1562 0.9648
1.2823 8.6771 0.1531 0.9655
-0.8250 8.6901 0.1524 0.9657
-1.9017 8.6944 0.1553 0.9650
-3.0327 8.6832 0.1605 0.9639
-21.4130 8.8012 0.4041 0.9115
-39.7476 -8.6156 0.7099 0.8498
-64.7272 -31.6529 1.2577 0.7496
-82.3050 -53.3973 1.7125 0.6754
-19.3976 -34.4723 0.6904 0.8536
-5.3436 -35.2412 0.6222 0.8671
-1.8849 -63.2386 1.1043 0.7764
30.1699 -87.4371 1.6145 0.6907
28.4861 -44.0893 0.9163 0.8106
-27.1965 8.8522 -0.4992 0.8919
-56.2420 11.0493 -1.0005 0.7951
-88.9324 -4.2170 -1.5541 0.7003
-74.8561 -32.4849 -1.4243 0.7215
-61.3007 -35.9275 -1.2402 0.7526
-63.7289 -48.5285 -1.3982 0.7258
-17.3550 -21.5223 -0.4826 0.8953
-9.1274 -19.5274 -0.3762 0.9174
-8.3640 -25.5331 -0.4690 0.8981
-1.6982 -22.5438 -0.3946 0.9135
36.6548 -84.9024 -1.6142 0.6908
29.5322 -38.9343 -0.8530 0.8224
32.6434 -26.4243 -0.7331 0.8453
38.8200 -24.3280 -0.7997 0.8325
75.0851 3.2771 -1.3119 0.7403
8.9405 8.6301 -0.2169 0.9515
7.0224 8.6419 -0.1944 0.9564
4.0653 8.6128 -0.1662 0.9626
1.7551 8.6742 -0.1545 0.9652
0.6868 8.6808 -0.1520 0.9658
-3.7025 8.6656 -0.1645 0.9630
-4.9922 8.6293 -0.1740 0.9609
-13.8604 8.7590 -0.2862 0.9365
-18.4643 8.7579 -0.3567 0.9215
-88.7465 18.1303 -1.5811 0.6960
-74.8036 -12.1130 -1.3227 0.7385
-59.0007 -17.0441 -1.0720 0.7822
-63.5904 -47.6710 -1.3872 0.7276
-9.2752 -19.4603 -0.3763 0.9174
-6.6070 -19.6676 -0.3622 0.9203
-1.8552 -22.3773 -0.3919 0.9141
35.8943 -84.8916 -1.6088 0.6916
29.0054 -38.8438 -0.8462 0.8237
32.5959 -34.1524 -0.8241 0.8279
32.6409 -26.8316 -0.7375 0.8445
72.9576 -24.6617 -1.3443 0.7348
75.2049 2.7151 -1.3136 0.7400
50.2083 7.9364 -0.8873 0.8160
29.8505 8.5016 -0.5418 0.8832
34.5312 19.7176 -0.6941 0.8529
11.5810 8.6139 -0.2519 0.9439
9.0754 8.6292 -0.2186 0.9511
7.1306 8.6412 -0.1956 0.9562
5.5184 8.6241 -0.1787 0.9599
4.1468 8.6166 -0.1669 0.9625
2.9192 8.5828 -0.1582 0.9644
0.7526 8.6804 -0.1521 0.9657
-4.9056 8.6288 -0.1733 0.9611
-6.4639 8.7248 -0.1895 0.9575
-8.2751 8.7359 -0.2100 0.9530
-18.1421 8.7730 -0.3518 0.9225
-56.4998 5.0056 -0.9901 0.7970
-88.9239 -2.8752 -1.5530 0.7005
-74.7764 -11.5316 -1.3206 0.7388
-59.0954 -16.5904 -1.0714 0.7823
-74.8966 -31.1706 -1.4160 0.7229
-58.6335 -43.2691 -1.2720 0.7471
-18.4843 -22.2292 -0.5046 0.8908
-12.9996 -20.1485 -0.4185 0.9085
-9.5013 -19.5542 -0.3795 0.9167
-6.7850 -19.7047 -0.3638 0.9200
36.2122 -87.4742 -1.6525 0.6847
24.5856 -43.6267 -0.8741 0.8185
32.5928 -34.6681 -0.8306 0.8267
32.6384 -27.2440 -0.7421 0.8436
70.9986 -24.5968 -1.3115 0.7404
58.9479 -12.7379 -1.0527 0.7856
49.5826 7.4553 -0.8752 0.8182
30.7078 8.4963 -0.5561 0.8803
44.0825 18.1521 -0.8321 0.8264
4.2270 8.6167 -0.1675 0.9623
2.9914 8.5823 -0.1586 0.9643
0.8184 8.6800 -0.1522 0.9657
-1.2904 8.6930 -0.1534 0.9655
-3.5488 8.6647 -0.1634 0.9632
-8.1505 8.7351 -0.2085 0.9533
-10.4014 8.7490 -0.2372 0.9471
-13.4220 8.7675 -0.2798 0.9379
-25.2093 8.8400 -0.4663 0.8986
-56.4972 5.4344 -0.9907 0.7969
-88.9197 -2.2050 -1.5526 0.7006
-60.2603 -33.5124 -1.2035 0.7589
-19.2054 -22.7458 -0.5196 0.8877
-9.6751 -19.5364 -0.3805 0.9165
-6.9200 -19.6159 -0.3631 0.9202
-7.4481 -33.5493 -0.5999 0.8715
2.2593 -98.6003 -1.7215 0.6740
32.2338 -79.5534 -1.4983 0.7094
24.2813 -43.8555 -0.8750 0.8183
32.5895 -35.1919 -0.8372 0.8254
36.9209 -24.3163 -0.7717 0.8379
49.0180 -24.3907 -0.9557 0.8033
58.7608 -13.1613 -1.0511 0.7859
35.7580 19.7101 -0.7127 0.8493
11.9496 8.6116 -0.2571 0.9428
7.3509 8.6399 -0.1980 0.9556
3.0638 8.5818 -0.1591 0.9642
1.2940 5.7264 -0.1025 0.9768
-0.1663 8.6861 -0.1516 0.9658
-6.2617 8.7235 -0.1874 0.9580
-8.0276 8.7344 -0.2071 0.9536
-17.2863 8.6828 -0.3377 0.9255
-24.6039 8.8362 -0.4563 0.9007
-23.2808 2.4164 -0.4085 0.9106
-88.9155 -1.5350 -1.5522 0.7006
-75.0438 -29.9142 -1.4101 0.7238
-63.9834 -34.9547 -1.2726 0.7470
-59.4400 -54.4244 -1.4067 0.7244
-13.3998 -20.0977 -0.4216 0.9079
-7.0908 -19.6277 -0.3643 0.9199
-4.7438 -20.6327 -0.3695 0.9188
-2.3166 -21.9178 -0.3847 0.9156
0.4428 -28.7888 -0.5026 0.8912
32.5863 -35.7242 -0.8440 0.8241
32.6332 -28.0842 -0.7515 0.8418
48.0952 -24.3850 -0.9412 0.8060
12.1397 8.6104 -0.2598 0.9422
9.4932 8.6267 -0.2239 0.9500
7.4632 8.6392 -0.1993 0.9554
5.8061 8.6376 -0.1817 0.9592
0.9504 8.6792 -0.1524 0.9657
-4.6503 8.6276 -0.1711 0.9615
-7.9065 8.7336 -0.2056 0.9540
-10.0868 8.7470 -0.2330 0.9480
-12.9865 8.7649 -0.2735 0.9392
-16.9640 8.6815 -0.3326 0.9266
-74.7665 -9.8066 -1.3162 0.7396
-57.1720 -14.6657 -1.0302 0.7897
-74.7924 -29.1633 -1.4012 0.7253
-20.0650 -23.0504 -0.5334 0.8849
-13.6914 -20.2039 -0.4260 0.9070
-10.0848 -19.6151 -0.3850 0.9155
-4.5865 -40.4758 -0.7110 0.8496
28.4513 -53.2646 -1.0541 0.7854
23.3255 -33.2830 -0.7094 0.8499
34.9495 -38.8992 -0.9128 0.8112
47.1993 -24.3795 -0.9273 0.8085
49.4453 -18.3908 -0.9208 0.8097
58.7783 14.8420 -1.0582 0.7846
51.6882 19.9308 -0.9670 0.8012
37.0528 19.7021 -0.7325 0.8454
12.3338 8.6092 -0.2625 0.9416
9.6371 8.6258 -0.2258 0.9496
7.5770 8.6385 -0.2006 0.9551
5.9041 8.6422 -0.1827 0.9590
4.4704 8.6150 -0.1694 0.9619
-1.0901 8.6917 -0.1529 0.9656
-3.3218 8.6634 -0.1620 0.9636
-23.4673 8.8293 -0.4377 0.9046
-88.7696 21.6453 -1.5949 0.6938
-23.1264 2.7530 -0.4065 0.9110
-88.9071 -0.1958 -1.5519 0.7007
-57.1433 -14.2006 -1.0278 0.7901
-59.3258 -31.2596 -1.1705 0.7647
-62.7637 -43.4600 -1.3325 0.7368
-20.5910 -23.2984 -0.5427 0.8830
-13.7985 -20.0352 -0.4246 0.9073
-10.3560 -19.7750 -0.3896 0.9146
-5.0581 -20.5753 -0.3698 0.9187
-2.6279 -21.7267 -0.3820 0.9162
28.4453 -54.2321 -1.0689 0.7827
24.1058 -34.9533 -0.7411 0.8438
32.6279 -28.9462 -0.7613 0.8399
35.1496 -24.3054 -0.7459 0.8429
46.3306 -24.3742 -0.9138 0.8110
50.0427 -19.0432 -0.9346 0.8072
58.3454 14.2662 -1.0484 0.7864
52.8174 19.9104 -0.9853 0.7979
37.7275 19.6980 -0.7429 0.8434
12.5321 8.6080 -0.2654 0.9410
9.7833 8.6249 -0.2277 0.9492
7.6922 8.6378 -0.2019 0.9548
5.9964 8.6370 -0.1835 0.9588
16.1466 64.6314 -1.1628 0.7660
0.0299 8.6849 -0.1516 0.9659
-1.0237 8.6913 -0.1528 0.9656
-5.9666 8.7217 -0.1845 0.9586
-9.7531 8.7184 -0.2283 0.9490
-12.5702 8.7623 -0.2675 0.9405
-22.9331 8.8260 -0.4289 0.9064
-23.2589 2.9465 -0.4092 0.9105
-74.8345 -8.6714 -1.3150 0.7398
-57.1148 -13.7378 -1.0254 0.7906
-74.8398 -27.8910 -1.3941 0.7265
-58.6157 -51.2841 -1.3595 0.7323
-7.5048 -19.3913 -0.3629 0.9202
-5.2148 -20.5443 -0.3700 0.9187
-2.8085 -21.8392 -0.3843 0.9157
-0.1950 -27.0464 -0.4721 0.8974
27.4040 -53.2171 -1.0442 0.7870
24.0907 -35.5004 -0.7489 0.8423
33.9715 -38.9757 -0.9025 0.8131
34.5850 -24.3020 -0.7378 0.8444
50.0400 -19.4750 -0.9373 0.8067
49.2701 -12.6052 -0.8877 0.8159
39.3856 20.1878 -0.7725 0.8377
13.4871 9.1153 -0.2841 0.9370
9.9113 8.6060 -0.2291 0.9488
25.6740 36.3916 -0.7774 0.8368
4.6358 8.6139 -0.1707 0.9616
3.3577 8.5797 -0.1608 0.9638
1.1492 8.6780 -0.1528 0.9656
0.0953 8.6845 -0.1516 0.9659
-2.0379 8.6880 -0.1558 0.9649
-3.1727 8.6626 -0.1610 0.9638
-7.5527 8.7314 -0.2015 0.9549
-12.3688 8.7611 -0.2646 0.9412
-22.4199 8.8228 -0.4205 0.9081
-51.7232 13.4403 -0.9328 0.8075
-88.8987 1.1430 -1.5519 0.7007
-74.7961 -8.0967 -1.3132 0.7401
-58.9648 -29.9435 -1.1543 0.7675
-59.3636 -51.1545 -1.3678 0.7309
-22.9154 -25.1543 -0.5939 0.8727
-14.5259 -20.4260 -0.4375 0.9046
-10.7404 -19.7784 -0.3929 0.9139
-12.5042 -31.6000 -0.5932 0.8729
-5.4016 -20.6276 -0.3722 0.9182
-2.1986 -16.1358 -0.2843 0.9369
-0.3870 -26.2576 -0.4584 0.9003
29.1886 -80.6332 -1.4968 0.7096
27.4472 -54.3017 -1.0620 0.7839
27.7726 -41.5968 -0.8730 0.8187
33.4541 -38.9708 -0.8965 0.8143
32.6225 -29.8314 -0.7716 0.8379
34.0322 -24.2986 -0.7299 0.8460
50.0373 -19.9090 -0.9400 0.8062
48.2317 -12.7271 -0.8707 0.8191
59.3156 13.5603 -1.0621 0.7839
54.4511 19.5950 -1.0101 0.7933
40.1181 20.1832 -0.7839 0.8356
13.5583 9.0155 -0.2842 0.9369
7.9273 8.6363 -0.2046 0.9542
3.4338 8.5832 -0.1614 0.9637
1.2157 8.6776 -0.1529 0.9656
0.1607 8.6840 -0.1516 0.9658
-0.8911 8.6905 -0.1525 0.9657
-3.0988 8.6621 -0.1606 0.9639
-4.3249 8.6371 -0.1686 0.9621
-15.3199 23.1339 -0.4843 0.8949
-7.4379 8.7307 -0.2002 0.9552
-21.9262 8.8198 -0.4125 0.9098
-51.7200 13.8560 -0.9346 0.8072
-55.0502 7.8179 -0.9705 0.8006
-57.7479 -12.9732 -1.0331 0.7892
-64.6505 -32.2209 -1.2609 0.7490
-24.3713 -26.3511 -0.6265 0.8662
-14.7403 -20.4005 -0.4393 0.9042
-10.8232 -19.5780 -0.3905 0.9144
-7.8418 -19.3895 -0.3651 0.9197
-5.5055 -20.3967 -0.3688 0.9190
-0.5747 -25.8027 -0.4505 0.9019
24.0459 -36.6094 -0.7645 0.8393
32.6197 -30.2830 -0.7769 0.8369
33.4915 -24.2953 -0.7222 0.8474
43.8463 -24.3474 -0.8754 0.8182
50.0347 -20.3456 -0.9428 0.8057
48.0628 -13.0704 -0.8694 0.8193
95.8077 9.2776 -1.6801 0.6804
62.2654 13.7421 -1.1130 0.7748
55.7428 19.5871 -1.0313 0.7895
13.6296 8.9156 -0.2843 0.9369
10.2373 8.6221 -0.2336 0.9479
6.2971 8.6463 -0.1867 0.9581
4.8038 8.6128 -0.1721 0.9613
3.5105 8.5868 -0.1619 0.9636
-0.8250 8.6901 -0.1524 0.9657
-3.0253 8.6617 -0.1601 0.9640
-15.4631 23.7364 -0.4945 0.8929
-7.3246 8.7300 -0.1989 0.9554
-9.3463 8.7425 -0.2234 0.9501
-15.5753 8.7257 -0.3116 0.9311
-29.5295 8.1500 -0.5347 0.8847
-55.0475 8.2411 -0.9716 0.8004
-74.8270 -6.9615 -1.3117 0.7403
-39.7745 -8.6214 -0.7104 0.8497
-61.0781 -65.0506 -1.5575 0.6998
-15.1514 -20.6403 -0.4469 0.9026
-11.1698 -19.8505 -0.3976 0.9129
-7.9886 -19.3324 -0.3651 0.9197
-5.3436 -35.2412 -0.6222 0.8671
-0.7341 -24.6292 -0.4301 0.9061
23.0791 -47.4206 -0.9208 0.8098
-45.1016 3.3120 -2.3700 0.8343
-44.0529 -7.4744 -2.3417 0.8361
-42.9702 -12.7646 -2.3492 0.8356
-41.1789 -24.1343 -2.5014 0.8260
-37.9738 -28.9164 -2.5014 0.8260
-8.9403 -19.1273 -1.1065 0.9189
-6.4544 -19.7036 -1.0866 0.9203
-4.1335 -20.8326 -1.1131 0.9184
7.8956 -47.0725 -2.5014 0.8260
13.5054 -45.7796 -2.5014 0.8260
22.5930 -38.7159 -2.3492 0.8356
27.0898 -35.7143 -2.3492 0.8356
46.7999 -9.3774 -2.5014 0.8260
47.5884 -3.6749 -2.5014 0.8260
11.4022 8.6150 -0.7489 0.9444
8.9405 8.6301 -0.6512 0.9514
4.0546 8.5901 -0.4978 0.9627
2.8335 8.5411 -0.4716 0.9646
1.7551 8.6742 -0.4638 0.9652
0.6868 8.6808 -0.4564 0.9657
-0.3628 8.6873 -0.4557 0.9658
-2.5209 8.6653 -0.4730 0.9645
-4.9656 8.5833 -0.5197 0.9611
-8.4016 8.7367 -0.6352 0.9526
-10.7277 8.7510 -0.7255 0.9461
-18.4441 8.7483 -1.0698 0.9215
-45.0837 3.6522 -2.3705 0.8343
-45.0535 -1.7964 -2.3630 0.8348
-44.0371 -7.1310 -2.3379 0.8364
-43.0651 -12.4406 -2.3492 0.8356
-43.9268 -18.6709 -2.5014 0.8260
-6.5248 -19.4230 -1.0738 0.9212
-4.2550 -20.6297 -1.1039 0.9191
1.7017 -44.7937 -2.3492 0.8356
7.5409 -47.1306 -2.5014 0.8260
13.1603 -45.8800 -2.5014 0.8260
18.5882 -43.9619 -2.5014 0.8260
26.8201 -35.9173 -2.3492 0.8356
30.9492 -32.4271 -2.3492 0.8356
32.5366 -26.7458 -2.2073 0.8448
44.2762 6.9988 -2.3492 0.8356
29.8505 8.5016 -1.6266 0.8831
27.9390 15.9534 -1.6861 0.8791
2.9048 8.5405 -0.4728 0.9645
-1.3574 8.6934 -0.4611 0.9654
-2.4512 8.6686 -0.4721 0.9646
-6.4639 8.7248 -0.5691 0.9574
-13.6230 8.7532 -0.8486 0.9372
-18.1298 8.7671 -1.0554 0.9225
-24.0991 8.2474 -1.3349 0.9030
-44.5118 9.4431 -2.3847 0.8334
-45.0630 3.9923 -2.3709 0.8343
-43.3780 -6.6895 -2.3002 0.8388
-43.1575 -12.1160 -2.3492 0.8356
-44.0662 -18.3395 -2.5014 0.8260
-34.7135 -32.7588 -2.5014 0.8260
-18.2853 -21.9899 -1.4988 0.8918
-9.3954 -19.3362 -1.1267 0.9175
-6.7127 -19.4949 -1.0806 0.9207
7.1859 -47.1861 -2.5014 0.8260
18.2566 -44.1006 -2.5014 0.8260
22.4535 -39.8434 -2.3968 0.8326
26.5489 -36.1182 -2.3492 0.8356
37.3755 -24.2143 -2.3339 0.8366
40.2814 -19.6665 -2.3492 0.8356
39.6787 -13.7463 -2.2007 0.8452
47.7107 1.3629 -2.5014 0.8260
44.3277 6.6652 -2.3492 0.8356
20.8475 8.5845 -1.1816 0.9137
11.7634 8.6127 -0.7641 0.9433
9.2125 8.6284 -0.6615 0.9507
7.2401 8.6405 -0.5908 0.9559
5.6132 8.6286 -0.5395 0.9596
2.9768 8.5406 -0.4740 0.9644
1.2543 5.7520 -0.3085 0.9767
-4.7991 8.5915 -0.5157 0.9613
-6.3623 8.7241 -0.5659 0.9577
-13.4220 8.7675 -0.8402 0.9378
-43.2475 -11.7907 -2.3492 0.8356
-44.2030 -18.0072 -2.5014 0.8260
-34.9592 -32.4965 -2.5014 0.8260
0.8564 -37.3762 -1.9593 0.8609
17.9240 -44.2368 -2.5014 0.8260
36.7602 -24.2105 -2.3068 0.8384
42.2445 -14.9924 -2.3492 0.8356
46.5761 -10.4321 -2.5014 0.8260
47.4933 -4.7488 -2.5014 0.8260
47.7196 1.0036 -2.5014 0.8260
21.2683 8.5710 -1.2017 0.9122
11.9496 8.6116 -0.7719 0.9427
9.3517 8.6276 -0.6668 0.9503
7.3509 8.6399 -0.5945 0.9556
5.7091 8.6331 -0.5424 0.9594
4.2963 8.5938 -0.5035 0.9622
0.8844 8.6796 -0.4572 0.9657
-3.4640 8.6425 -0.4880 0.9634
-4.7168 8.5955 -0.5138 0.9615
-6.2617 8.7235 -0.5628 0.9579
-8.0276 8.7344 -0.6217 0.9536
-13.2017 8.7662 -0.8305 0.9385
-17.1325 8.6055 -1.0048 0.9261
-44.3875 10.1176 -2.3859 0.8333
-23.2219 2.4103 -1.2235 0.9107
-43.3350 -11.4647 -2.3492 0.8356
-44.3373 -17.6739 -2.5014 0.8260
-38.8273 -27.7597 -2.5014 0.8260
-35.2028 -32.2324 -2.5014 0.8260
-9.7351 -19.2909 -1.1324 0.9171
-4.6891 -20.3947 -1.0967 0.9196
0.4336 -28.1889 -1.4775 0.8932
6.4744 -47.2890 -2.5014 0.8260
12.1206 -46.1655 -2.5014 0.8260
26.0020 -36.5139 -2.3492 0.8356
39.9807 -20.2709 -2.3492 0.8356
42.1304 -15.3100 -2.3492 0.8356
47.7258 0.6442 -2.5014 0.8260
32.5671 8.4849 -1.7637 0.8739
3.1243 8.5474 -0.4769 0.9642
1.3385 5.7228 -0.3080 0.9767
0.9504 8.6792 -0.4576 0.9656
