ply
format ascii 1.0
element vertex 1561
property float32 x
property float32 y
property float32 z
property float32 I
end_header
68.6658 -2.5645 3.6011 0.7594
65.3327 13.5258 3.4966 0.7655
58.4018 19.6707 3.2297 0.7813
42.2268 20.1703 2.4525 0.8291
8.2553 8.6343 0.6261 0.9533
4.9724 8.6545 0.5231 0.9608
1.3920 8.6657 0.4600 0.9655
0.3346 8.6771 0.4551 0.9658
-1.7862 8.6807 0.4645 0.9651
-2.9176 8.6971 0.4808 0.9639
-4.1478 8.7105 0.5056 0.9621
-5.5291 8.7190 0.5411 0.9595
-7.1441 8.7289 0.5911 0.9558
-11.6773 8.7568 0.7649 0.9432
-23.7089 -31.5365 2.0677 0.8538
-13.4970 -23.3607 1.4139 0.8976
-13.0523 -30.6005 1.7435 0.8752
-9.6862 -33.3783 1.8214 0.8700
-2.3260 -56.7547 2.9769 0.7965
27.9717 -84.0550 4.6426 0.7013
25.2681 -53.3970 3.0959 0.7893
26.0372 -41.2795 2.5578 0.8224
33.2181 -40.7882 2.7568 0.8100
42.5332 -40.9631 3.0947 0.7894
33.8590 -25.5191 2.2220 0.8438
59.2925 -25.3754 3.3800 0.7723
66.8454 -19.4858 3.6490 0.7566
68.2493 13.7854 3.6490 0.7566
42.7511 20.1670 2.4773 0.8275
10.6104 8.6198 0.7164 0.9467
8.3353 8.6338 0.6289 0.9531
5.0280 8.6541 0.5245 0.9607
2.4664 5.7437 0.3276 0.9753
0.3767 8.6767 0.4552 0.9658
-0.6723 8.6734 0.4559 0.9658
-1.7425 8.6809 0.4640 0.9652
-4.0960 8.7102 0.5044 0.9622
-5.4699 8.7186 0.5394 0.9596
-9.0317 8.7405 0.6587 0.9509
-15.0658 8.7776 0.9138 0.9325
-20.4210 8.7981 1.1653 0.9148
-23.9477 -31.5350 2.0752 0.8533
-13.2273 -30.5994 1.7471 0.8750
-8.8230 -29.8629 1.6319 0.8827
-5.6150 -33.4032 1.7751 0.8731
24.0396 -51.4438 2.9759 0.7966
25.6279 -41.0699 2.5371 0.8237
32.8894 -40.7862 2.7459 0.8107
59.7393 -25.9095 3.4126 0.7704
66.7503 -19.8093 3.6490 0.7566
68.2593 -11.5591 3.6282 0.7578
68.6158 5.0679 3.6058 0.7591
67.8772 13.3685 3.6256 0.7580
26.2276 8.5520 1.4458 0.8954
43.2861 20.1637 2.5026 0.8259
8.4159 8.6333 0.6319 0.9529
6.5977 8.6445 0.5699 0.9574
5.0840 8.6538 0.5260 0.9606
2.4915 5.7255 0.3272 0.9753
2.5802 8.6559 0.4734 0.9645
1.4780 8.6645 0.4606 0.9654
0.4187 8.6764 0.4552 0.9658
-0.6294 8.6645 0.4553 0.9658
-1.6988 8.6811 0.4636 0.9652
-2.8235 8.6949 0.4791 0.9640
-4.0445 8.7099 0.5033 0.9623
-11.4428 8.7554 0.7551 0.9439
-14.8977 8.7766 0.9062 0.9331
-21.9995 -22.4588 1.6476 0.8817
-24.1881 -31.5335 2.0828 0.8528
-18.0593 -30.5698 1.8608 0.8674
-5.7813 -33.4022 1.7766 0.8730
35.4070 -76.7358 4.4290 0.7128
32.5631 -40.7842 2.7351 0.8114
42.0170 -41.2576 3.0861 0.7899
33.8406 -26.0229 2.2373 0.8428
59.3349 -35.1493 3.6144 0.7586
68.7282 -11.9811 3.6562 0.7562
30.0670 5.7707 1.6045 0.8846
26.5704 8.5217 1.4624 0.8943
43.8319 20.1604 2.5285 0.8243
13.9681 8.5992 0.8596 0.9364
6.6638 8.6441 0.5720 0.9572
2.5203 5.7160 0.3274 0.9753
-1.6552 8.6812 0.4632 0.9652
-2.7767 8.6938 0.4783 0.9641
-3.9932 8.7096 0.5021 0.9623
-6.9338 8.7276 0.5842 0.9563
-8.8573 8.7395 0.6521 0.9514
-14.7324 8.7756 0.8987 0.9336
-24.4304 -31.5320 2.0905 0.8523
-13.5795 -30.5973 1.7544 0.8745
-9.7140 -31.7438 1.7398 0.8755
-0.8995 -16.1942 0.8500 0.9371
3.8389 -58.7463 3.0855 0.7899
41.8683 -41.5116 3.0899 0.7897
33.8435 -26.2868 2.2458 0.8423
59.7350 -26.5979 3.4269 0.7696
66.5553 -20.4547 3.6490 0.7566
27.0109 8.5190 1.4843 0.8928
44.2461 20.0920 2.5467 0.8231
10.9286 8.6179 0.7294 0.9458
8.5795 8.6323 0.6378 0.9524
2.5535 5.7162 0.3281 0.9752
1.5643 8.6632 0.4614 0.9654
-2.7301 8.6927 0.4775 0.9642
-3.9421 8.7093 0.5010 0.9624
-8.7715 8.7389 0.6489 0.9516
-14.5698 8.7746 0.8914 0.9341
-19.6485 8.8058 1.1284 0.9174
-10.3897 -33.3740 1.8318 0.8694
-4.4778 -24.4592 1.3032 0.9052
-0.9751 -16.1441 0.8476 0.9373
26.0700 -83.7186 4.5953 0.7038
25.1092 -41.5709 2.5452 0.8232
32.1252 -41.0444 2.7316 0.8116
41.7192 -41.7662 3.0938 0.7894
33.8508 -26.5562 2.2548 0.8417
59.7329 -26.9441 3.4342 0.7691
59.0123 -18.4496 3.2403 0.7806
52.9897 9.6390 2.8226 0.8060
27.4652 8.5162 1.5070 0.8912
44.2865 19.8520 2.5435 0.8233
14.2728 8.5973 0.8732 0.9354
8.6624 8.6318 0.6409 0.9522
6.7976 8.6432 0.5763 0.9569
2.5952 5.7348 0.3299 0.9751
1.6075 8.6626 0.4617 0.9653
0.5451 8.6753 0.4555 0.9658
-3.8913 8.7089 0.4999 0.9625
-5.2365 8.7172 0.5329 0.9601
-6.7964 8.7268 0.5797 0.9567
-11.1022 8.7533 0.7409 0.9449
-19.3929 8.8042 1.1162 0.9182
-24.9202 -31.5291 2.1062 0.8513
-13.9346 -30.5951 1.7619 0.8740
26.3467 -86.0724 4.7175 0.6973
25.2934 -42.3381 2.5846 0.8207
31.9851 -41.2759 2.7366 0.8113
41.5332 -41.9848 3.0950 0.7893
53.6038 -42.4734 3.5843 0.7604
59.5967 -36.4839 3.6621 0.7559
59.7308 -27.2919 3.4416 0.7687
68.6790 -4.5655 3.6073 0.7590
68.6245 3.7340 3.6018 0.7594
27.9332 8.5134 1.5304 0.8896
14.4289 8.5963 0.8802 0.9349
11.1232 8.5980 0.7368 0.9452
8.7463 8.6313 0.6440 0.9520
6.8653 8.6428 0.5785 0.9568
5.3112 8.6524 0.5321 0.9602
3.9699 8.6606 0.4993 0.9626
1.6508 8.6619 0.4621 0.9653
-0.4602 8.6506 0.4540 0.9659
-1.5250 8.6816 0.4620 0.9653
-2.6372 8.6906 0.4760 0.9643
-5.1790 8.7169 0.5314 0.9602
-10.9914 8.7526 0.7364 0.9453
-14.2526 8.7726 0.8771 0.9352
-19.1428 8.8027 1.1042 0.9191
-27.6168 8.8548 1.5199 0.8903
-25.1682 -31.5275 2.1142 0.8508
-19.4799 -31.5624 1.9438 0.8619
-14.1133 -30.5940 1.7657 0.8738
-9.3271 -28.9694 1.5950 0.8852
-6.4490 -33.3981 1.7827 0.8726
-2.5874 -36.8976 1.9385 0.8623
5.0126 -98.7296 5.1809 0.6730
25.9397 -86.2322 4.7193 0.6972
23.7775 -54.2705 3.1052 0.7887
25.8082 -43.6785 2.6588 0.8161
31.8446 -41.5081 2.7418 0.8109
59.5943 -36.8805 3.6729 0.7552
68.3488 -13.2835 3.6490 0.7566
68.6812 -4.8997 3.6086 0.7590
44.4419 19.4072 2.5415 0.8235
14.5873 8.5954 0.8873 0.9344
14.6708 11.2271 0.9682 0.9287
8.8308 8.6308 0.6471 0.9517
6.9335 8.6424 0.5807 0.9566
2.8108 8.6582 0.4771 0.9642
1.6942 8.6613 0.4625 0.9653
-1.4817 8.6817 0.4616 0.9653
-3.7903 8.7083 0.4977 0.9627
-5.1219 8.7165 0.5298 0.9603
-10.8820 8.7519 0.7319 0.9456
-14.0975 8.7717 0.8702 0.9357
-18.8977 8.8012 1.0925 0.9199
-27.1548 8.8519 1.4968 0.8919
-25.4178 -31.5260 2.1223 0.8503
-14.2930 -30.5929 1.7697 0.8735
-10.9743 -33.5277 1.8488 0.8682
25.4840 -86.2280 4.7122 0.6976
25.9701 -44.4425 2.6976 0.8137
31.7036 -41.7411 2.7470 0.8106
59.6156 -19.5933 3.2887 0.7777
68.2836 -13.6146 3.6490 0.7566
68.6834 -5.2344 3.6100 0.7589
68.6288 3.0682 3.6003 0.7594
52.3801 8.7443 2.7831 0.8084
44.4533 19.1565 2.5368 0.8238
14.7484 8.5944 0.8946 0.9339
8.9162 8.6302 0.6503 0.9515
5.4269 8.6517 0.5352 0.9599
4.0715 8.6600 0.5015 0.9624
2.8574 8.6587 0.4779 0.9641
1.7377 8.6606 0.4629 0.9652
-0.3775 8.6811 0.4554 0.9658
-1.4385 8.6818 0.4612 0.9654
-2.5450 8.6886 0.4745 0.9644
-6.5941 8.7256 0.5732 0.9571
-10.7740 8.7513 0.7274 0.9459
-13.9451 8.7707 0.8634 0.9361
-26.7069 8.8492 1.4745 0.8934
56.3335 19.5834 1.0410 0.7877
41.2092 20.1765 0.8009 0.8323
13.2460 8.6036 0.2757 0.9388
8.0977 8.6353 0.2066 0.9537
6.3240 8.6274 0.1867 0.9581
3.5549 8.6221 0.1628 0.9634
2.4027 8.6703 0.1570 0.9646
0.1711 5.9269 0.1035 0.9766
-0.7999 8.6818 0.1522 0.9657
-1.8729 8.6757 0.1549 0.9651
-2.9995 8.6620 0.1600 0.9640
-7.2871 8.7298 0.1985 0.9555
-11.9180 8.7583 0.2582 0.9425
-22.9725 -31.1811 0.6760 0.8565
-17.8820 -31.6539 0.6346 0.8646
-10.5121 -25.3219 0.4786 0.8961
-7.9293 -28.3468 0.5138 0.8889
-4.7848 -31.2332 0.5515 0.8813
-2.0838 -66.6003 1.1631 0.7660
31.0117 -90.2636 1.6659 0.6826
42.4520 -87.5085 1.6977 0.6777
29.7069 -46.1021 0.9573 0.8030
24.4019 -29.3773 0.6666 0.8583
33.8635 -25.0121 0.7348 0.8450
89.8834 7.9528 1.5750 0.6970
41.7131 20.1734 0.8088 0.8308
13.3861 8.6028 0.2777 0.9383
6.3882 8.6271 0.1874 0.9580
3.6038 8.6219 0.1631 0.9633
2.4479 8.6700 0.1573 0.9646
0.2927 8.6832 0.1517 0.9658
-1.8289 8.6754 0.1548 0.9652
-2.9525 8.6617 0.1597 0.9641
-11.7968 8.7575 0.2565 0.9429
-15.3726 8.7581 0.3088 0.9317
-73.9615 -6.3637 1.2958 0.7431
-51.0809 -24.5516 0.9894 0.7971
-14.8824 -35.3646 0.6697 0.8577
-4.9396 -31.2322 0.5519 0.8812
29.7038 -46.5911 0.9645 0.8017
42.5017 -24.3506 0.8550 0.8220
59.2946 -25.0373 1.1235 0.7730
86.4409 -24.7446 1.5694 0.6979
89.9419 7.5193 1.5754 0.6969
65.3328 13.5258 1.1646 0.7657
58.1103 19.5725 1.0703 0.7825
42.2268 20.1703 0.8168 0.8293
13.5283 8.6019 0.2798 0.9379
4.9497 8.6150 0.1734 0.9610
2.4467 5.7749 0.1095 0.9752
2.4931 8.6697 0.1575 0.9646
1.3938 8.6765 0.1534 0.9655
-2.9057 8.6615 0.1595 0.9641
-15.1986 8.7567 0.3062 0.9322
-15.0838 -35.3634 0.6711 0.8574
-8.2219 -28.3325 0.5149 0.8887
-5.0945 -31.2313 0.5523 0.8811
30.9941 -93.1371 1.7134 0.6752
41.4072 -87.5023 1.6897 0.6789
31.8498 -39.1081 0.8804 0.8173
33.8171 -32.5687 0.8195 0.8288
33.8604 -25.5201 0.7401 0.8440
59.2925 -25.3754 1.1257 0.7726
66.9158 13.5161 1.1916 0.7610
59.0365 19.5668 1.0856 0.7797
42.7510 20.1670 0.8251 0.8277
13.6727 8.6010 0.2820 0.9374
10.6104 8.6198 0.2386 0.9468
8.3353 8.6338 0.2095 0.9531
6.5180 8.6264 0.1887 0.9577
1.4369 8.6762 0.1535 0.9654
0.3769 8.6827 0.1517 0.9658
-1.7413 8.6748 0.1544 0.9652
-4.0769 8.6696 0.1672 0.9624
-5.4699 8.7186 0.1797 0.9597
-7.0735 8.7285 0.1961 0.9560
-20.4210 8.7981 0.3881 0.9149
-63.6455 -29.8355 1.2269 0.7549
-18.4438 -31.5687 0.6382 0.8639
-15.2150 -35.1975 0.6693 0.8578
-8.8230 -29.8629 0.5436 0.8829
30.9849 -94.6366 1.7382 0.6714
31.5809 -39.1635 0.8782 0.8177
33.8588 -25.7770 0.7428 0.8435
50.3863 9.9236 0.8964 0.8143
43.2861 20.1637 0.8335 0.8261
10.7152 8.6192 0.2400 0.9465
8.4159 8.6333 0.2104 0.9529
6.5835 8.6260 0.1894 0.9575
0.4190 8.6825 0.1517 0.9658
-0.6294 8.6645 0.1516 0.9658
-1.6976 8.6745 0.1543 0.9653
-2.8141 8.6658 0.1590 0.9642
-4.0256 8.6693 0.1668 0.9625
-5.4110 8.7183 0.1791 0.9598
-11.4428 8.7554 0.2515 0.9440
-14.8592 8.7539 0.3010 0.9333
-34.6020 1.7119 0.6047 0.8706
-74.4292 -5.3162 1.3025 0.7419
-63.6508 -29.4628 1.2243 0.7553
-21.9967 -22.4560 0.5487 0.8818
-23.9133 -31.1753 0.6858 0.8545
-18.6486 -31.5675 0.6400 0.8636
-15.4170 -35.1963 0.6707 0.8575
-9.3840 -31.2050 0.5688 0.8778
-5.4052 -31.2294 0.5532 0.8809
-1.8440 -36.3792 0.6358 0.8644
40.3720 -87.4961 1.6820 0.6801
31.2668 -39.1606 0.8747 0.8183
33.8572 -26.0356 0.7455 0.8429
81.8303 -24.7162 1.4921 0.7104
26.5704 8.5217 0.4871 0.8944
43.8319 20.1604 0.8421 0.8245
8.4973 8.6328 0.2114 0.9527
2.5203 5.7159 0.1090 0.9753
-4.4092 65.0578 1.1382 0.7704
-1.6539 8.6743 0.1541 0.9653
-2.7684 8.6679 0.1588 0.9643
-3.9745 8.6689 0.1665 0.9626
-8.8573 8.7395 0.2172 0.9514
-11.3278 8.7546 0.2499 0.9443
-14.6938 8.7526 0.2985 0.9339
-19.8825 8.7953 0.3795 0.9167
-58.0857 -18.4742 1.0639 0.7836
-64.4514 -29.4555 1.2369 0.7531
-24.1529 -31.1739 0.6883 0.8540
-9.5487 -31.2040 0.5696 0.8776
-5.5609 -31.2284 0.5537 0.8808
39.8580 -87.4931 1.6782 0.6807
33.8112 -33.5231 0.8311 0.8266
40.6365 -24.3392 0.8268 0.8274
54.8587 -24.4266 1.0482 0.7864
80.3924 -24.7074 1.4680 0.7143
14.7765 8.9985 0.3020 0.9331
8.5795 8.6323 0.2124 0.9525
5.1793 8.6236 0.1756 0.9606
2.5535 5.7162 0.1093 0.9753
-4.0928 65.0558 1.1378 0.7705
-1.6104 8.6740 0.1540 0.9653
-2.7229 8.6701 0.1586 0.9643
-3.9237 8.6685 0.1661 0.9626
-6.8648 8.7272 0.1938 0.9566
-8.7715 8.7389 0.2161 0.9517
-14.5311 8.7512 0.2961 0.9344
-57.5788 -18.0066 1.0530 0.7856
-65.2880 -29.4566 1.2502 0.7509
-19.0618 -31.5649 0.6436 0.8628
-15.8979 -35.3584 0.6767 0.8563
-9.7139 -31.2030 0.5704 0.8774
-5.7168 -31.2275 0.5541 0.8807
-0.9751 -16.1440 0.2823 0.9373
33.8092 -33.8472 0.8351 0.8258
33.8540 -26.5588 0.7511 0.8419
54.1419 -24.4222 1.0367 0.7885
79.0008 -24.6989 1.4449 0.7181
49.8359 9.0653 0.8842 0.8166
44.2865 19.8520 0.8471 0.8235
14.8253 8.9301 0.3021 0.9331
11.0372 8.6172 0.2444 0.9455
6.7832 8.6249 0.1915 0.9571
0.5455 8.6817 0.1518 0.9658
-0.5043 8.6867 0.1519 0.9658
-5.2365 8.7172 0.1775 0.9601
-6.7964 8.7268 0.1931 0.9567
-8.6864 8.7384 0.2151 0.9519
-11.1022 8.7533 0.2468 0.9450
-19.3638 8.7910 0.3712 0.9184
-57.5926 -17.7053 1.0517 0.7858
-19.2701 -31.5636 0.6455 0.8625
-9.8795 -31.2020 0.5713 0.8773
-1.0558 -16.1775 0.2830 0.9372
38.8365 -87.4870 1.6708 0.6819
30.2904 -39.0890 0.8632 0.8205
33.8072 -34.1748 0.8391 0.8250
33.8524 -26.8232 0.7539 0.8413
39.7417 -24.3291 0.8134 0.8299
77.4921 -24.6395 1.4194 0.7223
49.6773 8.7883 0.8806 0.8172
27.9332 8.5134 0.5097 0.8897
44.4257 19.6568 0.8478 0.8234
11.1232 8.5980 0.2454 0.9453
6.8508 8.6246 0.1923 0.9569
0.5877 8.6814 0.1519 0.9658
-2.6323 8.6743 0.1582 0.9644
-3.8227 8.6678 0.1654 0.9628
-8.6022 8.7379 0.2140 0.9521
-10.9914 8.7526 0.2453 0.9453
-14.2333 8.7608 0.2917 0.9353
-19.1129 8.7890 0.3672 0.9193
-27.6168 8.8548 0.5062 0.8905
-57.6064 -17.4048 1.0504 0.7860
-24.8823 -31.1694 0.6962 0.8525
-19.4799 -31.5624 0.6474 0.8621
-6.0295 -31.2256 0.5551 0.8805
-2.8391 -40.4865 0.7084 0.8501
38.3293 -87.4840 1.6672 0.6824
25.7857 -43.6406 0.8848 0.8165
32.3365 -42.1493 0.9273 0.8085
33.8052 -34.5052 0.8432 0.8243
39.2975 -24.3197 0.8067 0.8312
76.1878 -24.6315 1.3976 0.7259
95.5399 -18.5681 1.6988 0.6775
49.6850 8.5418 0.8800 0.8174
28.4159 8.5104 0.5178 0.8881
8.8308 8.6308 0.2155 0.9518
6.9200 8.6256 0.1930 0.9567
2.8139 8.6677 0.1591 0.9642
1.6968 8.6746 0.1543 0.9653
0.6299 8.6812 0.1519 0.9658
-0.4200 8.6876 0.1518 0.9658
-1.4803 8.6732 0.1536 0.9654
-3.7725 8.6675 0.1650 0.9629
-6.6610 8.7260 0.1916 0.9570
-27.1548 8.8519 0.4985 0.8920
-20.8935 -33.4890 0.6890 0.8539
-6.1863 -31.2246 0.5556 0.8804
-3.0361 -40.4853 0.7087 0.8501
29.6779 -50.7875 1.0267 0.7903
32.0122 -42.1474 0.9238 0.8092
33.8491 -27.3584 0.7597 0.8402
38.8610 -24.3104 0.8001 0.8325
52.0820 -24.4095 1.0040 0.7944
8.9162 8.6302 0.2166 0.9516
6.9916 8.6290 0.1939 0.9565
4.0525 8.6195 0.1663 0.9626
2.8603 8.6674 0.1593 0.9641
1.7404 8.6743 0.1544 0.9652
0.6721 8.6809 0.1520 0.9658
-0.3778 8.6874 0.1518 0.9658
-3.7225 8.6671 0.1646 0.9630
-5.0651 8.7162 0.1760 0.9605
-49.2332 50.9882 1.2372 0.7531
-10.7740 8.7513 0.2423 0.9460
-13.9257 8.7586 0.2872 0.9363
-26.7069 8.8492 0.4911 0.8935
13.2460 8.6036 -0.2757 0.9388
10.3032 8.6217 -0.2345 0.9477
8.0977 8.6353 -0.2066 0.9537
3.5370 8.5785 -0.1620 0.9636
2.4027 8.6703 -0.1570 0.9646
0.1709 5.9205 -0.1034 0.9766
-0.7999 8.6818 -0.1522 0.9657
-1.8684 8.6550 -0.1546 0.9652
-7.2871 8.7298 -0.1985 0.9555
-9.3000 8.7422 -0.2228 0.9502
-21.3090 8.8160 -0.4025 0.9119
-50.5150 14.0644 -0.9153 0.8108
-38.6936 -8.3043 -0.6908 0.8536
-73.6522 -25.4043 -1.3599 0.7322
-47.9142 -23.3158 -0.9301 0.8080
-60.8961 -39.3442 -1.2655 0.7482
-65.3059 -69.3045 -1.6622 0.6832
-5.5048 -19.6794 -0.3567 0.9215
29.7067 -46.1017 -0.9573 0.8030
24.3941 -29.3679 -0.6664 0.8584
33.8209 -31.9470 -0.8121 0.8302
33.8635 -25.0121 -0.7348 0.8450
42.9881 -24.3536 -0.8624 0.8206
49.9993 -20.8277 -0.9454 0.8052
88.2840 -24.8104 -1.6007 0.6929
97.0148 8.5837 -1.7000 0.6773
63.8081 13.5327 -1.1385 0.7703
13.3861 8.6028 -0.2777 0.9383
10.4044 8.6211 -0.2359 0.9474
6.3698 8.6022 -0.1868 0.9581
4.8779 8.5860 -0.1724 0.9613
3.5855 8.5782 -0.1623 0.9635
2.4479 8.6700 -0.1573 0.9646
1.3508 8.6767 -0.1533 0.9655
-4.1584 8.6251 -0.1671 0.9624
-15.2311 8.6775 -0.3060 0.9323
-50.5129 14.3277 -0.9165 0.8105
-53.8368 8.4478 -0.9512 0.8041
-73.6935 -6.3406 -1.2911 0.7439
-50.8296 -24.4307 -0.9844 0.7980
-15.8434 -21.2880 -0.4632 0.8993
-8.2648 -19.6395 -0.3719 0.9183
-3.2921 -20.8152 -0.3678 0.9191
40.6901 -84.9211 -1.6437 0.6861
32.0391 -38.9538 -0.8804 0.8173
49.2210 -20.7837 -0.9326 0.8076
87.1548 -24.9490 -1.5824 0.6958
97.0119 8.1104 -1.6992 0.6774
58.1103 19.5725 -1.0703 0.7825
42.2268 20.1703 -0.8168 0.8293
2.4467 5.7748 -0.1095 0.9752
2.4931 8.6697 -0.1575 0.9646
0.3348 8.6830 -0.1517 0.9658
-1.7808 8.6545 -0.1542 0.9653
-2.8986 8.6405 -0.1591 0.9642
-5.5291 8.7190 -0.1802 0.9595
-9.1202 8.7411 -0.2205 0.9507
-11.6773 8.7568 -0.2548 0.9433
-28.2279 8.1545 -0.5129 0.8891
-73.7305 -5.9842 -1.2912 0.7438
-63.7249 -30.2498 -1.2313 0.7541
-16.4038 -21.8195 -0.4765 0.8965
-8.3127 -19.4888 -0.3698 0.9187
-3.4047 -20.8722 -0.3691 0.9189
29.7008 -47.0878 -0.9718 0.8003
33.8171 -32.5687 -0.8195 0.8288
59.2925 -25.3754 -1.1257 0.7726
84.9842 -24.7734 -1.5451 0.7018
97.0090 7.6373 -1.6985 0.6775
49.2938 9.9567 -0.8778 0.8178
59.0365 19.5668 -1.0856 0.7797
42.7510 20.1670 -0.8251 0.8277
13.6727 8.6010 -0.2819 0.9374
10.6104 8.6198 -0.2386 0.9468
6.5026 8.6060 -0.1883 0.9578
4.9916 8.5914 -0.1734 0.9610
2.5386 8.6694 -0.1577 0.9645
1.4369 8.6762 -0.1535 0.9654
-2.8529 8.6427 -0.1589 0.9642
-9.0317 8.7405 -0.2194 0.9510
-11.5593 8.7561 -0.2531 0.9436
-14.9198 8.6926 -0.3014 0.9333
-20.1804 8.6944 -0.3835 0.9158
-27.7296 8.1562 -0.5045 0.8908
-87.6699 3.9120 -1.5318 0.7039
-73.5897 -24.1926 -1.3521 0.7335
-64.0343 -30.0178 -1.2344 0.7536
-60.7241 -37.9945 -1.2503 0.7508
-8.4719 -19.5986 -0.3727 0.9181
-5.7522 -19.4692 -0.3544 0.9220
-5.6414 -33.5604 -0.5940 0.8727
25.3212 -54.1864 -1.0440 0.7872
29.1360 -46.6917 -0.9606 0.8024
31.4070 -38.9479 -0.8733 0.8186
33.8151 -32.8839 -0.8233 0.8280
41.5535 -24.3448 -0.8406 0.8248
56.2875 -24.4125 -1.0709 0.7824
83.5865 -24.8058 -1.5219 0.7055
50.1879 9.8846 -0.8929 0.8149
26.2276 8.5520 -0.4815 0.8955
40.0271 18.6456 -0.7708 0.8381
8.4159 8.6333 -0.2104 0.9529
6.5707 8.6092 -0.1890 0.9576
1.4800 8.6759 -0.1536 0.9654
-0.6294 8.6645 -0.1516 0.9658
-5.4110 8.7183 -0.1791 0.9598
-8.9441 8.7400 -0.2183 0.9512
-11.4428 8.7554 -0.2515 0.9440
-14.7676 8.6999 -0.2992 0.9337
-19.9120 8.6933 -0.3792 0.9167
-27.2472 8.1579 -0.4965 0.8924
-53.8316 9.2501 -0.9534 0.8037
-34.6020 1.7119 -0.6047 0.8706
-73.6123 -23.8058 -1.3504 0.7338
-60.5353 -37.4697 -1.2427 0.7522
-11.8377 -20.0384 -0.4062 0.9111
-5.8737 -19.5321 -0.3560 0.9216
30.0469 -93.2964 -1.7109 0.6756
28.9283 -46.8626 -0.9613 0.8023
31.0947 -38.9450 -0.8699 0.8192
41.0913 -24.3420 -0.8337 0.8261
55.5917 -24.4311 -1.0599 0.7843
82.2114 -24.8313 -1.4990 0.7092
14.7277 9.0668 -0.3019 0.9331
8.4973 8.6328 -0.2114 0.9527
5.1067 8.5967 -0.1745 0.9608
2.5203 5.7159 -0.1090 0.9753
-4.4092 65.0578 -1.1382 0.7704
-1.6500 8.6537 -0.1538 0.9654
-2.7618 8.6470 -0.1584 0.9643
-3.9540 8.6240 -0.1656 0.9628
-5.3525 8.7179 -0.1786 0.9599
-6.9338 8.7276 -0.1946 0.9564
-8.8573 8.7395 -0.2172 0.9514
-50.5044 15.3881 -0.9216 0.8096
-53.8299 9.5184 -0.9542 0.8036
-47.5254 -9.0020 -0.8443 0.8241
-58.6437 -18.6517 -1.0742 0.7818
-60.3981 -36.9816 -1.2362 0.7533
-17.1460 -22.1302 -0.4887 0.8940
-8.7228 -19.6542 -0.3753 0.9176
-0.8995 -16.1938 -0.2831 0.9372
3.8361 -58.7037 -1.0269 0.7903
33.8112 -33.5231 -0.8311 0.8266
54.8587 -24.4266 -1.0482 0.7864
82.2101 -25.2660 -1.5012 0.7089
26.6110 8.3929 -0.4870 0.8944
14.7765 8.9985 -0.3020 0.9331
8.5795 8.6323 -0.2124 0.9525
5.1648 8.5995 -0.1751 0.9607
2.5535 5.7161 -0.1093 0.9753
2.6756 8.6686 -0.1584 0.9644
-4.0928 65.0558 -1.1378 0.7705
-1.6066 8.6534 -0.1536 0.9654
-2.7164 8.6492 -0.1582 0.9644
-3.9034 8.6238 -0.1652 0.9628
-6.8648 8.7272 -0.1938 0.9566
-8.7715 8.7389 -0.2161 0.9517
-28.3230 8.7797 -0.5176 0.8881
-62.0721 3.6739 -1.0854 0.7798
-71.9867 -4.4414 -1.2589 0.7494
-58.6979 -18.3565 -1.0735 0.7819
-73.7189 -44.6487 -1.5044 0.7084
-17.3999 -22.2347 -0.4928 0.8932
-12.0967 -20.0313 -0.4085 0.9106
-3.7945 -20.7270 -0.3678 0.9192
-0.9751 -16.1438 -0.2823 0.9373
29.5887 -95.0180 -1.7371 0.6716
39.3479 -87.4935 -1.6745 0.6813
28.9220 -47.8835 -0.9764 0.7995
30.4100 -38.8531 -0.8612 0.8209
33.8092 -33.8472 -0.8351 0.8258
33.8540 -26.5588 -0.7511 0.8419
40.1893 -24.3364 -0.8201 0.8286
54.1420 -24.4222 -1.0367 0.7885
77.1164 4.5705 -1.3484 0.7341
40.9085 18.3378 -0.7825 0.8358
14.8253 8.9301 -0.3021 0.9331
11.0372 8.6172 -0.2444 0.9455
6.7785 8.6190 -0.1914 0.9571
0.5455 8.6817 -0.1518 0.9658
-0.5043 8.6867 -0.1519 0.9658
-3.8531 8.6235 -0.1649 0.9629
-5.2365 8.7172 -0.1775 0.9601
-6.7964 8.7268 -0.1931 0.9567
-8.6864 8.7384 -0.2151 0.9519
-11.1022 8.7533 -0.2468 0.9450
-19.1711 8.7035 -0.3675 0.9192
-55.0503 10.2848 -0.9775 0.7993
-87.7258 -4.9863 -1.5337 0.7036
-73.7047 -32.8252 -1.4083 0.7241
-59.9574 -35.9180 -1.2200 0.7561
-62.4245 -48.4943 -1.3798 0.7289
-18.0974 -22.8968 -0.5094 0.8898
-12.3548 -20.2367 -0.4139 0.9095
-16.1035 -35.3571 -0.6782 0.8560
-3.8903 -20.6848 -0.3674 0.9192
1.5715 -28.2522 -0.4939 0.8930
38.8380 -87.4903 -1.6708 0.6818
30.1054 -38.8503 -0.8579 0.8215
53.4407 -24.4179 -1.0256 0.7905
77.4830 -24.6367 -1.4192 0.7223
51.4269 9.0978 -0.9116 0.8114
41.3826 18.3103 -0.7899 0.8344
14.8741 8.8616 -0.3022 0.9331
11.1232 8.5980 -0.2454 0.9453
5.2821 8.6050 -0.1762 0.9604
1.6533 8.6749 -0.1541 0.9653
-0.4602 8.6506 -0.1512 0.9659
-1.5200 8.6529 -0.1533 0.9655
-2.6259 8.6535 -0.1578 0.9645
-3.8030 8.6233 -0.1645 0.9630
-10.9914 8.7526 -0.2453 0.9453
-18.9504 8.7142 -0.3641 0.9199
-87.5887 16.8030 -1.5567 0.6999
-55.0901 3.7961 -0.9639 0.8018
-58.0547 -17.5402 -1.0586 0.7846
-73.6452 -43.6348 -1.4942 0.7100
-18.0556 -22.6178 -0.5052 0.8907
-6.2799 -19.5052 -0.3577 0.9213
-3.9692 -20.5559 -0.3654 0.9197
-1.5316 -21.8418 -0.3822 0.9161
1.4251 -28.0685 -0.4906 0.8937
26.5485 -88.2559 -1.6087 0.6916
38.3307 -87.4872 -1.6672 0.6824
33.8052 -34.5052 -0.8432 0.8243
96.8337 -18.8196 -1.7219 0.6739
70.6274 3.5002 -1.2343 0.7536
51.4253 8.8410 -0.9108 0.8116
28.2016 8.4462 -0.5139 0.8889
41.9553 18.3214 -0.7991 0.8326
14.9230 8.7931 -0.3023 0.9331
6.9200 8.6256 -0.1930 0.9567
3.9811 8.5754 -0.1650 0.9629
0.6299 8.6812 -0.1519 0.9658
-1.4768 8.6527 -0.1532 0.9655
-2.5809 8.6557 -0.1577 0.9645
-3.7531 8.6230 -0.1642 0.9631
-8.5169 8.7355 -0.2130 0.9524
-10.8820 8.7519 -0.2438 0.9457
-14.0157 8.7207 -0.2881 0.9361
-25.0483 8.1653 -0.4599 0.9000
-87.5860 17.2428 -1.5582 0.6997
-73.5661 -12.4642 -1.3024 0.7419
-73.6742 -31.9606 -1.4018 0.7252
-59.5057 -34.8691 -1.2039 0.7589
-18.3413 -22.7490 -0.5101 0.8897
-9.1899 -19.6703 -0.3790 0.9168
-1.6409 -21.8809 -0.3830 0.9160
1.2840 -27.9628 -0.4886 0.8941
26.0743 -88.2254 -1.6058 0.6921
37.8257 -87.4841 -1.6637 0.6830
25.5695 -43.7569 -0.8846 0.8165
33.8031 -34.8389 -0.8473 0.8235
70.6452 3.1583 -1.2343 0.7536
51.4237 8.5847 -0.9100 0.8117
28.6943 8.4426 -0.5221 0.8872
14.9719 8.7246 -0.3025 0.9330
8.9162 8.6302 -0.2166 0.9516
5.4000 8.6088 -0.1774 0.9602
4.0315 8.5750 -0.1654 0.9628
-0.3778 8.6874 -0.1518 0.9658
-1.4337 8.6524 -0.1531 0.9655
-10.7740 8.7513 -0.2423 0.9460
-13.8643 8.7199 -0.2859 0.9366
-55.0452 11.1136 -0.9802 0.7988
-55.0868 4.3324 -0.9645 0.8017
13.2460 8.6036 -0.8278 0.9387
6.3014 8.5966 -0.5586 0.9582
4.8084 8.5599 -0.5145 0.9614
2.4027 8.6703 -0.4715 0.9646
1.3078 8.6770 -0.4599 0.9655
0.1707 5.9144 -0.3101 0.9766
-0.7999 8.6818 -0.4569 0.9657
-1.8640 8.6344 -0.4629 0.9652
-2.9833 8.6152 -0.4778 0.9641
-7.2871 8.7298 -0.5960 0.9555
-15.3233 8.6320 -0.9217 0.9320
-44.8633 6.8173 -2.3782 0.8338
-34.9745 1.0519 -1.8338 0.8692
-37.9046 -8.1349 -2.0317 0.8562
-42.3787 -14.6174 -2.3494 0.8356
-36.6811 -30.5439 -2.5016 0.8260
-0.6862 -21.9336 -1.1501 0.9159
4.0050 -44.6496 -2.3494 0.8356
9.9596 -46.6824 -2.5016 0.8260
15.5097 -45.1429 -2.5016 0.8260
20.8340 -42.9463 -2.5016 0.8260
24.2888 -29.2411 -1.9922 0.8588
32.5887 -30.7831 -2.3494 0.8356
45.9528 -12.9141 -2.5016 0.8260
47.7078 -1.5505 -2.5016 0.8260
47.5090 4.2035 -2.4996 0.8261
29.0143 14.0320 -1.6891 0.8789
6.3680 8.5997 -0.5608 0.9580
4.8645 8.5624 -0.5161 0.9613
1.3508 8.6767 -0.4602 0.9654
0.2927 8.6832 -0.4553 0.9658
-2.9374 8.6174 -0.4771 0.9642
-5.5887 8.7194 -0.5428 0.9594
-7.2153 8.7294 -0.5935 0.9557
-11.7968 8.7575 -0.7700 0.9428
-15.1652 8.6400 -0.9147 0.9325
-25.2317 7.1568 -1.3745 0.9003
-35.2182 1.2299 -1.8468 0.8684
-38.0558 -7.9749 -2.0377 0.8558
-42.4490 -14.4121 -2.3494 0.8356
-36.8286 -30.3660 -2.5016 0.8260
-32.9031 -34.5807 -2.5016 0.8260
-11.2386 -19.6711 -1.1873 0.9133
-8.0652 -19.1653 -1.0897 0.9201
-5.4961 -19.2880 -1.0511 0.9228
-0.7933 -21.9555 -1.1514 0.9158
3.7888 -44.6684 -2.3494 0.8356
24.0992 -37.8002 -2.3494 0.8356
28.4765 -34.6224 -2.3494 0.8356
33.7576 -25.1874 -2.2073 0.8448
38.8971 -22.2854 -2.3494 0.8356
45.8898 -13.1364 -2.5016 0.8260
47.1379 -7.5137 -2.5016 0.8260
47.5670 3.9767 -2.5016 0.8260
43.8979 9.0882 -2.3494 0.8356
29.0114 13.8577 -1.6850 0.8792
10.5068 8.6204 -0.7123 0.9470
6.4350 8.6028 -0.5630 0.9579
4.9210 8.5650 -0.5177 0.9612
2.4467 5.7747 -0.3287 0.9752
2.4931 8.6697 -0.4728 0.9645
1.3938 8.6765 -0.4605 0.9654
-0.7156 8.6858 -0.4567 0.9657
-1.7770 8.6359 -0.4621 0.9653
-2.8916 8.6196 -0.4765 0.9642
-4.0856 8.5801 -0.4980 0.9627
-7.1441 8.7289 -0.5911 0.9558
-11.6773 8.7568 -0.7649 0.9432
-15.0095 8.6478 -0.9078 0.9330
-20.1186 8.5526 -1.1457 0.9162
-44.8183 7.2552 -2.3794 0.8337
-45.2100 1.7981 -2.3712 0.8342
-44.9716 -3.6500 -2.3646 0.8347
-43.1212 -20.4694 -2.5016 0.8260
-40.3419 -25.5141 -2.5016 0.8260
-36.9752 -30.1873 -2.5016 0.8260
-33.0701 -34.4210 -2.5016 0.8260
-15.9217 -21.1783 -1.3886 0.8993
-8.2155 -19.2611 -1.0974 0.9195
-5.6213 -19.3709 -1.0571 0.9224
-0.8862 -21.6222 -1.1341 0.9170
3.5725 -44.6862 -2.3494 0.8356
9.5071 -46.7766 -2.5016 0.8260
15.0718 -45.2910 -2.5016 0.8260
23.9159 -37.9164 -2.3494 0.8356
41.7040 -12.1570 -2.2766 0.8403
47.6905 -2.0124 -2.5016 0.8260
47.5857 3.7463 -2.5016 0.8260
43.9414 8.8756 -2.3494 0.8356
29.0085 13.6842 -1.6809 0.8794
13.6727 8.6010 -0.8465 0.9373
10.6104 8.6198 -0.7164 0.9467
4.9777 8.5676 -0.5193 0.9611
-0.6723 8.6734 -0.4559 0.9658
-2.8460 8.6218 -0.4758 0.9643
-4.0347 8.5799 -0.4969 0.9627
-5.4699 8.7186 -0.5394 0.9596
-11.5593 8.7561 -0.7600 0.9436
-44.7941 7.4739 -2.3800 0.8337
-38.3609 -7.6518 -2.0500 0.8550
-42.5866 -14.0003 -2.3494 0.8356
-43.2198 -20.2604 -2.5016 0.8260
-40.4649 -25.3185 -2.5016 0.8260
-37.1209 -30.0079 -2.5016 0.8260
-33.2364 -34.2605 -2.5016 0.8260
-11.6333 -19.9118 -1.2086 0.9118
-8.2488 -19.0826 -1.0895 0.9201
-5.6905 -19.2606 -1.0525 0.9227
-3.4468 -20.5051 -1.0897 0.9201
-0.9960 -21.7306 -1.1400 0.9166
3.3561 -44.7030 -2.3494 0.8356
23.7321 -38.0317 -2.3494 0.8356
28.1400 -34.8965 -2.3494 0.8356
31.3632 -30.4994 -2.2927 0.8393
38.3794 -22.4852 -2.3312 0.8368
41.0795 -12.1911 -2.2457 0.8423
47.0629 -7.9697 -2.5016 0.8260
43.9839 8.6627 -2.3494 0.8356
26.2276 8.5520 -1.4458 0.8954
13.8057 8.5916 -0.8522 0.9369
10.7152 8.6192 -0.7207 0.9464
2.4914 5.7253 -0.3272 0.9753
2.5841 8.6691 -0.4741 0.9644
1.4800 8.6759 -0.4613 0.9654
-3.9840 8.5798 -0.4958 0.9628
-5.4110 8.7183 -0.5378 0.9597
-7.0034 8.7281 -0.5865 0.9562
-8.9441 8.7400 -0.6554 0.9511
-11.4428 8.7554 -0.7551 0.9439
-14.7051 8.6631 -0.8945 0.9339
-44.7689 7.6927 -2.3806 0.8336
-34.6020 1.7119 -1.8156 0.8704
-45.0077 -3.2147 -2.3648 0.8347
-38.5148 -7.4888 -2.0563 0.8546
-43.3174 -20.0509 -2.5016 0.8260
-40.5870 -25.1223 -2.5016 0.8260
-37.2658 -29.8278 -2.5016 0.8260
-21.9624 -22.4209 -1.6448 0.8819
-11.7018 -19.8084 -1.2057 0.9120
-5.7505 -19.1224 -1.0465 0.9231
9.0538 -46.8665 -2.5016 0.8260
14.6326 -45.4348 -2.5016 0.8260
31.1195 -30.5571 -2.2857 0.8397
47.0238 -8.1975 -2.5016 0.8260
47.6688 -2.4741 -2.5016 0.8260
47.6198 3.2854 -2.5016 0.8260
28.9501 9.2850 -1.5933 0.8853
29.0029 13.3398 -1.6730 0.8800
8.4973 8.6328 -0.6348 0.9526
6.6394 8.6124 -0.5699 0.9574
5.0925 8.5728 -0.5226 0.9608
2.6298 8.6689 -0.4748 0.9644
-1.6478 8.6420 -0.4611 0.9654
-2.7551 8.6262 -0.4746 0.9644
-3.9336 8.5796 -0.4946 0.9629
-14.5562 8.6706 -0.8879 0.9344
-45.0238 -2.9967 -2.3648 0.8347
-38.6698 -7.3247 -2.0626 0.8542
-42.7202 -13.5872 -2.3494 0.8356
-43.4140 -19.8410 -2.5016 0.8260
-33.5666 -33.9371 -2.5016 0.8260
-11.9626 -20.0277 -1.2226 0.9108
-8.6367 -19.4604 -1.1158 0.9183
-5.8762 -19.2026 -1.0524 0.9227
-0.8995 -16.1936 -0.8500 0.9371
2.9232 -44.7334 -2.3494 0.8356
8.8268 -46.9098 -2.5016 0.8260
14.4125 -45.5051 -2.5016 0.8260
19.7884 -43.4380 -2.5016 0.8260
23.6775 -38.7752 -2.3810 0.8336
27.8008 -35.1673 -2.3494 0.8356
33.7512 -26.2152 -2.2397 0.8427
38.4582 -23.0345 -2.3494 0.8356
40.7513 -12.5243 -2.2343 0.8430
47.6563 -2.7049 -2.5016 0.8260
47.6351 3.0547 -2.5016 0.8260
44.0657 8.2365 -2.3494 0.8356
29.2185 9.2153 -1.6056 0.8845
14.7765 8.9985 -0.9067 0.9330
10.9286 8.6179 -0.7294 0.9458
8.5795 8.6323 -0.6378 0.9524
2.5535 5.7161 -0.3281 0.9752
2.6756 8.6686 -0.4754 0.9643
1.5665 8.6754 -0.4620 0.9653
-2.7099 8.6284 -0.4740 0.9644
-5.2943 8.7176 -0.5345 0.9600
-8.7715 8.7389 -0.6489 0.9516
-11.2143 8.7540 -0.7456 0.9446
-14.4095 8.6780 -0.8815 0.9348
-19.2636 8.6333 -1.1063 0.9189
-23.1033 7.1617 -1.2676 0.9077
-44.7153 8.1301 -2.3818 0.8336
-38.8257 -7.1597 -2.0691 0.8537
-42.7854 -13.3803 -2.3494 0.8356
-43.5095 -19.6306 -2.5016 0.8260
-33.7304 -33.7742 -2.5016 0.8260
-12.1453 -20.1118 -1.2313 0.9102
-5.9858 -19.2277 -1.0554 0.9225
-0.9751 -16.1437 -0.8476 0.9373
1.7228 -28.4850 -1.4956 0.8920
8.5994 -46.9519 -2.5016 0.8260
19.5779 -43.5332 -2.5016 0.8260
23.6704 -39.1888 -2.3994 0.8325
38.3463 -23.2204 -2.3494 0.8356
46.9422 -8.6525 -2.5016 0.8260
47.6426 -2.9356 -2.5016 0.8260
44.1051 8.0229 -2.3494 0.8356
14.8253 8.9301 -0.9070 0.9330
8.6624 8.6318 -0.6409 0.9522
6.7785 8.6190 -0.5747 0.9570
5.2086 8.5781 -0.5259 0.9606
2.7216 8.6683 -0.4762 0.9643
0.5455 8.6817 -0.4559 0.9658
-0.5043 8.6867 -0.4560 0.9657
-5.2365 8.7172 -0.5329 0.9601
-6.7964 8.7268 -0.5797 0.9567
-11.1022 8.7533 -0.7409 0.9449
-14.2612 8.6831 -0.8750 0.9353
-19.0452 8.6464 -1.0962 0.9196
-43.0006 -7.7145 -2.2895 0.8395
-42.8497 -13.1730 -2.3494 0.8356
-43.6041 -19.4196 -2.5016 0.8260
-33.8935 -33.6105 -2.5016 0.8260
-6.1259 -19.3471 -1.0635 0.9219
-1.0557 -16.1770 -0.8496 0.9371
1.5523 -27.9058 -1.4647 0.8941
8.3721 -46.9931 -2.5016 0.8260
13.9711 -45.6426 -2.5016 0.8260
19.3668 -43.6276 -2.5016 0.8260
23.6631 -39.6092 -2.4181 0.8313
38.2334 -23.4057 -2.3494 0.8356
47.6625 2.5934 -2.5016 0.8260
44.1434 7.8093 -2.3494 0.8356
14.8741 8.8616 -0.9074 0.9330
11.1232 8.5980 -0.7368 0.9452
6.8490 8.6223 -0.5771 0.9569
5.2673 8.5808 -0.5277 0.9605
3.9108 8.5318 -0.4919 0.9631
1.6533 8.6749 -0.4628 0.9652
0.5877 8.6814 -0.4560 0.9657
-0.4602 8.6506 -0.4540 0.9659
-2.6196 8.6328 -0.4728 0.9645
-5.1790 8.7169 -0.5314 0.9602
-8.6022 8.7379 -0.6426 0.9521
-14.1071 8.6831 -0.8681 0.9358
-44.6574 8.5669 -2.3831 0.8335
-42.7264 -7.4520 -2.2730 0.8405
-42.9130 -12.9654 -2.3494 0.8356
-18.0352 -22.5922 -1.5150 0.8907
-12.2883 -19.9101 -1.2262 0.9105
-8.8644 -19.2159 -1.1090 0.9187
-6.1315 -19.0440 -1.0485 0.9230
-3.9317 -20.3618 -1.0868 0.9203
-1.5000 -21.3907 -1.1238 0.9177
1.4042 -27.6572 -1.4513 0.8950
23.6558 -40.0358 -2.4371 0.8301
27.2870 -35.5675 -2.3494 0.8356
33.7464 -27.0064 -2.2652 0.8410
40.6565 -13.1443 -2.2393 0.8427
46.8563 -9.1065 -2.5016 0.8260
47.6120 -3.3966 -2.5016 0.8260
27.6133 8.2700 -1.5107 0.8910
14.2850 10.9319 -0.9427 0.9305
8.8308 8.6308 -0.6471 0.9517
6.9200 8.6256 -0.5795 0.9567
3.9607 8.5313 -0.4929 0.9630
2.8139 8.6677 -0.4776 0.9642
1.6968 8.6746 -0.4632 0.9652
0.6299 8.6812 -0.4562 0.9657
-0.4200 8.6876 -0.4558 0.9658
-3.7340 8.5790 -0.4903 0.9632
-5.1219 8.7165 -0.5298 0.9603
-6.6610 8.7260 -0.5753 0.9570
-8.5169 8.7355 -0.6394 0.9523
-18.6200 8.6718 -1.0765 0.9210
-45.1620 3.3317 -2.3733 0.8341
-45.0777 -2.1246 -2.3650 0.8346
-12.3726 -19.8313 -1.2250 0.9106
-9.0285 -19.3247 -1.1178 0.9181
-6.2094 -18.9705 -1.0461 0.9232
-4.0101 -20.2404 -1.0814 0.9207
1.2609 -27.4599 -1.4406 0.8957
13.5286 -45.7757 -2.5016 0.8260
18.9435 -43.8130 -2.5016 0.8260
25.2886 -33.2951 -2.1912 0.8458
31.2169 -32.1735 -2.3494 0.8356
40.5918 -19.0244 -2.3494 0.8356
46.8116 -9.3334 -2.5016 0.8260
47.5950 -3.6273 -2.5016 0.8260
47.6853 2.1319 -2.5016 0.8260
28.1774 8.2905 -1.5393 0.8890
14.9719 8.7246 -0.9081 0.9329
11.3231 8.5786 -0.7445 0.9447
8.9162 8.6302 -0.6503 0.9515
6.9916 8.6290 -0.5820 0.9565
-1.4336 8.6521 -0.4596 0.9655
-5.0651 8.7162 -0.5283 0.9604
-6.5941 8.7256 -0.5732 0.9571
-10.7740 8.7513 -0.7274 0.9459
-44.5951 9.0036 -2.3843 0.8334
-45.1507 3.5509 -2.3736 0.8341
-45.0983 -1.9067 -2.3656 0.8346
26.2419 5.6984 -2.3494 0.8978
25.3646 8.8176 -2.3494 0.8978
13.2460 8.6036 -1.3819 0.9385
8.0977 8.6353 -1.0357 0.9536
4.7952 8.5364 -0.8566 0.9614
3.5014 8.4923 -0.8037 0.9638
0.1707 5.9126 -0.5175 0.9765
-1.8635 8.6319 -0.7726 0.9652
-2.9760 8.5943 -0.7957 0.9641
-4.1664 8.5357 -0.8310 0.9626
-7.2871 8.7298 -0.9949 0.9554
-25.4266 7.0792 -2.3091 0.8994
-26.8414 0.8073 -2.3494 0.8978
-27.3527 -2.4869 -2.4029 0.8956
-27.0304 -9.3234 -2.5016 0.8915
-18.4161 -19.5437 -2.3494 0.8978
-11.0150 -19.4984 -1.9593 0.9140
-7.9540 -19.1599 -1.8150 0.9201
-5.4668 -19.5437 -1.7755 0.9217
-3.1415 -20.5061 -1.8150 0.9201
9.2907 -27.0417 -2.5016 0.8915
20.7860 -19.6344 -2.5016 0.8915
24.8783 -14.0940 -2.5016 0.8915
28.2582 -4.3641 -2.5016 0.8915
26.2692 5.5713 -2.3494 0.8978
24.2127 11.7098 -2.3531 0.8976
13.3861 8.6028 -1.3921 0.9381
2.4479 8.6700 -0.7882 0.9645
1.3508 8.6767 -0.7683 0.9654
0.2927 8.6832 -0.7601 0.9657
-0.7577 8.6838 -0.7626 0.9656
-1.8202 8.6339 -0.7720 0.9652
-4.1164 8.5380 -0.8293 0.9627
-5.5887 8.7194 -0.9061 0.9593
-7.2153 8.7294 -0.9908 0.9555
-9.2096 8.7416 -1.1109 0.9503
-11.7968 8.7575 -1.2854 0.9427
-14.9618 8.5240 -1.5065 0.9332
-19.6404 8.2372 -1.8633 0.9180
-21.5006 3.3738 -1.9041 0.9163
-26.8371 0.9372 -2.3494 0.8978
-27.9853 -5.8645 -2.5016 0.8915
-27.0752 -9.1925 -2.5016 0.8915
-22.0612 -18.1899 -2.5016 0.8915
-18.5105 -19.4543 -2.3494 0.8978
-15.8776 -21.3339 -2.3267 0.8987
-11.1496 -19.5154 -1.9664 0.9137
-8.0480 -19.1242 -1.8153 0.9201
-5.5052 -19.3199 -1.7575 0.9225
-3.2407 -20.4906 -1.8150 0.9201
-0.7796 -21.5764 -1.8889 0.9170
2.2696 -26.7574 -2.3494 0.8978
5.8306 -27.9924 -2.5016 0.8915
9.1597 -27.0863 -2.5016 0.8915
12.3553 -25.7859 -2.5016 0.8915
15.3712 -24.1101 -2.5016 0.8915
24.8097 -14.2143 -2.5016 0.8915
26.3411 -11.1226 -2.5016 0.8915
27.4890 -7.8690 -2.5016 0.8915
10.5068 8.6204 -1.1890 0.9469
8.2553 8.6343 -1.0451 0.9532
4.9074 8.5414 -0.8618 0.9612
2.4931 8.6697 -0.7892 0.9644
-2.8846 8.5988 -0.7935 0.9642
-4.0668 8.5405 -0.8276 0.9627
-5.5291 8.7190 -0.9033 0.9594
-7.1441 8.7289 -0.9868 0.9557
-11.6773 8.7568 -1.2770 0.9431
-14.8120 8.5340 -1.4956 0.9337
-19.4882 8.2846 -1.8527 0.9185
-21.5430 3.4874 -1.9093 0.9161
-26.8345 -2.1780 -2.3554 0.8975
-22.1490 -18.0829 -2.5016 0.8915
-18.6045 -19.3645 -2.3494 0.8978
-16.1367 -21.4642 -2.3494 0.8978
-5.6315 -19.4060 -1.7678 0.9221
-3.3352 -20.4458 -1.8124 0.9202
-0.8821 -21.5221 -1.8845 0.9171
2.1400 -26.7681 -2.3494 0.8978
9.0284 -27.1304 -2.5016 0.8915
15.2543 -24.1842 -2.5016 0.8915
20.5950 -19.8347 -2.5016 0.8915
22.8340 -17.2098 -2.5016 0.8915
28.2146 -4.6375 -2.5016 0.8915
28.5049 2.2441 -2.5016 0.8915
26.3219 5.3167 -2.3494 0.8978
24.3157 11.4705 -2.3522 0.8977
13.6727 8.6010 -1.4132 0.9372
10.6104 8.6198 -1.1960 0.9466
6.5026 8.6060 -0.9437 0.9576
2.5386 8.6694 -0.7903 0.9644
-0.6723 8.6734 -0.7611 0.9657
-2.8391 8.6010 -0.7924 0.9643
-4.0173 8.5429 -0.8259 0.9628
-7.0735 8.7285 -0.9829 0.9559
-11.5593 8.7561 -1.2687 0.9434
-14.6644 8.5437 -1.4848 0.9341
-24.4674 7.1967 -2.2313 0.9027
-26.7757 -2.0428 -2.3494 0.8978
-28.0408 -5.5932 -2.5016 0.8915
-24.2394 -15.1664 -2.5016 0.8915
-22.2363 -17.9754 -2.5016 0.8915
-16.2405 -21.3859 -2.3494 0.8978
-11.4217 -19.5497 -1.9809 0.9131
-5.7338 -19.4070 -1.7704 0.9220
-0.9840 -21.4681 -1.8802 0.9173
8.8969 -27.1738 -2.5016 0.8915
12.1051 -25.9044 -2.5016 0.8915
15.1371 -24.2577 -2.5016 0.8915
17.9485 -22.2580 -2.5016 0.8915
22.7504 -17.3201 -2.5016 0.8915
24.6709 -14.4539 -2.5016 0.8915
27.4115 -8.1349 -2.5016 0.8915
28.1918 -4.7740 -2.5016 0.8915
26.3474 5.1891 -2.3494 0.8978
13.8057 8.5916 -1.4226 0.9368
10.7152 8.6192 -1.2031 0.9463
8.4159 8.6333 -1.0548 0.9527
5.0210 8.5464 -0.8672 0.9610
2.5841 8.6691 -0.7914 0.9643
0.4190 8.6825 -0.7605 0.9657
-1.6908 8.6400 -0.7702 0.9653
-5.4110 8.7183 -0.8977 0.9596
-7.0034 8.7281 -0.9790 0.9561
-19.1888 8.3776 -1.8318 0.9194
-21.6284 3.7165 -1.9200 0.9157
-28.0675 -5.4574 -2.5016 0.8915
-19.4641 -19.8705 -2.4335 0.8943
-8.3962 -19.1681 -1.8308 0.9194
-5.8019 -19.2933 -1.7626 0.9223
-3.5603 -20.5702 -1.8264 0.9196
-1.0854 -21.4142 -1.8759 0.9175
15.0194 -24.3308 -2.5016 0.8915
20.4019 -20.0332 -2.5016 0.8915
22.6663 -17.4300 -2.5016 0.8915
26.1768 -11.5040 -2.5016 0.8915
27.3718 -8.2675 -2.5016 0.8915
26.3722 5.0615 -2.3494 0.8978
25.5706 8.2011 -2.3494 0.8978
24.4163 11.2302 -2.3513 0.8977
14.7277 9.0668 -1.5131 0.9329
6.6394 8.6124 -0.9514 0.9573
5.0783 8.5489 -0.8699 0.9609
2.5202 5.7158 -0.5465 0.9752
1.5232 8.6757 -0.7706 0.9653
0.4612 8.6822 -0.7607 0.9657
-1.6478 8.6420 -0.7697 0.9653
-2.7485 8.6055 -0.7903 0.9644
-3.9190 8.5478 -0.8227 0.9629
-5.3525 8.7179 -0.8950 0.9598
-8.8573 8.7395 -1.0886 0.9513
-26.7942 -1.7834 -2.3494 0.8978
-27.2482 -8.6663 -2.5016 0.8915
-26.0060 -11.8852 -2.5016 0.8915
-24.3851 -14.9310 -2.5016 0.8915
-20.0204 -20.2414 -2.4908 0.8920
-16.4468 -21.2277 -2.3494 0.8978
-5.8585 -19.1447 -1.7516 0.9228
-3.6433 -20.4597 -1.8182 0.9199
-0.8995 -16.1933 -1.4189 0.9370
1.7510 -26.7964 -2.3494 0.8978
5.2869 -28.0972 -2.5013 0.8915
14.9014 -24.4032 -2.5016 0.8915
17.7322 -22.4308 -2.5016 0.8915
22.5817 -17.5396 -2.5016 0.8915
24.5298 -14.6921 -2.5016 0.8915
26.1208 -11.6307 -2.5016 0.8915
27.3315 -8.3999 -2.5016 0.8915
28.1443 -5.0468 -2.5016 0.8915
28.5472 -1.6203 -2.5016 0.8915
26.3964 4.9338 -2.3494 0.8978
25.6100 8.0772 -2.3494 0.8978
24.4658 11.1098 -2.3508 0.8977
10.9285 8.6179 -1.2176 0.9456
6.7087 8.6157 -0.9553 0.9571
5.1360 8.5515 -0.8727 0.9607
2.5534 5.7160 -0.5477 0.9752
-1.7312 27.5170 -2.4122 0.8952
-2.7033 8.6077 -0.7893 0.9644
-3.8701 8.5502 -0.8211 0.9630
-5.2943 8.7176 -0.8923 0.9599
-6.8649 8.7272 -0.9714 0.9564
-8.7715 8.7389 -1.0833 0.9515
-14.2338 8.5722 -1.4537 0.9355
-21.6866 3.9431 -1.9284 0.9153
-26.8025 -1.6537 -2.3494 0.8978
-28.1191 -5.1853 -2.5016 0.8915
-27.2898 -8.5343 -2.5016 0.8915
-24.4571 -14.8128 -2.5016 0.8915
-20.1609 -20.1871 -2.4961 0.8918
-16.5494 -21.1478 -2.3494 0.8978
-11.8375 -19.6021 -2.0034 0.9122
-5.9491 -19.1098 -1.7510 0.9228
-3.7165 -20.3008 -1.8056 0.9205
8.5013 -27.3001 -2.5016 0.8915
11.7276 -26.0774 -2.5016 0.8915
17.6234 -22.5163 -2.5016 0.8915
22.4965 -17.6487 -2.5016 0.8915
26.0642 -11.7570 -2.5016 0.8915
26.4200 4.8059 -2.3494 0.8978
24.5146 10.9890 -2.3504 0.8977
14.8253 8.9301 -1.5142 0.9329
6.7785 8.6190 -0.9593 0.9569
2.5950 5.7344 -0.5507 0.9750
1.6099 8.6751 -0.7719 0.9652
0.5455 8.6817 -0.7610 0.9657
-2.6583 8.6099 -0.7884 0.9645
-3.8214 8.5526 -0.8196 0.9631
-18.7084 8.4935 -1.7976 0.9208
-22.8940 7.2185 -2.1002 0.9081
-26.3942 4.9311 -2.3491 0.8978
-22.5173 1.4422 -1.9740 0.9134
-28.1438 -5.0491 -2.5016 0.8915
-22.5802 -17.5414 -2.5016 0.8915
-16.6515 -21.0675 -2.3494 0.8978
-11.9782 -19.6199 -2.0111 0.9118
-8.7505 -19.2128 -1.8470 0.9187
-6.0957 -19.2520 -1.7667 0.9221
4.7099 -26.4372 -2.3494 0.8978
17.5141 -22.6015 -2.5016 0.8915
22.4108 -17.7574 -2.5016 0.8915
26.0070 -11.8830 -2.5016 0.8915
27.2489 -8.6641 -2.5016 0.8915
28.0941 -5.3191 -2.5016 0.8915
28.5509 1.5535 -2.5016 0.8915
25.6870 7.8288 -2.3494 0.8978
24.5628 10.8682 -2.3499 0.8978
14.8741 8.8616 -1.5148 0.9328
6.8490 8.6223 -0.9634 0.9567
3.8945 8.4963 -0.8177 0.9632
2.7677 8.6680 -0.7961 0.9641
1.6533 8.6749 -0.7726 0.9652
-0.4602 8.6506 -0.7579 0.9658
-3.7729 8.5550 -0.8180 0.9632
-8.6022 8.7379 -1.0728 0.9520
-10.9914 8.7526 -1.2293 0.9451
-18.5008 8.5075 -1.7815 0.9215
-22.8932 7.3402 -2.1033 0.9080
-22.3094 1.5373 -1.9564 0.9141
-26.8173 -1.3941 -2.3494 0.8978
-27.3712 -8.2697 -2.5016 0.8915
-26.1759 -11.5062 -2.5016 0.8915
-24.5994 -14.5752 -2.5016 0.8915
-22.6649 -17.4319 -2.5016 0.8915
-20.3921 -20.0268 -2.5006 0.8916
-16.7534 -20.9866 -2.3494 0.8978
-12.1201 -19.6378 -2.0190 0.9115
-6.1613 -19.1368 -1.7589 0.9224
-3.9149 -20.2746 -1.8066 0.9204
-1.4867 -21.2014 -1.8594 0.9182
1.3438 -26.4690 -2.3187 0.8990
8.2366 -27.3812 -2.5016 0.8915
11.4745 -26.1898 -2.5016 0.8915
17.4045 -22.6860 -2.5016 0.8915
25.9491 -12.0088 -2.5016 0.8915
27.2066 -8.7959 -2.5016 0.8915
28.0680 -5.4550 -2.5016 0.8915
28.5581 1.4153 -2.5016 0.8915
25.7246 7.7043 -2.3494 0.8978
14.9230 8.7931 -1.5154 0.9328
8.8308 8.6308 -1.0803 0.9516
6.9200 8.6256 -0.9675 0.9566
2.8139 8.6677 -0.7973 0.9641
-0.4200 8.6876 -0.7610 0.9657
-2.5686 8.6142 -0.7864 0.9646
-3.7246 8.5574 -0.8165 0.9632
-5.1219 8.7165 -0.8845 0.9602
-6.6610 8.7260 -0.9604 0.9569
-10.8820 8.7519 -1.2218 0.9455
-13.8207 8.5994 -1.4241 0.9367
-18.2965 8.5212 -1.7658 0.9222
-22.8925 7.4625 -2.1066 0.9078
-22.0665 1.6279 -1.9358 0.9150
-28.1914 -4.7764 -2.5016 0.8915
-26.2312 -11.3794 -2.5016 0.8915
-24.6697 -14.4559 -2.5016 0.8915
-20.4971 -19.9359 -2.5016 0.8915
-16.8548 -20.9052 -2.3494 0.8978
-4.0271 -20.3264 -1.8129 0.9202
-1.5860 -21.1488 -1.8555 0.9184
1.1928 -25.9767 -2.2751 0.9009
4.3315 -25.7546 -2.2849 0.9004
17.2945 -22.7700 -2.5016 0.8915
24.2407 -15.1644 -2.5016 0.8915
27.1637 -8.9276 -2.5016 0.8915
28.5105 -2.1728 -2.5016 0.8915
28.5646 1.2770 -2.5016 0.8915
27.2485 4.5488 -2.4169 0.8950
14.9719 8.7246 -1.5160 0.9328
8.9162 8.6302 -1.0856 0.9514
6.9916 8.6290 -0.9716 0.9564
1.7404 8.6743 -0.7740 0.9651
-1.4336 8.6521 -0.7673 0.9654
-2.5239 8.6164 -0.7855 0.9646
-5.0651 8.7162 -0.8820 0.9603
-6.5941 8.7256 -0.9569 0.9570
-10.7740 8.7513 -1.2144 0.9458
-13.6868 8.6083 -1.4146 0.9371
-22.8917 7.5850 -2.1098 0.9077
-26.8295 -1.1343 -2.3494 0.8978
7.9511 2.7641 -1.0336 0.9666
17.1849 8.4139 -2.3494 0.9258
13.2460 8.6036 -1.9394 0.9383
6.2513 8.5282 -1.2983 0.9583
4.7640 8.4809 -1.1944 0.9616
7.3765 17.8910 -2.3761 0.9250
2.4027 8.6703 -1.1047 0.9644
0.1706 5.9108 -0.7261 0.9765
-2.9631 8.5569 -1.1119 0.9642
-4.1408 8.4833 -1.1591 0.9627
-5.6487 8.7197 -1.2757 0.9590
-7.2871 8.7298 -1.3962 0.9552
-16.6894 9.4015 -2.3520 0.9257
-18.4331 5.1321 -2.3494 0.9258
-18.9170 2.8746 -2.3494 0.9258
-20.3406 0.6118 -2.4986 0.9213
-20.2900 -1.8448 -2.5016 0.9212
-19.9201 -4.2751 -2.5016 0.9212
-18.3198 -8.9147 -2.5016 0.9212
-17.1127 -11.0563 -2.5016 0.9212
-15.6565 -13.0370 -2.5016 0.9212
-11.8776 -16.1217 -2.4587 0.9225
-9.4114 -16.6596 -2.3494 0.9258
-7.3363 -17.6719 -2.3494 0.9258
-5.1544 -18.4268 -2.3494 0.9258
1.7094 -19.0576 -2.3494 0.9258
6.6200 -19.2682 -2.5016 0.9212
13.0180 -15.6723 -2.5016 0.9212
14.8109 -13.9902 -2.5016 0.9212
19.6139 -5.5121 -2.5016 0.9212
20.1350 -3.1096 -2.5016 0.9212
20.3630 -0.6618 -2.5016 0.9212
20.2944 1.7956 -2.5016 0.9212
19.6153 4.1601 -2.4620 0.9224
17.2255 8.3306 -2.3494 0.9258
13.3861 8.6028 -1.9538 0.9379
10.4044 8.6211 -1.6591 0.9470
8.1762 8.6348 -1.4601 0.9532
6.3165 8.5301 -1.3033 0.9581
4.8192 8.4827 -1.1979 0.9614
1.3508 8.6767 -1.0782 0.9652
0.2927 8.6832 -1.0668 0.9656
-2.9176 8.5595 -1.1104 0.9642
-5.5887 8.7194 -1.2716 0.9591
-11.7968 8.7575 -1.8040 0.9425
-16.6454 9.4832 -2.3522 0.9257
-20.3255 0.7098 -2.4972 0.9213
-19.9406 -4.1787 -2.5016 0.9212
-18.3628 -8.8259 -2.5016 0.9212
-17.1661 -10.9733 -2.5016 0.9212
-12.0376 -16.1743 -2.4756 0.9220
-9.4919 -16.6138 -2.3494 0.9258
-7.4218 -17.6361 -2.3494 0.9258
-5.2436 -18.4017 -2.3494 0.9258
-2.9890 -18.8992 -2.3494 0.9258
-0.6910 -19.1217 -2.3494 0.9258
6.5266 -19.3000 -2.5016 0.9212
10.9526 -17.1793 -2.5016 0.9212
12.9420 -15.7351 -2.5016 0.9212
14.7430 -14.0618 -2.5016 0.9212
16.3293 -12.1837 -2.5016 0.9212
17.6779 -10.1282 -2.5016 0.9212
18.7691 -7.9253 -2.5016 0.9212
19.5870 -5.6070 -2.5016 0.9212
20.1197 -3.2070 -2.5016 0.9212
19.7121 4.0810 -2.4717 0.9221
7.9817 2.6884 -1.0341 0.9666
17.2656 8.2471 -2.3494 0.9258
13.5283 8.6019 -1.9684 0.9374
8.2553 8.6343 -1.4668 0.9530
4.8747 8.4846 -1.2015 0.9613
2.4466 5.7745 -0.7700 0.9750
2.4931 8.6697 -1.1076 0.9643
1.3938 8.6765 -1.0790 0.9652
0.3348 8.6830 -1.0669 0.9656
-0.7148 8.6766 -1.0690 0.9655
-4.0446 8.4939 -1.1551 0.9628
-14.5340 8.3738 -2.0596 0.9346
-17.6091 7.4858 -2.3494 0.9258
-18.8883 3.0576 -2.3494 0.9258
-20.3069 -1.6482 -2.5016 0.9212
-14.1152 -14.6918 -2.5016 0.9212
-12.1999 -16.2277 -2.4928 0.9214
-7.5071 -17.6000 -2.3494 0.9258
-5.3326 -18.3761 -2.3494 0.9258
-3.0805 -18.8846 -2.3494 0.9258
-0.7836 -19.1181 -2.3494 0.9258
1.5248 -19.0733 -2.3494 0.9258
4.0471 -19.9126 -2.4949 0.9214
6.4331 -19.3314 -2.5016 0.9212
12.8656 -15.7976 -2.5016 0.9212
16.2701 -12.2626 -2.5016 0.9212
18.7305 -8.0161 -2.5016 0.9212
20.3556 -0.8589 -2.5016 0.9212
19.8055 4.0004 -2.4809 0.9218
8.0028 2.6524 -1.0352 0.9666
13.6727 8.6010 -1.9833 0.9370
10.6104 8.6198 -1.6785 0.9464
8.3353 8.6338 -1.4735 0.9528
6.4483 8.5341 -1.3133 0.9578
2.5386 8.6694 -1.1092 0.9642
0.3769 8.6827 -1.0671 0.9656
-2.8271 8.5646 -1.1074 0.9643
-3.9957 8.4968 -1.1529 0.9629
-5.4699 8.7186 -1.2638 0.9594
-7.0735 8.7285 -1.3795 0.9557
-9.0317 8.7405 -1.5432 0.9506
-11.5593 8.7561 -1.7805 0.9432
-14.4300 8.4072 -2.0506 0.9349
-18.3566 5.3993 -2.3494 0.9258
-20.2941 0.9055 -2.4943 0.9214
-20.3147 -1.5499 -2.5016 0.9212
-19.3547 -6.3628 -2.5016 0.9212
-17.2715 -10.8066 -2.5016 0.9212
-14.1862 -14.6233 -2.5016 0.9212
-9.6523 -16.5212 -2.3494 0.9258
1.4325 -19.0805 -2.3494 0.9258
3.9240 -19.7976 -2.4781 0.9219
20.3512 -0.9575 -2.5016 0.9212
19.8583 3.9111 -2.4851 0.9217
17.3446 8.0796 -2.3494 0.9258
8.4159 8.6333 -1.4804 0.9526
6.5149 8.5361 -1.3185 0.9576
1.4800 8.6759 -1.0807 0.9652
0.4190 8.6825 -1.0673 0.9656
-0.6294 8.6645 -1.0667 0.9656
-1.6882 8.6268 -1.0793 0.9652
-2.7820 8.5672 -1.1060 0.9644
-5.4110 8.7183 -1.2599 0.9595
-11.4428 8.7554 -1.7691 0.9436
-17.5358 7.6559 -2.3494 0.9258
-18.3302 5.4881 -2.3494 0.9258
-20.1258 0.9957 -2.4742 0.9220
-20.3220 -1.4515 -2.5016 0.9212
-19.9992 -3.8886 -2.5016 0.9212
-15.9060 -12.7313 -2.5016 0.9212
-14.2568 -14.5545 -2.5016 0.9212
-12.3746 -16.1325 -2.4965 0.9213
-9.7322 -16.4742 -2.3494 0.9258
-3.2632 -18.8539 -2.3494 0.9258
3.7693 -19.5114 -2.4400 0.9230
17.5289 -10.3839 -2.5016 0.9212
18.6520 -8.1971 -2.5016 0.9212
20.0710 -3.4989 -2.5016 0.9212
19.9108 3.8214 -2.4894 0.9215
17.3835 7.9955 -2.3494 0.9258
10.8212 8.6185 -1.6986 0.9458
8.4973 8.6328 -1.4873 0.9524
1.5232 8.6757 -1.0815 0.9651
-1.3116 19.3526 -2.3816 0.9248
-1.6453 8.6291 -1.0786 0.9652
-2.7371 8.5697 -1.1046 0.9644
-8.8573 8.7395 -1.5278 0.9511
-11.3278 8.7546 -1.7578 0.9439
-14.1695 8.4402 -2.0251 0.9357
-17.4985 7.7407 -2.3494 0.9258
-18.8419 3.3317 -2.3494 0.9258
-19.9170 1.0821 -2.4491 0.9228
-20.3288 -1.3530 -2.5016 0.9212
-20.0178 -3.7917 -2.5016 0.9212
-19.4154 -6.1751 -2.5016 0.9212
-17.3753 -10.6389 -2.5016 0.9212
-14.3271 -14.4853 -2.5016 0.9212
-12.4591 -16.0808 -2.4978 0.9213
-9.8119 -16.4269 -2.3494 0.9258
-7.7619 -17.4891 -2.3494 0.9258
-0.8905 -16.0324 -1.9716 0.9373
1.2477 -19.0934 -2.3494 0.9258
3.6280 -19.2809 -2.4089 0.9240
6.1517 -19.4228 -2.5016 0.9212
10.6178 -17.3882 -2.5016 0.9212
12.6348 -15.9828 -2.5016 0.9212
17.4784 -10.4687 -2.5016 0.9212
20.0538 -3.5961 -2.5016 0.9212
20.3410 -1.1545 -2.5016 0.9212
20.3320 1.3038 -2.5016 0.9212
8.1083 2.5573 -1.0439 0.9663
17.4220 7.9112 -2.3494 0.9258
10.9286 8.6179 -1.7089 0.9455
8.5795 8.6323 -1.4944 0.9521
6.6499 8.5401 -1.3290 0.9573
5.1002 8.4920 -1.2163 0.9609
2.5534 5.7159 -0.7687 0.9751
2.6756 8.6686 -1.1139 0.9641
1.5665 8.6754 -1.0824 0.9651
0.5033 8.6819 -1.0678 0.9656
-1.2179 19.3589 -2.3817 0.9248
-1.6025 8.6313 -1.0779 0.9652
-2.6922 8.5722 -1.1032 0.9644
-3.8499 8.5055 -1.1463 0.9631
-5.2943 8.7176 -1.2523 0.9597
-6.8649 8.7272 -1.3634 0.9562
-8.7715 8.7389 -1.5203 0.9513
-14.0511 8.4622 -2.0140 0.9360
-18.2762 5.6654 -2.3494 0.9258
-18.8255 3.4229 -2.3494 0.9258
-19.7124 1.1667 -2.4246 0.9235
-20.3351 -1.2546 -2.5016 0.9212
-20.0359 -3.6947 -2.5016 0.9212
-18.5710 -8.3789 -2.5016 0.9212
-7.8465 -17.4513 -2.3494 0.9258
6.0575 -19.4524 -2.5016 0.9212
8.3564 -18.5812 -2.5016 0.9212
14.3983 -14.4145 -2.5016 0.9212
20.3380 1.2054 -2.5016 0.9212
20.0151 3.6408 -2.4979 0.9213
8.6624 8.6318 -1.5015 0.9519
6.7199 8.5444 -1.3347 0.9571
5.1574 8.4938 -1.2201 0.9607
1.6099 8.6751 -1.0834 0.9651
-3.8016 8.5083 -1.1442 0.9631
-6.7964 8.7268 -1.3581 0.9564
-13.9341 8.4839 -2.0031 0.9364
-17.4227 7.9098 -2.3494 0.9258
-18.8087 3.5139 -2.3494 0.9258
-19.5119 1.2497 -2.4007 0.9242
-20.0536 -3.5977 -2.5016 0.9212
-19.4743 -5.9868 -2.5016 0.9212
-18.6114 -8.2888 -2.5016 0.9212
-17.4776 -10.4701 -2.5016 0.9212
-16.0893 -12.4989 -2.5016 0.9212
-14.4667 -14.3459 -2.5016 0.9212
-12.6274 -15.9762 -2.5004 0.9212
-1.0462 -16.0313 -1.9726 0.9373
1.0627 -19.1046 -2.3494 0.9258
3.3620 -18.8712 -2.3536 0.9257
5.9633 -19.4815 -2.5016 0.9212
8.2663 -18.6214 -2.5016 0.9212
14.3283 -14.4841 -2.5016 0.9212
17.3762 -10.6374 -2.5016 0.9212
18.5310 -8.4671 -2.5016 0.9212
19.4159 -6.1735 -2.5016 0.9212
20.3288 -1.3514 -2.5016 0.9212
20.0622 3.5491 -2.5016 0.9212
8.1803 2.4931 -1.0500 0.9661
7.9041 3.4973 -1.0613 0.9658
14.8741 8.8616 -2.1259 0.9326
2.7677 8.6680 -1.1172 0.9640
-0.4602 8.6506 -1.0637 0.9657
-1.5170 8.6358 -1.0766 0.9653
-2.6028 8.5772 -1.1006 0.9645
-5.1790 8.7169 -1.2449 0.9600
-10.9914 8.7526 -1.7252 0.9449
