ply
format ascii 1.0
element vertex 1555
property float32 x
property float32 y
property float32 z
property float32 I
end_header
-17.7982 -30.5714 1.8539 0.8679
-13.5998 -31.5932 1.8026 0.8713
43.5341 -42.2182 3.1782 0.7843
31.9912 -24.2860 2.1050 0.8514
57.2131 -33.4150 3.4723 0.7669
56.9155 -24.5943 3.2494 0.7801
66.2859 -3.0322 3.4775 0.7666
50.6574 10.0439 2.7065 0.8131
26.0337 8.5250 1.4357 0.8961
42.0616 19.6571 2.4332 0.8303
10.6887 8.6193 0.7196 0.9465
8.3958 8.6334 0.6311 0.9529
6.5815 8.6446 0.5694 0.9574
5.0704 8.6539 0.5256 0.9606
3.7573 8.6619 0.4948 0.9629
2.5693 8.6556 0.4732 0.9645
1.4680 8.6648 0.4606 0.9654
-0.6403 8.6821 0.4562 0.9657
-1.7087 8.6812 0.4637 0.9652
23.4923 -43.5950 0.8644 0.8203
29.7617 -42.1335 0.9004 0.8135
31.4212 -34.7099 0.8172 0.8292
31.4677 -27.2870 0.7270 0.8465
47.6552 -24.3823 0.9344 0.8072
50.0541 -18.3959 0.9304 0.8079
87.3262 -20.5823 1.5660 0.6984
57.1568 14.6813 1.0301 0.7897
51.5275 20.1130 0.9655 0.8015
7.5122 8.6389 0.1998 0.9552
4.4347 8.6379 0.1695 0.9619
2.0468 8.6303 0.1548 0.9651
7.3181 64.9856 1.1415 0.7698
-0.0746 8.6855 0.1516 0.9658
-1.1303 8.6920 0.1530 0.9655
-2.2214 8.6987 0.1567 0.9647
-2.2946 5.9028 0.1105 0.9750
-7.8618 8.7333 0.2051 0.9541
-10.0302 8.7467 0.2323 0.9482
-12.9096 8.7644 0.2724 0.9395
-58.5308 -14.8606 1.0541 0.7854
-67.0866 -60.2225 1.5736 0.6972
-21.4836 -31.5500 0.6663 0.8584
-18.2700 -35.3438 0.6945 0.8529
30.8160 -79.9314 1.4953 0.7098
23.3436 -43.9028 0.8679 0.8196
31.4197 -35.0991 0.8223 0.8282
47.0000 -24.3783 0.9242 0.8091
57.1547 14.3419 1.0286 0.7900
38.1102 20.1956 0.7528 0.8415
12.5790 8.7548 0.2675 0.9405
4.4958 8.6383 0.1700 0.9618
3.2455 8.6446 0.1612 0.9637
7.6846 64.9834 1.1422 0.7697
-0.0262 8.6852 0.1516 0.9659
-1.0810 8.6917 0.1529 0.9656
-7.7737 8.7328 0.2041 0.9543
-9.9174 8.7460 0.2308 0.9485
-12.7548 8.7634 0.2701 0.9400
-58.5124 -14.5095 1.0523 0.7857
-27.5506 -31.1530 0.7259 0.8467
-21.7407 -31.5485 0.6688 0.8579
-18.5193 -35.3423 0.6965 0.8525
29.0609 -42.1294 0.8934 0.8148
31.4173 -35.4921 0.8274 0.8273
46.3589 -24.3743 0.9142 0.8110
47.9069 -18.2147 0.8946 0.8146
51.9594 19.6176 0.9694 0.8008
38.6225 20.1924 0.7607 0.8400
12.6216 8.6805 0.2674 0.9406
7.6819 8.6378 0.2018 0.9548
4.5587 8.6412 0.1705 0.9617
2.1485 8.6297 0.1552 0.9650
0.0222 8.6849 0.1516 0.9659
-2.2236 5.9144 0.1103 0.9750
-7.6865 8.7323 0.2031 0.9545
-9.8059 8.7453 0.2293 0.9488
-58.4941 -14.1597 1.0505 0.7860
-65.9661 -34.2545 1.2974 0.7428
-18.7701 -35.3407 0.6985 0.8521
-12.0077 -31.1889 0.5834 0.8749
-5.1292 -40.4724 0.7121 0.8494
32.6012 -87.4520 1.6291 0.6884
27.2842 -52.7222 1.0362 0.7886
31.4620 -28.2166 0.7377 0.8444
47.7664 -18.4665 0.8939 0.8147
57.1506 13.6661 1.0257 0.7905
52.8145 19.6051 0.9833 0.7982
39.1459 20.1892 0.7688 0.8384
12.6529 8.5986 0.2670 0.9406
6.0665 8.6477 0.1844 0.9586
4.6220 8.6442 0.1711 0.9615
3.3556 8.6440 0.1619 0.9636
2.1995 8.6294 0.1554 0.9650
-0.9828 8.6911 0.1527 0.9656
-4.4679 8.6927 0.1706 0.9617
-5.8830 8.6828 0.1831 0.9589
-58.4757 -13.8109 1.0488 0.7863
-28.1717 -31.1492 0.7331 0.8453
-23.6205 -33.4723 0.7151 0.8488
-12.2071 -31.1877 0.5846 0.8746
-8.0483 -31.2131 0.5626 0.8790
29.0599 -79.2989 1.4726 0.7133
27.4032 -53.6825 1.0521 0.7857
28.7748 -42.7250 0.8991 0.8138
31.4600 -28.5326 0.7413 0.8437
45.1172 -24.3667 0.8950 0.8145
47.6262 -18.7178 0.8932 0.8149
9.9916 8.6236 0.2304 0.9486
4.6857 8.6472 0.1717 0.9614
3.4110 8.6437 0.1622 0.9635
1.1678 8.6353 0.1521 0.9657
-3.1598 8.6975 0.1615 0.9637
-4.4066 8.6922 0.1701 0.9618
-5.8124 8.6823 0.1824 0.9591
-7.5146 8.7312 0.2011 0.9550
-9.5873 8.7440 0.2265 0.9494
-16.1389 8.7744 0.3206 0.9291
-66.6719 -33.6837 1.3038 0.7417
-23.8996 -33.4706 0.7179 0.8483
-12.4073 -31.1864 0.5859 0.8743
27.2806 -54.1855 1.0589 0.7845
28.4289 -42.7229 0.8957 0.8144
31.4581 -28.8517 0.7451 0.8430
59.6287 13.5583 1.0674 0.7830
23.8206 8.5417 0.4417 0.9037
7.9429 8.6362 0.2048 0.9541
2.3020 8.6289 0.1559 0.9649
0.1106 5.7394 0.1002 0.9773
-3.1060 8.7000 0.1612 0.9637
-7.4299 8.7307 0.2001 0.9552
-12.1600 8.7598 0.2616 0.9418
-15.9241 8.7729 0.3173 0.9298
-58.4393 -13.1170 1.0454 0.7869
-65.1497 -32.4603 1.2705 0.7474
-24.1811 -33.4688 0.7207 0.8477
-19.5314 -35.3361 0.7047 0.8508
-12.6084 -31.1852 0.5871 0.8741
-8.4196 -31.2109 0.5643 0.8787
-5.8171 -40.4682 0.7136 0.8491
29.5918 -83.6212 1.5483 0.7013
27.2707 -54.9249 1.0704 0.7824
33.1597 -39.1858 0.8960 0.8144
31.4561 -29.1741 0.7489 0.8423
47.2986 -19.2000 0.8910 0.8153
91.3228 -24.7721 1.6516 0.6849
57.7166 5.6327 1.0122 0.7929
61.1608 13.5489 1.0934 0.7783
24.2215 8.5335 0.4483 0.9024
40.7846 20.1791 0.7943 0.8336
32.0698 21.0194 0.6693 0.8578
10.2180 8.6222 0.2334 0.9479
8.0316 8.6357 0.2059 0.9539
6.2837 8.6464 0.1866 0.9581
4.8144 8.6532 0.1728 0.9612
0.1423 5.7298 0.1000 0.9773
-0.8359 8.6902 0.1524 0.9657
-1.9139 8.6968 0.1554 0.9650
-21.5287 8.8090 0.4060 0.9111
-58.3468 -12.7553 1.0425 0.7875
-22.7943 -31.1821 0.6742 0.8568
-19.7883 -35.3345 0.7069 0.8504
-13.4689 -32.7869 0.6187 0.8678
-6.0471 -40.4668 0.7142 0.8490
29.1119 -83.7453 1.5476 0.7014
27.3551 -42.1192 0.8766 0.8180
47.1593 -19.4500 0.8904 0.8154
89.3056 -24.7597 1.6176 0.6902
62.7808 13.5415 1.1210 0.7734
24.6422 8.5278 0.4552 0.9009
41.3554 20.1756 0.8032 0.8319
32.0682 20.7640 0.6668 0.8583
8.1212 8.6351 0.2069 0.9537
4.8557 8.6142 0.1726 0.9612
2.4051 8.6283 0.1563 0.9648
1.3149 8.6345 0.1525 0.9657
-2.9954 8.6947 0.1605 0.9639
-5.6036 8.6808 0.1803 0.9595
-7.2630 8.7297 0.1982 0.9556
-11.8764 8.7580 0.2576 0.9427
-15.5075 8.7699 0.3110 0.9312
-21.1843 8.8061 0.4004 0.9123
-40.9490 -8.7133 0.7308 0.8458
-23.0604 -31.1805 0.6769 0.8563
-13.4658 -32.2667 0.6103 0.8695
-6.2775 -40.4654 0.7148 0.8489
-2.8413 -85.5875 1.4948 0.7099
27.3464 -42.6236 0.8839 0.8166
32.4119 -39.1788 0.8875 0.8159
42.7832 -24.3524 0.8593 0.8212
47.1567 -19.7569 0.8925 0.8150
27.7066 5.8149 0.4942 0.8929
41.8618 20.1348 0.8108 0.8304
8.2118 8.6346 0.2080 0.9534
6.4314 8.6455 0.1881 0.9578
31.7830 55.6572 1.1187 0.7738
3.6350 8.6424 0.1637 0.9632
1.3641 8.6342 0.1526 0.9656
0.2067 5.7449 0.1003 0.9773
-1.8125 8.6962 0.1551 0.9651
-11.6606 34.4697 0.6352 0.8645
-7.1807 8.7291 0.1973 0.9558
-15.3053 8.7684 0.3079 0.9319
-20.8493 8.8033 0.3950 0.9134
-38.3162 -7.9303 0.6830 0.8551
-65.9849 -31.5115 1.2764 0.7464
-20.2122 -35.1669 0.7080 0.8502
-13.4627 -31.7605 0.6021 0.8711
29.3061 -87.4318 1.6096 0.6915
32.0433 -39.1754 0.8834 0.8167
85.5193 -24.7390 1.5539 0.7004
93.4088 7.5433 1.6358 0.6874
47.8442 9.7633 0.8523 0.8225
25.5093 8.5109 0.4694 0.8980
41.9042 19.8686 0.8095 0.8307
4.9978 8.6398 0.1742 0.9609
2.5088 8.6277 0.1568 0.9647
1.4134 8.6339 0.1527 0.9656
-0.6895 8.6893 0.1521 0.9657
-1.7619 8.6959 0.1549 0.9651
-7.0991 8.7287 0.1964 0.9560
-9.0636 8.7407 0.2198 0.9509
-11.6013 8.7563 0.2537 0.9435
-15.1072 8.7670 0.3049 0.9325
-76.2503 -5.9438 1.3350 0.7364
-52.8582 -24.8822 1.0198 0.7916
-62.6698 -64.8036 1.5736 0.6972
-23.5997 -31.1772 0.6825 0.8552
-20.3277 -34.9162 0.7052 0.8508
-9.1687 -31.2063 0.5677 0.8780
27.3400 -43.6765 0.8994 0.8137
31.4480 -30.4974 0.7647 0.8392
31.9912 -24.2860 0.7011 0.8516
41.6844 -24.3456 0.8426 0.8244
47.6144 9.4405 0.8473 0.8235
26.0064 8.5161 0.4777 0.8963
42.0916 19.6711 0.8110 0.8304
32.0635 20.0087 0.6597 0.8597
10.6887 8.6193 0.2397 0.9465
5.0704 8.6539 0.1751 0.9607
3.7485 8.6417 0.1644 0.9630
1.4627 8.6336 0.1528 0.9656
0.4093 8.6825 0.1517 0.9658
-0.6408 8.6890 0.1521 0.9657
-1.7115 8.6955 0.1547 0.9652
23.5170 -43.6408 -0.8653 0.8201
27.4718 -38.8917 -0.8311 0.8266
31.4221 -34.7108 -0.8173 0.8292
36.0245 -24.3108 -0.7586 0.8404
67.0043 -24.6251 -1.2460 0.7516
58.0394 -13.6796 -1.0408 0.7878
51.0882 19.9415 -0.9573 0.8030
12.5295 8.8243 -0.2675 0.9405
9.5559 8.6263 -0.2247 0.9498
7.5122 8.6389 -0.1998 0.9552
5.8543 8.6491 -0.1823 0.9591
4.4334 8.6353 -0.1694 0.9619
2.0369 8.5887 -0.1541 0.9653
-1.1303 8.6920 -0.1530 0.9655
-2.2939 5.9010 -0.1105 0.9750
-4.6414 8.6709 -0.1717 0.9614
-6.0631 8.6345 -0.1842 0.9587
-10.0302 8.7467 -0.2323 0.9482
-16.9319 8.7226 -0.3325 0.9266
-23.8250 8.8314 -0.4435 0.9033
-75.9512 -9.7688 -1.3366 0.7361
-64.2892 -45.0105 -1.3699 0.7305
-60.6187 -54.4164 -1.4221 0.7219
-13.6010 -19.9740 -0.4218 0.9079
-7.4768 -20.0848 -0.3741 0.9178
-2.6189 -22.6876 -0.3986 0.9127
23.2306 -43.6903 -0.8637 0.8204
31.4197 -35.0991 -0.8223 0.8282
31.4658 -27.5939 -0.7305 0.8458
65.9129 -24.6416 -1.2283 0.7546
57.1547 14.3419 -1.0286 0.7900
12.5790 8.7548 -0.2675 0.9405
9.6628 8.6256 -0.2261 0.9495
7.6846 64.9834 -1.1422 0.7697
-0.0262 8.6852 -0.1516 0.9659
-1.0810 8.6917 -0.1529 0.9656
-2.1698 8.6984 -0.1565 0.9648
-4.5793 8.6705 -0.1712 0.9615
-12.7548 8.7634 -0.2701 0.9400
-23.4173 8.8289 -0.4368 0.9047
-53.9501 13.1924 -0.9694 0.8008
-24.3869 2.9183 -0.4287 0.9064
-90.0772 -0.1462 -1.5723 0.6974
-60.9383 -32.0759 -1.2020 0.7592
-13.6938 -19.8714 -0.4212 0.9080
-10.7351 -28.3534 -0.5292 0.8858
-2.7183 -22.4502 -0.3947 0.9135
33.1243 -87.3653 -1.6309 0.6881
22.9571 -33.2808 -0.7057 0.8507
31.4173 -35.4921 -0.8274 0.8273
31.4639 -27.9037 -0.7341 0.8451
48.2497 -18.3450 -0.9010 0.8134
51.9594 19.6176 -0.9694 0.8008
9.7710 8.6250 -0.2275 0.9492
4.5587 8.6412 -0.1705 0.9617
3.2922 8.6228 -0.1611 0.9637
8.0515 64.9811 -1.1429 0.7695
0.0222 8.6849 -0.1516 0.9659
-2.1184 8.6980 -0.1563 0.9648
-2.2231 5.9132 -0.1103 0.9750
-5.9202 8.6338 -0.1827 0.9590
-7.6865 8.7323 -0.2031 0.9545
-9.8059 8.7453 -0.2293 0.9488
-12.6025 8.7625 -0.2679 0.9404
-16.4990 8.7335 -0.3258 0.9280
-23.0216 8.8265 -0.4304 0.9061
-52.8874 13.2451 -0.9517 0.8040
-90.0741 0.3554 -1.5723 0.6974
-75.8855 -8.9022 -1.3337 0.7366
-58.3303 -14.1200 -1.0476 0.7866
-76.0982 -28.4895 -1.4183 0.7225
-64.1299 -43.8427 -1.3560 0.7329
-61.3594 -53.8591 -1.4251 0.7214
-14.0477 -20.1441 -0.4287 0.9064
-2.8576 -22.5483 -0.3967 0.9131
32.5676 -87.3618 -1.6274 0.6887
22.7139 -33.3238 -0.7039 0.8510
31.4620 -28.2166 -0.7377 0.8444
45.7315 -24.3705 -0.9045 0.8128
48.8732 -18.8943 -0.9146 0.8109
52.8145 19.6051 -0.9833 0.7982
12.6529 8.5986 -0.2670 0.9406
9.8806 8.6243 -0.2289 0.9489
7.7681 8.6373 -0.2028 0.9546
6.0665 8.6477 -0.1844 0.9586
3.3472 8.6225 -0.1614 0.9637
2.1889 8.5877 -0.1547 0.9652
1.1193 8.6392 -0.1521 0.9657
0.0705 8.6846 -0.1516 0.9659
-2.0671 8.6977 -0.1560 0.9649
-4.4562 8.6698 -0.1702 0.9618
-7.6001 8.7317 -0.2021 0.9547
-9.6960 8.7446 -0.2279 0.9491
-16.2769 8.7323 -0.3224 0.9288
-22.3264 8.7029 -0.4183 0.9086
-75.7995 -8.4646 -1.3313 0.7370
-58.3089 -13.7715 -1.0458 0.7869
-76.0226 -27.9795 -1.4140 0.7232
-60.4830 -30.9808 -1.1862 0.7620
-14.1672 -20.0762 -0.4289 0.9064
-5.4237 -21.0345 -0.3792 0.9168
-0.7760 -71.1482 -1.2420 0.7523
29.0552 -79.2863 -1.4739 0.7133
27.2798 -53.4408 -1.0473 0.7866
31.4600 -28.5326 -0.7413 0.8437
45.1172 -24.3667 -0.8950 0.8145
46.7381 -18.3687 -0.8765 0.8180
31.7684 16.1611 -0.6221 0.8671
32.0730 21.5359 -0.6743 0.8568
7.8550 8.6367 -0.2038 0.9544
6.1383 8.6473 -0.1851 0.9585
3.4025 8.6221 -0.1618 0.9636
2.2404 8.5897 -0.1549 0.9651
0.0790 5.7667 -0.1007 0.9772
-3.1598 8.6975 -0.1615 0.9637
-5.7794 8.6331 -0.1813 0.9593
-7.5146 8.7312 -0.2011 0.9550
-9.5873 8.7440 -0.2265 0.9494
-21.9604 8.7015 -0.4123 0.9098
-52.8825 13.8717 -0.9543 0.8035
-56.2195 7.6823 -0.9904 0.7969
-90.0677 1.3587 -1.5723 0.6974
-58.2875 -13.4242 -1.0440 0.7872
-63.8856 -42.6394 -1.3407 0.7354
-59.7651 -51.2927 -1.3747 0.7297
-21.1414 -23.1157 -0.5468 0.8822
-14.4098 -20.1804 -0.4328 0.9056
-8.8480 -33.5407 -0.6055 0.8704
-0.7169 -43.5079 -0.7595 0.8402
27.2753 -54.1749 -1.0587 0.7845
33.2807 -38.8874 -0.8934 0.8148
31.4581 -28.8517 -0.7451 0.8430
33.9283 -24.2979 -0.7284 0.8462
48.8693 -19.5211 -0.9185 0.8102
47.7169 -12.6587 -0.8617 0.8208
23.8206 8.5417 -0.4417 0.9037
32.0714 21.2767 -0.6718 0.8573
6.2107 8.6469 -0.1858 0.9583
4.7498 8.6502 -0.1723 0.9613
0.1106 5.7394 -0.1002 0.9773
-0.8848 8.6905 -0.1525 0.9657
-1.9648 8.6971 -0.1556 0.9650
-3.1060 8.7000 -0.1612 0.9637
-4.3344 8.6692 -0.1692 0.9620
-7.4299 8.7307 -0.2001 0.9552
-9.4800 8.7433 -0.2251 0.9497
-12.1600 8.7598 -0.2616 0.9418
-15.8465 8.7301 -0.3158 0.9302
-21.6338 8.7117 -0.4071 0.9109
-30.3684 8.1471 -0.5488 0.8818
-75.9015 -7.6210 -1.3315 0.7370
-58.9590 -13.2337 -1.0547 0.7853
-63.6928 -41.9999 -1.3317 0.7370
-21.4552 -23.1983 -0.5516 0.8812
-13.4722 -33.3216 -0.6274 0.8661
-5.6167 -20.8209 -0.3764 0.9173
26.4198 -53.2113 -1.0371 0.7885
32.9772 -38.9701 -0.8911 0.8153
31.4561 -29.1741 -0.7489 0.8423
48.8674 -19.8368 -0.9206 0.8098
47.2196 -12.8087 -0.8540 0.8222
57.6927 5.6304 -1.0118 0.7930
61.1608 13.5489 -1.0935 0.7783
32.0698 21.0194 -0.6693 0.8578
8.0316 8.6357 -0.2059 0.9539
6.2837 8.6464 -0.1866 0.9581
4.8144 8.6532 -0.1728 0.9612
3.5136 8.6214 -0.1625 0.9634
2.3442 8.5946 -0.1555 0.9650
1.2598 8.5939 -0.1516 0.9658
0.1423 5.7297 -0.1000 0.9773
-0.8359 8.6902 -0.1524 0.9657
-4.2741 8.6688 -0.1687 0.9621
-5.6434 8.6365 -0.1801 0.9596
-7.3461 8.7302 -0.1992 0.9554
-9.3740 8.7426 -0.2237 0.9500
-15.6522 8.7370 -0.3129 0.9308
-29.7151 8.1493 -0.5378 0.8840
-56.2155 8.3207 -0.9919 0.7966
-75.9266 -7.1967 -1.3312 0.7370
-58.7902 -12.8523 -1.0504 0.7860
-75.9914 -26.5352 -1.4050 0.7247
-60.8993 -51.0992 -1.3876 0.7276
-9.2481 -33.5382 -0.6073 0.8701
-6.0471 -40.4668 -0.7142 0.8490
28.0265 -80.6228 -1.4899 0.7107
43.3491 -24.3558 -0.8679 0.8196
48.8654 -20.1537 -0.9226 0.8094
62.7808 13.5415 -1.1210 0.7734
24.3081 8.4122 -0.4490 0.9022
37.9377 18.5082 -0.7368 0.8446
32.0682 20.7640 -0.6668 0.8583
6.3572 8.6460 -0.1873 0.9580
3.5696 8.6210 -0.1629 0.9634
1.3087 8.5935 -0.1517 0.9658
-1.8631 8.6965 -0.1552 0.9650
-4.2141 8.6685 -0.1682 0.9622
-5.5771 8.6397 -0.1795 0.9597
-9.2692 8.7420 -0.2224 0.9503
-11.8764 8.7580 -0.2576 0.9427
-15.4649 8.7458 -0.3101 0.9314
-21.0277 8.7411 -0.3975 0.9129
-40.9766 -8.7192 -0.7313 0.8457
-63.7123 -41.0019 -1.3225 0.7385
-22.9195 -24.2343 -0.5822 0.8751
-14.9227 -20.1773 -0.4381 0.9045
-11.1420 -19.6383 -0.3941 0.9136
-8.1227 -19.4636 -0.3681 0.9191
-9.4490 -33.5370 -0.6082 0.8699
-0.9315 -28.0591 -0.4900 0.8938
28.7027 -84.0748 -1.5507 0.7009
26.6250 -41.4992 -0.8606 0.8210
31.4521 -29.8288 -0.7566 0.8408
42.7715 -24.3457 -0.8590 0.8213
47.0422 -13.3249 -0.8534 0.8223
24.7764 8.4200 -0.4568 0.9006
38.4224 18.4805 -0.7442 0.8432
-1.8125 8.6962 -0.1551 0.9651
-4.1544 8.6681 -0.1678 0.9623
-7.1807 8.7291 -0.1973 0.9558
-15.2809 8.7544 -0.3074 0.9320
-20.7348 8.7550 -0.3929 0.9139
-76.0246 -6.3524 -1.3316 0.7370
-38.3099 -7.9290 -0.6830 0.8551
-76.0097 -25.5954 -1.3999 0.7255
-64.7746 -30.9335 -1.2529 0.7504
-63.5252 -40.3830 -1.3139 0.7400
-24.0720 -25.1707 -0.6079 0.8699
-8.2873 -19.5511 -0.3707 0.9186
-3.5224 -21.9000 -0.3872 0.9151
-1.0865 -28.0207 -0.4895 0.8939
29.2758 -87.3416 -1.6079 0.6918
42.0968 -88.4662 -1.7101 0.6757
32.3670 -24.2883 -0.7063 0.8505
42.2285 -24.3490 -0.8508 0.8228
48.8615 -20.7918 -0.9269 0.8086
47.3310 -13.6919 -0.8600 0.8211
94.6272 7.6417 -1.6571 0.6840
38.9168 18.4521 -0.7518 0.8417
2.5014 8.6020 -0.1564 0.9648
1.4067 8.5929 -0.1520 0.9658
-0.6895 8.6893 -0.1521 0.9657
-4.0950 8.6678 -0.1673 0.9624
-7.0991 8.7287 -0.1964 0.9560
-11.6013 8.7563 -0.2537 0.9435
-15.1002 8.7629 -0.3047 0.9325
-76.0956 -5.9318 -1.3323 0.7369
-76.1250 -25.1630 -1.3995 0.7256
-52.8142 -24.8615 -1.0189 0.7917
-63.5163 -39.8824 -1.3091 0.7408
-11.3232 -19.4497 -0.3928 0.9139
-8.3835 -19.4754 -0.3701 0.9187
-6.0736 -20.6718 -0.3761 0.9174
-6.5386 -39.2571 -0.6947 0.8528
28.7347 -87.3383 -1.6049 0.6922
37.2236 -79.3616 -1.5301 0.7042
22.9021 -36.5868 -0.7534 0.8414
31.4480 -30.4974 -0.7647 0.8392
41.6845 -24.3456 -0.8426 0.8244
48.1905 -20.8240 -0.9163 0.8106
84.4231 -24.9322 -1.5365 0.7032
49.0489 9.7250 -0.8728 0.8187
25.8452 8.4633 -0.4747 0.8969
39.5745 18.4948 -0.7625 0.8397
32.0635 20.0088 -0.6597 0.8597
8.3958 8.6334 -0.2102 0.9530
6.5815 8.6446 -0.1896 0.9575
2.5541 8.6045 -0.1567 0.9647
-0.6408 8.6890 -0.1521 0.9657
-1.7115 8.6955 -0.1547 0.9652
6.2864 -47.3138 -2.5014 0.8260
17.4171 -44.4383 -2.5014 0.8260
21.2973 -39.5218 -2.3528 0.8354
30.0830 -33.2316 -2.3492 0.8356
31.3634 -27.1966 -2.1756 0.8468
35.8677 -24.2050 -2.2677 0.8409
39.9056 -20.4173 -2.3492 0.8356
42.0740 -15.4629 -2.3492 0.8356
46.4567 -10.9496 -2.5014 0.8260
47.4372 -5.2751 -2.5014 0.8260
47.7272 0.4762 -2.5014 0.8260
44.4431 5.8420 -2.3492 0.8356
43.4452 11.1593 -2.3508 0.8355
26.5222 10.3526 -1.4921 0.8922
26.5862 14.2789 -1.5816 0.8861
12.5295 8.8243 -0.8031 0.9405
9.5559 8.6263 -0.6747 0.9497
7.5122 8.6389 -0.6000 0.9552
4.4333 8.6353 -0.5087 0.9619
2.0300 8.5593 -0.4610 0.9654
5.3060 47.1174 -2.4849 0.8270
-0.0746 8.6855 -0.4552 0.9658
-1.1303 8.6920 -0.4594 0.9655
-2.2214 8.6987 -0.4705 0.9647
-4.6292 8.6479 -0.5141 0.9615
-22.5267 8.3502 -1.2591 0.9083
-44.5106 -17.2314 -2.5014 0.8260
-42.1115 -22.4664 -2.5014 0.8260
-18.7252 -21.4128 -1.4908 0.8923
6.0228 -47.3481 -2.5014 0.8260
11.6812 -46.2782 -2.5014 0.8260
31.3615 -27.5024 -2.1861 0.8461
35.4366 -24.2024 -2.2490 0.8421
39.7912 -20.6392 -2.3492 0.8356
47.4071 -5.5392 -2.5014 0.8260
26.5828 14.0869 -1.5767 0.8865
9.6628 8.6256 -0.6788 0.9494
4.4958 8.6383 -0.5104 0.9617
3.2294 8.6018 -0.4815 0.9639
5.5680 47.0848 -2.4848 0.8270
-0.0262 8.6852 -0.4552 0.9658
-2.1698 8.6984 -0.4698 0.9647
-2.2536 5.8942 -0.3307 0.9750
-4.5672 8.6477 -0.5125 0.9616
-5.9654 8.5967 -0.5484 0.9590
-7.7737 8.7328 -0.6127 0.9542
-9.9174 8.7460 -0.6930 0.9484
-12.7548 8.7634 -0.8110 0.9399
-45.0766 -0.0732 -2.3624 0.8348
-43.3980 -5.3363 -2.2915 0.8393
-43.5077 -10.7888 -2.3492 0.8356
-44.6059 -16.9833 -2.5014 0.8260
-42.2359 -22.2316 -2.5014 0.8260
-19.4110 -21.9492 -1.5356 0.8893
-9.9574 -19.0028 -1.1243 0.9177
-7.4639 -19.7135 -1.1047 0.9190
-5.1750 -21.0361 -1.1353 0.9169
0.0104 -44.8254 -2.3492 0.8356
11.4232 -46.3425 -2.5014 0.8260
16.9211 -44.6295 -2.5014 0.8260
21.2760 -40.5575 -2.4002 0.8324
22.9571 -33.2808 -2.1189 0.8505
46.3318 -11.4663 -2.5014 0.8260
44.5054 5.3467 -2.3492 0.8356
43.5376 10.6676 -2.3492 0.8356
26.5172 10.0117 -1.4855 0.8927
12.6216 8.6805 -0.8028 0.9405
5.9952 8.6482 -0.5515 0.9587
3.2841 8.6014 -0.4825 0.9638
5.8298 47.0505 -2.4847 0.8270
0.0222 8.6849 -0.4552 0.9658
-1.0319 8.6914 -0.4587 0.9655
-2.1184 8.6980 -0.4692 0.9648
-2.2227 5.9120 -0.3310 0.9750
-9.8059 8.7453 -0.6886 0.9487
-12.6025 8.7625 -0.8044 0.9404
-22.3079 8.5529 -1.2521 0.9087
-44.6998 -16.7346 -2.5014 0.8260
-42.3591 -21.9959 -2.5014 0.8260
-39.4018 -26.9372 -2.5014 0.8260
-19.7658 -22.1010 -1.5539 0.8880
-10.1490 -19.1088 -1.1339 0.9170
5.4951 -47.4122 -2.5014 0.8260
16.6723 -44.7230 -2.5014 0.8260
21.2667 -41.0944 -2.4250 0.8308
31.3577 -28.1230 -2.2075 0.8447
32.6855 -22.8614 -2.0904 0.8523
41.8098 -16.1636 -2.3492 0.8356
46.2672 -11.7242 -2.5014 0.8260
47.7285 -0.3212 -2.5014 0.8260
26.5762 13.7065 -1.5671 0.8871
7.7681 8.6373 -0.6088 0.9545
6.0665 8.6477 -0.5536 0.9586
4.6220 8.6442 -0.5137 0.9615
3.3389 8.6010 -0.4835 0.9637
1.1193 8.6392 -0.4565 0.9657
0.0705 8.6846 -0.4552 0.9658
-0.9828 8.6911 -0.4584 0.9656
-3.2138 8.6949 -0.4858 0.9636
-4.4445 8.6471 -0.5095 0.9618
-9.6960 8.7446 -0.6843 0.9490
-12.4526 8.7616 -0.7980 0.9408
-28.3225 7.2609 -1.5323 0.8895
-39.5512 -26.7174 -2.5014 0.8260
-10.3562 -19.2395 -1.1451 0.9162
-5.3664 -20.8121 -1.1264 0.9175
-2.9139 -22.0090 -1.1635 0.9149
5.2309 -47.4421 -2.5014 0.8260
10.9064 -46.4668 -2.5014 0.8260
25.0400 -37.1795 -2.3492 0.8356
29.3353 -33.8934 -2.3492 0.8356
31.3558 -28.4380 -2.2185 0.8440
39.4409 -21.3011 -2.3492 0.8356
41.7191 -16.3962 -2.3492 0.8356
47.3079 -6.3304 -2.5014 0.8260
47.7260 -0.5870 -2.5014 0.8260
44.5622 4.8507 -2.3492 0.8356
26.5122 9.6738 -1.4791 0.8931
26.6534 17.8968 -1.6825 0.8793
9.9916 8.6236 -0.6917 0.9485
7.8550 8.6367 -0.6118 0.9543
6.1383 8.6473 -0.5558 0.9584
2.2349 8.5688 -0.4641 0.9652
-4.3836 8.6468 -0.5081 0.9619
-5.7617 8.6067 -0.5428 0.9594
-7.5146 8.7312 -0.6037 0.9549
-9.5873 8.7440 -0.6800 0.9494
-16.0369 8.7190 -0.9566 0.9295
-27.5070 7.2154 -1.4904 0.8923
-36.6784 5.0120 -1.9401 0.8622
-40.7002 -9.3737 -2.1888 0.8460
-44.8077 -16.2083 -2.4972 0.8262
-39.6994 -26.4967 -2.5014 0.8260
-14.1260 -19.7831 -1.2740 0.9072
-10.5168 -19.2798 -1.1510 0.9158
-5.4426 -20.6316 -1.1182 0.9181
-3.0184 -21.8619 -1.1566 0.9154
10.6474 -46.5268 -2.5014 0.8260
29.1461 -34.0563 -2.3492 0.8356
31.3538 -28.7561 -2.2296 0.8433
33.7807 -24.1922 -2.1775 0.8467
39.3217 -21.5204 -2.3492 0.8356
41.6272 -16.6282 -2.3492 0.8356
43.7098 9.9387 -2.3492 0.8356
26.5698 13.3307 -1.5579 0.8877
26.6491 17.6795 -1.6760 0.8798
10.1040 8.6229 -0.6961 0.9482
7.9429 8.6362 -0.6149 0.9541
6.2107 8.6469 -0.5579 0.9583
4.7498 8.6502 -0.5172 0.9612
3.4493 8.6002 -0.4856 0.9636
2.2866 8.5712 -0.4649 0.9651
1.2053 8.5536 -0.4527 0.9660
0.1106 5.7393 -0.3008 0.9773
-1.9648 8.6971 -0.4673 0.9649
-4.3231 8.6466 -0.5066 0.9620
-5.6948 8.6100 -0.5410 0.9595
-15.8428 8.7281 -0.9479 0.9301
-26.8812 7.2115 -1.4586 0.8945
-44.6467 0.9222 -2.3403 0.8362
-40.3693 -9.0612 -2.1683 0.8473
-42.7207 -21.2852 -2.5014 0.8260
-36.3920 -30.8827 -2.5014 0.8260
-14.2735 -19.7559 -1.2773 0.9070
-10.5946 -19.1678 -1.1478 0.9160
-7.8829 -19.4973 -1.1022 0.9192
-0.6356 -28.8255 -1.5110 0.8909
4.7022 -47.4974 -2.5014 0.8260
21.1711 -42.6399 -2.4949 0.8264
24.6243 -37.4562 -2.3492 0.8356
28.9559 -34.2180 -2.3492 0.8356
33.3831 -24.1897 -2.1606 0.8478
39.2011 -21.7391 -2.3492 0.8356
41.5339 -16.8599 -2.3492 0.8356
47.7165 -1.1185 -2.5014 0.8260
43.7644 9.6951 -2.3492 0.8356
26.5074 9.3389 -1.4729 0.8935
26.5667 13.1445 -1.5534 0.8881
10.2180 8.6222 -0.7007 0.9479
4.8144 8.6532 -0.5190 0.9611
3.5048 8.5998 -0.4867 0.9635
1.2538 8.5533 -0.4530 0.9660
0.1423 5.7297 -0.3004 0.9773
-1.9139 8.6968 -0.4667 0.9650
-3.0436 8.6775 -0.4819 0.9638
-4.2630 8.6463 -0.5052 0.9621
-5.6282 8.6133 -0.5392 0.9596
-7.3460 8.7302 -0.5980 0.9553
-9.3740 8.7426 -0.6718 0.9500
-21.1413 8.6505 -1.1971 0.9126
-26.2822 7.2079 -1.4283 0.8966
-44.8681 6.6411 -2.3771 0.8339
-37.3625 0.9800 -1.9588 0.8610
-44.7428 -4.2409 -2.3554 0.8353
-21.5769 -23.0708 -1.6555 0.8812
-14.4273 -19.7363 -1.2812 0.9067
-10.7464 -19.1891 -1.1526 0.9157
-5.6873 -20.6252 -1.1213 0.9179
4.4376 -47.5229 -2.5014 0.8260
10.1286 -46.6425 -2.5014 0.8260
15.6720 -45.0833 -2.5014 0.8260
20.9627 -42.8172 -2.4985 0.8262
24.4153 -37.5927 -2.3492 0.8356
31.3498 -29.4020 -2.2525 0.8418
32.9915 -24.1873 -2.1439 0.8489
39.0796 -21.9570 -2.3492 0.8356
45.9946 -12.7519 -2.5014 0.8260
47.1956 -7.1199 -2.5014 0.8260
43.8177 9.4512 -2.3492 0.8356
26.6741 9.2309 -1.4793 0.8931
26.5636 12.9593 -1.5490 0.8884
8.1212 8.6351 -0.6212 0.9536
3.5606 8.5994 -0.4878 0.9634
2.3905 8.5760 -0.4666 0.9650
1.3025 8.5529 -0.4534 0.9659
0.1743 5.7312 -0.3005 0.9773
-2.9954 8.6947 -0.4820 0.9638
-4.2043 8.6484 -0.5040 0.9622
-5.5621 8.6165 -0.5375 0.9598
-7.2630 8.7297 -0.5951 0.9555
-11.8764 8.7580 -0.7733 0.9426
-20.8517 8.6679 -1.1834 0.9135
-25.7072 7.2043 -1.3992 0.8986
-37.4261 1.1902 -1.9624 0.8607
-44.7818 -3.9931 -2.3562 0.8352
-40.1365 -25.8297 -2.5014 0.8260
-36.7337 -30.4754 -2.5014 0.8260
-22.0448 -23.3095 -1.6814 0.8794
-10.9436 -19.2886 -1.1622 0.9150
4.1729 -47.5468 -2.5014 0.8260
9.8686 -46.6982 -2.5014 0.8260
28.5730 -34.5384 -2.3492 0.8356
29.0350 -27.5365 -2.0972 0.8519
41.3435 -17.3214 -2.3492 0.8356
26.5605 12.7751 -1.5446 0.8886
26.6368 17.0374 -1.6571 0.8810
10.4502 8.6208 -0.7100 0.9472
8.2118 8.6346 -0.6245 0.9534
6.4314 8.6455 -0.5647 0.9578
1.3512 8.5526 -0.4538 0.9659
0.2067 5.7448 -0.3013 0.9772
-1.8125 8.6962 -0.4655 0.9650
-4.1462 8.6512 -0.5028 0.9623
-5.4964 8.6197 -0.5358 0.9599
-7.1807 8.7291 -0.5924 0.9557
-9.1658 8.7414 -0.6638 0.9505
-15.2809 8.7544 -0.9230 0.9319
-44.8071 -3.7440 -2.3564 0.8352
-43.0703 -20.5685 -2.5014 0.8260
-36.9028 -30.2704 -2.5014 0.8260
-11.0471 -19.2208 -1.1618 0.9150
-8.1593 -19.2491 -1.0957 0.9197
-3.4958 -21.7349 -1.1537 0.9156
-1.0684 -27.5558 -1.4452 0.8954
3.9080 -47.5693 -2.5014 0.8260
9.6084 -46.7525 -2.5014 0.8260
15.1689 -45.2550 -2.5014 0.8260
20.5086 -43.0989 -2.5014 0.8260
28.3802 -34.6970 -2.3492 0.8356
31.3458 -30.0614 -2.2761 0.8403
38.8326 -22.3909 -2.3492 0.8356
47.6911 -1.9155 -2.5014 0.8260
47.5747 3.8419 -2.5014 0.8260
43.9203 8.9626 -2.3492 0.8356
10.5687 8.6201 -0.7148 0.9468
8.3033 8.6340 -0.6278 0.9532
6.5061 8.6450 -0.5670 0.9576
3.6735 8.5996 -0.4901 0.9632
1.4000 8.5523 -0.4542 0.9659
0.2403 5.7816 -0.3033 0.9771
-9.7963 29.4990 -1.6290 0.8829
-11.6013 8.7563 -0.7617 0.9434
-15.1002 8.7629 -0.9150 0.9325
-44.7786 7.3944 -2.3785 0.8338
-44.8286 -3.4945 -2.3565 0.8352
-40.4217 -25.3811 -2.5014 0.8260
-11.1746 -19.1944 -1.1640 0.9149
-3.5900 -21.5542 -1.1452 0.9162
14.9167 -45.3388 -2.5014 0.8260
20.2683 -43.2124 -2.5014 0.8260
31.1809 -30.2384 -2.2763 0.8403
31.8520 -24.1803 -2.0958 0.8520
38.0478 -22.2216 -2.3092 0.8382
41.1527 -12.1534 -2.2488 0.8421
47.5954 3.5769 -2.5014 0.8260
43.9695 8.7179 -2.3492 0.8356
26.8174 12.5328 -1.5513 0.8882
8.3958 8.6334 -0.6311 0.9529
3.7314 8.6024 -0.4914 0.9631
1.4489 8.5519 -0.4546 0.9659
-1.7115 8.6955 -0.4645 0.9651
3.7657 -28.3421 -2.5014 0.8915
7.1515 -27.6823 -2.5014 0.8915
10.4333 -26.6195 -2.5014 0.8915
13.5631 -25.1693 -2.5014 0.8915
23.6849 -15.9835 -2.4999 0.8916
26.8362 -9.8627 -2.5014 0.8915
28.4160 -3.1599 -2.5014 0.8915
28.5897 0.2852 -2.5014 0.8915
28.3473 3.7262 -2.5014 0.8915
12.5295 8.8243 -1.3408 0.9403
9.5559 8.6263 -1.1263 0.9496
5.8543 8.6491 -0.9137 0.9589
3.1672 8.5809 -0.8002 0.9639
2.0250 8.5385 -0.7677 0.9654
3.0843 27.3889 -2.4114 0.8952
-0.0746 8.6855 -0.7599 0.9657
-1.1303 8.6920 -0.7669 0.9654
-2.2214 8.6987 -0.7855 0.9646
-4.6190 8.6290 -0.8563 0.9615
-6.0176 8.5696 -0.9161 0.9588
-16.5872 8.5450 -1.6324 0.9278
-22.5004 8.3405 -2.0994 0.9081
-28.3575 -3.6473 -2.5014 0.8915
-26.6629 -10.3220 -2.5014 0.8915
-25.2257 -13.4579 -2.5014 0.8915
-21.2575 -19.0825 -2.4992 0.8916
-13.2550 -19.4659 -2.0604 0.9098
-9.8396 -19.0352 -1.8747 0.9176
-7.2368 -19.4400 -1.8148 0.9201
-4.9495 -20.6135 -1.8547 0.9184
0.1557 -26.8510 -2.3492 0.8978
10.2849 -26.6772 -2.5014 0.8915
16.3653 -23.4442 -2.5014 0.8915
19.0696 -21.3027 -2.5014 0.8915
21.4963 -18.8511 -2.5014 0.8915
23.5911 -16.1121 -2.4994 0.8916
25.3802 -13.1644 -2.5014 0.8915
26.7808 -10.0120 -2.5014 0.8915
28.5909 0.1260 -2.5014 0.8915
26.0440 6.5353 -2.3492 0.8978
25.0674 9.6242 -2.3492 0.8978
23.7964 12.6103 -2.3562 0.8975
12.5790 8.7548 -1.3408 0.9403
9.6628 8.6256 -1.1332 0.9493
7.5967 8.6383 -1.0064 0.9549
4.4958 8.6383 -0.8520 0.9617
3.2214 8.5805 -0.8019 0.9639
-0.0262 8.6852 -0.7599 0.9657
-1.0810 8.6917 -0.7663 0.9654
-2.1698 8.6984 -0.7843 0.9646
-9.9174 8.7460 -1.1569 0.9483
-26.0885 6.3794 -2.3497 0.8978
-26.8514 -0.0436 -2.3492 0.8978
-25.3003 -13.3172 -2.5014 0.8915
-23.5123 -16.2672 -2.5014 0.8915
-21.3822 -18.9804 -2.5014 0.8915
-17.7883 -20.1142 -2.3492 0.8978
-13.4294 -19.4879 -2.0706 0.9093
-9.9839 -19.0534 -1.8819 0.9173
-7.3449 -19.3994 -1.8148 0.9201
10.1362 -26.7341 -2.5014 0.8915
16.2345 -23.5350 -2.5014 0.8915
18.9506 -21.4086 -2.5014 0.8915
21.3909 -18.9705 -2.5014 0.8915
27.7538 -6.8686 -2.5014 0.8915
28.3790 -3.4762 -2.5014 0.8915
23.8611 12.4750 -2.3557 0.8975
12.6216 8.6805 -1.3402 0.9403
9.7710 8.6250 -1.1403 0.9490
0.0222 8.6849 -0.7598 0.9657
-1.0319 8.6914 -0.7657 0.9655
-2.2223 5.9108 -0.5525 0.9750
-4.4990 8.6346 -0.8518 0.9617
-12.6025 8.7625 -1.3429 0.9402
-16.1927 8.5714 -1.6029 0.9291
-21.5776 8.2729 -2.0218 0.9114
-23.7276 2.9735 -2.0921 0.9084
-26.7762 -10.0244 -2.5014 0.8915
-23.6026 -16.1360 -2.5014 0.8915
-17.9000 -20.0148 -2.3492 0.8978
-7.4529 -19.3582 -1.8148 0.9201
-5.1643 -20.4996 -1.8495 0.9186
6.6881 -27.7979 -2.5014 0.8915
9.9871 -26.7901 -2.5014 0.8915
18.8311 -21.5138 -2.5014 0.8915
23.4030 -16.3689 -2.4986 0.8917
26.6676 -10.3097 -2.5014 0.8915
27.7151 -7.0230 -2.5014 0.8915
28.3592 -3.6342 -2.5014 0.8915
28.5905 -0.1924 -2.5014 0.8915
28.4056 3.2522 -2.5014 0.8915
26.1152 6.2448 -2.3492 0.8978
12.6529 8.5986 -1.3384 0.9404
9.8806 8.6243 -1.1474 0.9487
7.7681 8.6373 -1.0163 0.9544
4.6220 8.6442 -0.8576 0.9614
2.1781 8.5456 -0.7715 0.9652
1.1193 8.6392 -0.7621 0.9656
-0.9828 8.6911 -0.7652 0.9655
-2.0670 8.6977 -0.7821 0.9647
-3.2138 8.6949 -0.8110 0.9635
-4.4395 8.6374 -0.8496 0.9618
-5.8133 8.5799 -0.9067 0.9592
-7.6001 8.7317 -1.0128 0.9546
-16.0007 8.5842 -1.5886 0.9297
-26.0253 6.6720 -2.3506 0.8977
-23.7802 3.1147 -2.0983 0.9082
-26.8503 0.2555 -2.3492 0.8978
-28.4145 -3.1731 -2.5014 0.8915
-27.8256 -6.5719 -2.5014 0.8915
-26.8316 -9.8751 -2.5014 0.8915
-25.4471 -13.0346 -2.5014 0.8915
-23.6921 -16.0043 -2.5014 0.8915
-21.5922 -18.7411 -2.5014 0.8915
-18.0112 -19.9148 -2.3492 0.8978
-10.2758 -19.0902 -1.8968 0.9166
-7.5605 -19.3164 -1.8148 0.9201
-5.2712 -20.4429 -1.8470 0.9187
-0.2928 -26.8499 -2.3492 0.8978
3.1335 -28.4189 -2.5014 0.8915
12.9991 -25.4652 -2.5014 0.8915
15.9713 -23.7143 -2.5014 0.8915
21.1783 -19.2076 -2.5014 0.8915
25.1567 -13.5865 -2.5014 0.8915
28.3385 -3.7921 -2.5014 0.8915
28.5890 -0.3517 -2.5014 0.8915
26.1496 6.0992 -2.3492 0.8978
25.2247 9.2041 -2.3492 0.8978
23.9883 12.2032 -2.3547 0.8976
13.4056 9.0014 -1.4127 0.9372
9.9916 8.6236 -1.1547 0.9484
6.1383 8.6473 -0.9278 0.9583
2.2295 8.5479 -0.7729 0.9652
-4.3802 8.6402 -0.8475 0.9619
-7.5146 8.7312 -1.0078 0.9548
-9.5873 8.7440 -1.1352 0.9492
-12.3051 8.7606 -1.3215 0.9412
-15.8121 8.5967 -1.5746 0.9303
-21.1867 8.3949 -1.9938 0.9126
-25.9925 6.8181 -2.3510 0.8977
-26.8484 0.4050 -2.3492 0.8978
-28.4317 -3.0148 -2.5014 0.8915
-27.8617 -6.4168 -2.5014 0.8915
-26.8862 -9.7255 -2.5014 0.8915
-23.7808 -15.8721 -2.5014 0.8915
-21.6963 -18.6206 -2.5014 0.8915
-13.9633 -19.5552 -2.1022 0.9080
-7.6680 -19.2739 -1.8148 0.9201
-2.9896 -21.6529 -1.9124 0.9160
2.9751 -28.4359 -2.5014 0.8915
6.3781 -27.8707 -2.5014 0.8915
9.6881 -26.8997 -2.5014 0.8915
12.8571 -25.5372 -2.5014 0.8915
15.8390 -23.8029 -2.5014 0.8915
18.5903 -21.7222 -2.5014 0.8915
21.0710 -19.3253 -2.5014 0.8915
23.2149 -16.6255 -2.4982 0.8917
25.0806 -13.7264 -2.5014 0.8915
26.5512 -10.6060 -2.5014 0.8915
27.6352 -7.3313 -2.5014 0.8915
28.3170 -3.9498 -2.5014 0.8915
28.5866 -0.5109 -2.5014 0.8915
26.1832 5.9535 -2.3492 0.8978
23.8206 8.5417 -2.2140 0.9034
24.0507 12.0668 -2.3542 0.8976
10.1040 8.6229 -1.1621 0.9481
6.2107 8.6469 -0.9314 0.9582
1.1996 8.5133 -0.7522 0.9661
0.1106 5.7393 -0.5022 0.9772
-0.8848 8.6905 -0.7642 0.9655
-3.1060 8.7000 -0.8082 0.9636
-4.3213 8.6429 -0.8454 0.9619
-7.4299 8.7307 -1.0030 0.9550
-12.1600 8.7598 -1.3112 0.9416
-20.9952 8.4545 -1.9802 0.9131
-26.8458 0.5545 -2.3492 0.8978
-28.4481 -2.8564 -2.5014 0.8915
-26.9399 -9.5757 -2.5014 0.8915
-25.5907 -12.7503 -2.5014 0.8915
-14.1450 -19.5781 -2.1131 0.9076
-7.7752 -19.2310 -1.8148 0.9201
-3.1038 -21.5923 -1.9085 0.9161
18.4690 -21.8254 -2.5014 0.8915
20.9631 -19.4423 -2.5014 0.8915
26.4917 -10.7538 -2.5014 0.8915
27.5940 -7.4851 -2.5014 0.8915
26.2159 5.8076 -2.3492 0.8978
24.1933 8.5236 -2.2442 0.9021
24.1123 11.9301 -2.3536 0.8976
13.4060 8.7867 -1.4024 0.9377
8.0316 8.6357 -1.0318 0.9538
4.8144 8.6532 -0.8663 0.9610
2.3328 8.5526 -0.7756 0.9650
0.1423 5.7296 -0.5014 0.9772
-0.8359 8.6902 -0.7638 0.9656
-4.2627 8.6457 -0.8433 0.9620
-12.0171 8.7589 -1.3010 0.9420
-15.4970 8.6504 -1.5527 0.9312
-23.9402 3.5435 -2.1173 0.9074
-26.8422 0.7040 -2.3492 0.8978
-27.9315 -6.1062 -2.5014 0.8915
-14.3286 -19.6013 -2.1242 0.9071
-10.7225 -19.1465 -1.9199 0.9157
-3.2176 -21.5320 -1.9047 0.9163
2.6535 -28.4164 -2.4969 0.8917
6.0672 -27.9400 -2.5014 0.8915
9.3879 -27.0059 -2.5014 0.8915
12.5719 -25.6788 -2.5014 0.8915
18.3472 -21.9279 -2.5014 0.8915
20.8545 -19.5587 -2.5014 0.8915
24.9262 -14.0049 -2.5014 0.8915
26.4314 -10.9012 -2.5014 0.8915
28.2712 -4.2650 -2.5014 0.8915
26.2478 5.6615 -2.3492 0.8978
25.3750 8.7813 -2.3492 0.8978
13.5026 8.7428 -1.4073 0.9375
10.3333 8.6215 -1.1774 0.9474
8.1212 8.6351 -1.0371 0.9535
3.5585 8.5943 -0.8138 0.9633
2.3847 8.5550 -0.7770 0.9650
1.2963 8.5126 -0.7533 0.9660
-0.7871 8.6899 -0.7634 0.9656
-2.9954 8.6947 -0.8046 0.9637
-4.2043 8.6484 -0.8413 0.9621
-5.5472 8.5933 -0.8949 0.9598
-9.2692 8.7420 -1.1147 0.9501
-11.8764 8.7580 -1.2910 0.9425
-20.4617 8.5058 -1.9387 0.9149
-23.9941 3.6881 -2.1239 0.9071
-27.9651 -5.9505 -2.5014 0.8915
-25.7311 -12.4645 -2.5014 0.8915
-24.0427 -15.4726 -2.5014 0.8915
-18.4503 -19.5087 -2.3492 0.8978
-14.5139 -19.6246 -2.1355 0.9066
-10.8739 -19.1656 -1.9278 0.9153
9.2374 -27.0578 -2.5014 0.8915
12.4287 -25.7484 -2.5014 0.8915
15.4391 -24.0642 -2.5014 0.8915
20.7452 -19.6746 -2.5014 0.8915
22.9301 -17.0081 -2.4977 0.8917
26.3703 -11.0482 -2.5014 0.8915
27.5089 -7.7920 -2.5014 0.8915
26.2790 5.5152 -2.3492 0.8978
13.6379 8.7231 -1.4164 0.9371
10.4502 8.6208 -1.1852 0.9471
8.2118 8.6346 -1.0425 0.9533
13.5913 23.8005 -2.3979 0.8958
2.4368 8.5574 -0.7784 0.9649
1.3448 8.5122 -0.7540 0.9660
0.2067 5.7447 -0.5029 0.9772
-1.8125 8.6962 -0.7772 0.9650
-5.4817 8.5966 -0.8920 0.9599
-7.1807 8.7291 -0.9889 0.9556
-9.1658 8.7414 -1.1081 0.9504
-15.1966 8.7061 -1.5323 0.9321
-25.3461 7.2556 -2.3066 0.8996
-24.0484 3.8337 -2.1305 0.9068
-28.4918 -2.3807 -2.5014 0.8915
-27.9978 -5.7947 -2.5014 0.8915
-27.0961 -9.1243 -2.5014 0.8915
-25.8001 -12.3210 -2.5014 0.8915
-24.1285 -15.3385 -2.5014 0.8915
-18.5586 -19.4056 -2.3492 0.8978
-11.0265 -19.1848 -1.9359 0.9150
-8.0954 -19.0984 -1.8148 0.9201
2.1985 -26.7613 -2.3492 0.8978
5.7557 -28.0058 -2.5014 0.8915
22.8355 -17.1359 -2.4978 0.8917
24.7687 -14.2816 -2.5014 0.8915
27.4650 -7.9451 -2.5014 0.8915
28.5681 -1.1475 -2.5014 0.8915
28.4984 2.3014 -2.5014 0.8915
13.8348 8.7408 -1.4317 0.9364
10.5687 8.6201 -1.1932 0.9467
3.6735 8.5996 -0.8181 0.9631
2.4891 8.5597 -0.7799 0.9648
0.2403 5.7815 -0.5062 0.9770
-8.6715 26.1118 -2.4072 0.8954
-4.0884 8.6539 -0.8374 0.9623
-5.4167 8.5999 -0.8892 0.9600
-9.0636 8.7407 -1.1016 0.9507
-11.6013 8.7563 -1.2716 0.9433
-25.3292 7.4036 -2.3087 0.8995
-24.0750 3.9755 -2.1348 0.9067
-28.4911 -2.2209 -2.5002 0.8916
-28.0296 -5.6387 -2.5014 0.8915
-24.2135 -15.2039 -2.5014 0.8915
-18.6664 -19.3020 -2.3492 0.8978
-14.8908 -19.6722 -2.1586 0.9057
-11.1804 -19.2042 -1.9441 0.9146
-3.5564 -21.3523 -1.8938 0.9168
1.9713 -25.7519 -2.2596 0.9015
5.5996 -28.0374 -2.5014 0.8915
8.9354 -27.1590 -2.5014 0.8915
12.1412 -25.8852 -2.5014 0.8915
17.9783 -22.2314 -2.5014 0.8915
20.5248 -19.9044 -2.5014 0.8915
22.7402 -17.2632 -2.4979 0.8917
24.6888 -14.4194 -2.5014 0.8915
26.2456 -11.3412 -2.5014 0.8915
27.4204 -8.0979 -2.5014 0.8915
28.1960 -4.7367 -2.5014 0.8915
28.5107 2.1427 -2.5014 0.8915
10.6887 8.6193 -1.2013 0.9464
8.3958 8.6334 -1.0536 0.9528
6.5815 8.6446 -0.9506 0.9573
2.5416 8.5621 -0.7814 0.9648
-0.6408 8.6890 -0.7623 0.9656
-1.7115 8.6955 -0.7754 0.9650
2.6832 -20.1948 -2.5014 0.9212
5.0958 -19.7247 -2.5014 0.9212
7.4341 -18.9675 -2.5014 0.9212
11.7537 -16.6397 -2.5014 0.9212
15.3915 -13.3466 -2.5014 0.9212
16.8868 -11.3959 -2.5014 0.9212
18.1363 -9.2793 -2.5014 0.9212
19.1218 -7.0276 -2.5014 0.9212
18.5312 4.7599 -2.3492 0.9258
17.8231 6.9570 -2.3492 0.9258
16.8555 9.0528 -2.3492 0.9258
9.5559 8.6263 -1.5807 0.9494
7.5122 8.6389 -1.4057 0.9549
3.1562 8.5513 -1.1192 0.9639
2.0175 8.5069 -1.0735 0.9654
2.1701 19.2704 -2.3811 0.9248
-0.0746 8.6855 -1.0665 0.9656
-1.1303 8.6920 -1.0762 0.9653
-2.2214 8.6987 -1.1023 0.9645
-2.2918 5.8956 -0.7767 0.9748
-17.0084 8.7620 -2.3492 0.9258
-17.9399 6.6500 -2.3492 0.9258
-19.2153 2.1910 -2.3746 0.9250
-20.2058 -2.5989 -2.5014 0.9212
-18.9983 -7.3548 -2.5014 0.9212
-15.1600 -13.6089 -2.5014 0.9212
-13.4108 -15.3356 -2.5014 0.9212
-10.7687 -15.8145 -2.3492 0.9258
-6.6749 -17.9306 -2.3492 0.9258
-2.1940 -19.0065 -2.3492 0.9258
0.1110 -19.1324 -2.3492 0.9258
9.5642 -17.9876 -2.5014 0.9212
13.5878 -15.1790 -2.5014 0.9212
15.3169 -13.4321 -2.5014 0.9212
18.0843 -9.3801 -2.5014 0.9212
19.0824 -7.1340 -2.5014 0.9212
19.8026 -4.7840 -2.5014 0.9212
20.3721 0.0898 -2.5014 0.9212
20.2130 2.5426 -2.5014 0.9212
18.5574 4.6566 -2.3492 0.9258
17.8615 6.8576 -2.3492 0.9258
16.9057 8.9587 -2.3492 0.9258
9.6628 8.6256 -1.5904 0.9491
5.9245 8.6486 -1.2872 0.9586
4.4750 8.5983 -1.1902 0.9617
2.0681 8.5090 -1.0752 0.9653
2.2773 19.2576 -2.3810 0.9248
-1.0810 8.6917 -1.0754 0.9653
-4.5374 8.5912 -1.1930 0.9616
-5.9024 8.5059 -1.2712 0.9591
-9.9174 8.7460 -1.6236 0.9481
-17.9026 6.7497 -2.3492 0.9258
-18.5851 4.5446 -2.3492 0.9258
-20.3723 -0.0331 -2.5014 0.9212
-16.7534 -11.5910 -2.5014 0.9212
-15.2356 -13.5243 -2.5014 0.9212
-8.8802 -16.9470 -2.3492 0.9258
-6.7747 -17.8931 -2.3492 0.9258
-2.2998 -18.9940 -2.3492 0.9258
0.0044 -19.1327 -2.3492 0.9258
7.2224 -19.0491 -2.5014 0.9212
9.4639 -18.0406 -2.5014 0.9212
13.5030 -15.2544 -2.5014 0.9212
16.7588 -11.5833 -2.5014 0.9212
19.0423 -7.2401 -2.5014 0.9212
19.7757 -4.8941 -2.5014 0.9212
20.2211 -2.4769 -2.5014 0.9212
20.3723 -0.0237 -2.5014 0.9212
18.6546 4.5708 -2.3582 0.9255
9.7710 8.6250 -1.6003 0.9488
7.6820 8.6378 -1.4193 0.9545
4.5372 8.6004 -1.1939 0.9616
2.3845 19.2442 -2.3810 0.9248
0.0222 8.6849 -1.0664 0.9656
-5.8354 8.5102 -1.2670 0.9593
-7.6865 8.7323 -1.4284 0.9542
-9.8059 8.7453 -1.6133 0.9484
-12.6025 8.7625 -1.8847 0.9400
-18.9842 2.3791 -2.3492 0.9258
-18.0800 -9.3885 -2.5014 0.9212
-15.3107 -13.4392 -2.5014 0.9212
-13.5808 -15.1853 -2.5014 0.9212
-10.9441 -15.6936 -2.3492 0.9258
-8.9745 -16.8973 -2.3492 0.9258
2.3455 -20.2368 -2.5014 0.9212
4.7655 -19.8071 -2.5014 0.9212
7.1162 -19.0890 -2.5014 0.9212
15.1664 -13.6019 -2.5014 0.9212
16.6940 -11.6764 -2.5014 0.9212
17.9787 -9.5809 -2.5014 0.9212
20.2070 -2.5895 -2.5014 0.9212
20.2401 2.3173 -2.5014 0.9212
17.0044 8.7699 -2.3492 0.9258
12.6529 8.5986 -1.8784 0.9402
9.8806 8.6243 -1.6103 0.9485
4.6027 8.6081 -1.1985 0.9614
3.3220 8.5574 -1.1271 0.9637
2.1698 8.5131 -1.0787 0.9652
1.1193 8.6392 -1.0696 0.9655
0.0705 8.6846 -1.0664 0.9656
-0.9828 8.6911 -1.0739 0.9654
-2.0670 8.6977 -1.0977 0.9646
-3.2049 8.6708 -1.1350 0.9634
-4.4194 8.5984 -1.1870 0.9618
-5.7689 8.5145 -1.2628 0.9594
-7.6001 8.7317 -1.4214 0.9544
-9.6960 8.7446 -1.6032 0.9487
-12.4526 8.7616 -1.8695 0.9405
-16.8597 9.0450 -2.3492 0.9258
-20.2464 -2.2609 -2.5014 0.9212
-19.1186 -7.0364 -2.5014 0.9212
-6.9735 -17.8166 -2.3492 0.9258
-4.7771 -18.5267 -2.3492 0.9258
-2.5112 -18.9672 -2.3492 0.9258
-0.2087 -19.1316 -2.3492 0.9258
4.6551 -19.8333 -2.5014 0.9212
9.2624 -18.1449 -2.5014 0.9212
11.3802 -16.8974 -2.5014 0.9212
15.0904 -13.6862 -2.5014 0.9212
16.6288 -11.7692 -2.5014 0.9212
17.9251 -9.6809 -2.5014 0.9212
19.7199 -5.1141 -2.5014 0.9212
20.1923 -2.7020 -2.5014 0.9212
20.2526 2.2045 -2.5014 0.9212
19.1217 4.4600 -2.4109 0.9239
17.0530 8.6751 -2.3492 0.9258
13.4056 9.0014 -1.9826 0.9370
7.8550 8.6367 -1.4335 0.9540
6.1383 8.6473 -1.3021 0.9582
4.6714 8.6209 -1.2039 0.9613
3.3778 8.5595 -1.1298 0.9636
2.2209 8.5151 -1.0805 0.9652
1.1440 8.4596 -1.0482 0.9662
-2.0159 8.6974 -1.0962 0.9647
-3.1536 8.6804 -1.1340 0.9635
-4.3609 8.6019 -1.1842 0.9619
-5.7028 8.5187 -1.2587 0.9595
-7.5146 8.7312 -1.4144 0.9546
-9.5873 8.7440 -1.5932 0.9491
-12.3051 8.7606 -1.8547 0.9409
-18.5066 4.8545 -2.3492 0.9258
-20.3700 0.3073 -2.5014 0.9212
-20.2587 -2.1481 -2.5014 0.9212
-16.9448 -11.3095 -2.5014 0.9212
-13.7491 -15.0331 -2.5014 0.9212
-11.1182 -15.5707 -2.3492 0.9258
-7.0726 -17.7775 -2.3492 0.9258
-2.6168 -18.9529 -2.3492 0.9258
2.1181 -20.2449 -2.4993 0.9212
4.5446 -19.8589 -2.5014 0.9212
6.9031 -19.1671 -2.5014 0.9212
13.2463 -15.4779 -2.5014 0.9212
18.9187 -7.5572 -2.5014 0.9212
19.6911 -5.2238 -2.5014 0.9212
20.1769 -2.8144 -2.5014 0.9212
20.3690 -0.3640 -2.5014 0.9212
20.2646 2.0917 -2.5014 0.9212
17.1010 8.5800 -2.3492 0.9258
13.4049 8.8930 -1.9752 0.9372
10.1040 8.6229 -1.6310 0.9479
6.2107 8.6469 -1.3072 0.9580
3.4338 8.5615 -1.1326 0.9635
2.2722 8.5172 -1.0824 0.9651
1.1937 8.4714 -1.0504 0.9661
-0.8848 8.6905 -1.0726 0.9654
-4.3026 8.6055 -1.1813 0.9620
-5.6371 8.5228 -1.2547 0.9597
-7.4299 8.7307 -1.4076 0.9548
-12.1600 8.7598 -1.8401 0.9414
-15.9375 8.7802 -2.2342 0.9293
-17.7478 7.1468 -2.3492 0.9258
-18.9418 2.6959 -2.3492 0.9258
-20.3679 0.4207 -2.5014 0.9212
-19.8777 -4.4617 -2.5014 0.9212
-19.1957 -6.8231 -2.5014 0.9212
-15.5331 -13.1816 -2.5014 0.9212
-11.2048 -15.5085 -2.3492 0.9258
-7.1715 -17.7378 -2.3492 0.9258
-4.9832 -18.4724 -2.3492 0.9258
-0.4218 -19.1281 -2.3492 0.9258
2.0039 -20.2419 -2.4975 0.9213
9.0598 -18.2469 -2.5014 0.9212
13.1599 -15.5514 -2.5014 0.9212
14.9370 -13.8534 -2.5014 0.9212
16.4967 -11.9537 -2.5014 0.9212
17.8161 -9.8800 -2.5014 0.9212
18.8763 -7.6625 -2.5014 0.9212
19.6618 -5.3334 -2.5014 0.9212
20.1610 -2.9267 -2.5014 0.9212
20.3667 -0.4774 -2.5014 0.9212
18.0455 6.3576 -2.3492 0.9258
17.1485 8.4846 -2.3492 0.9258
13.4060 8.7867 -1.9681 0.9374
10.2180 8.6222 -1.6416 0.9475
8.0316 8.6357 -1.4480 0.9536
6.2837 8.6464 -1.3124 0.9578
3.4901 8.5636 -1.1354 0.9634
2.3237 8.5192 -1.0842 0.9650
1.2423 8.4745 -1.0517 0.9661
-1.9139 8.6968 -1.0934 0.9647
-3.0436 8.6775 -1.1291 0.9636
-4.2446 8.6089 -1.1785 0.9621
-5.5719 8.5270 -1.2507 0.9598
-9.3740 8.7426 -1.5739 0.9497
-17.7077 7.2456 -2.3492 0.9258
-18.9265 2.8014 -2.3492 0.9258
-20.3653 0.5341 -2.5014 0.9212
-20.2814 -1.9224 -2.5014 0.9212
-19.2334 -6.7161 -2.5014 0.9212
-18.2847 -8.9834 -2.5014 0.9212
-17.0697 -11.1201 -2.5014 0.9212
-15.6062 -13.0949 -2.5014 0.9212
-7.2702 -17.6976 -2.3492 0.9258
-5.0860 -18.4443 -2.3492 0.9258
-2.8277 -18.9226 -2.3492 0.9258
-0.5283 -19.1254 -2.3492 0.9258
4.3231 -19.9083 -2.5014 0.9212
8.9580 -18.2971 -2.5014 0.9212
13.0731 -15.6245 -2.5014 0.9212
14.8596 -13.9363 -2.5014 0.9212
16.4298 -12.0454 -2.5014 0.9212
17.7609 -9.9790 -2.5014 0.9212
18.8334 -7.7675 -2.5014 0.9212
19.6317 -5.4428 -2.5014 0.9212
20.3637 -0.5908 -2.5014 0.9212
13.5026 8.7428 -1.9751 0.9372
8.1212 8.6351 -1.4555 0.9534
6.3572 8.6460 -1.3177 0.9577
4.8557 8.6142 -1.2142 0.9609
3.5467 8.5657 -1.1383 0.9633
2.3753 8.5213 -1.0862 0.9650
1.2908 8.4766 -1.0528 0.9660
-0.7871 8.6899 -1.0713 0.9654
-1.8631 8.6965 -1.0920 0.9648
-2.9954 8.6947 -1.1292 0.9636
-5.5070 8.5311 -1.2468 0.9599
-7.2630 8.7297 -1.3943 0.9553
-11.8764 8.7580 -1.8119 0.9423
-15.3458 8.6785 -2.1647 0.9314
-17.6671 7.3441 -2.3492 0.9258
-20.2918 -1.8094 -2.5014 0.9212
-19.2705 -6.6088 -2.5014 0.9212
-17.1313 -11.0248 -2.5014 0.9212
-15.6789 -13.0077 -2.5014 0.9212
-13.9983 -14.8013 -2.5014 0.9212
-9.4415 -16.6409 -2.3492 0.9258
-5.1886 -18.4157 -2.3492 0.9258
-2.9330 -18.9066 -2.3492 0.9258
1.7758 -20.2343 -2.4940 0.9214
4.2122 -19.9321 -2.5014 0.9212
14.7818 -14.0189 -2.5014 0.9212
16.3625 -12.1367 -2.5014 0.9212
17.7050 -10.0778 -2.5014 0.9212
18.7898 -7.8723 -2.5014 0.9212
20.1271 -3.1511 -2.5014 0.9212
20.3601 -0.7042 -2.5014 0.9212
20.2967 1.7529 -2.5014 0.9212
17.2420 8.2931 -2.3492 0.9258
6.4314 8.6455 -1.3230 0.9575
3.6036 8.5677 -1.1412 0.9632
2.4271 8.5233 -1.0881 0.9649
0.2067 5.7447 -0.7058 0.9771
-0.7383 8.6896 -1.0708 0.9655
-5.4425 8.5351 -1.2429 0.9600
-7.1807 8.7291 -1.3878 0.9555
-9.1658 8.7414 -1.5552 0.9502
-17.6259 7.4423 -2.3492 0.9258
-18.3939 5.2655 -2.3492 0.9258
-20.3581 0.7609 -2.5014 0.9212
-20.3015 -1.6963 -2.5014 0.9212
-14.0805 -14.7231 -2.5014 0.9212
-11.4623 -15.3192 -2.3492 0.9258
1.6430 -19.9997 -2.4639 0.9223
4.1011 -19.9552 -2.5014 0.9212
10.9053 -17.2077 -2.5014 0.9212
12.8982 -15.7691 -2.5014 0.9212
14.7035 -14.1010 -2.5014 0.9212
16.2947 -12.2276 -2.5014 0.9212
17.6486 -10.1762 -2.5014 0.9212
19.5699 -5.6612 -2.5014 0.9212
20.3559 -0.8176 -2.5014 0.9212
19.7680 4.0340 -2.4772 0.9219
18.1492 6.0553 -2.3492 0.9258
13.8348 8.7408 -2.0093 0.9362
6.5061 8.6450 -1.3285 0.9573
4.9978 8.6398 -1.2255 0.9606
3.6607 8.5698 -1.1442 0.9631
2.4791 8.5254 -1.0901 0.9649
1.3883 8.4807 -1.0552 0.9660
-7.0991 8.7287 -1.3815 0.9557
-9.0636 8.7407 -1.5461 0.9505
-15.0493 8.7334 -2.1364 0.9323
-17.5842 7.5404 -2.3492 0.9258
-18.3643 5.3678 -2.3492 0.9258
-18.8771 3.1172 -2.3492 0.9258
-20.3106 -1.5833 -2.5014 0.9212
-19.9722 -4.0178 -2.5014 0.9212
-19.3429 -6.3938 -2.5014 0.9212
-7.5649 -17.5737 -2.3492 0.9258
-5.3934 -18.3568 -2.3492 0.9258
-0.8477 -19.1139 -2.3492 0.9258
12.8102 -15.8407 -2.5014 0.9212
18.7010 -8.0811 -2.5014 0.9212
19.5381 -5.7701 -2.5014 0.9212
20.3150 1.5267 -2.5014 0.9212
17.3333 8.1005 -2.3492 0.9258
16.2315 10.1290 -2.3492 0.9258
10.6887 8.6193 -1.6860 0.9462
8.3958 8.6334 -1.4787 0.9526
6.5815 8.6446 -1.3340 0.9572
3.7182 8.5718 -1.1472 0.9630
2.5313 8.5274 -1.0922 0.9648
1.4372 8.4828 -1.0564 0.9659
-1.7115 8.6955 -1.0882 0.9649
2.0801 -15.6556 -2.5014 0.9380
5.7631 -14.7041 -2.5014 0.9380
7.4920 -13.9031 -2.5014 0.9380
13.0911 -8.8344 -2.5014 0.9380
14.8238 -5.4480 -2.5014 0.9380
15.3720 -3.6231 -2.5014 0.9380
15.6965 -1.7455 -2.5014 0.9380
15.2059 3.9058 -2.4866 0.9384
13.8170 5.3933 -2.3492 0.9417
13.0669 7.0180 -2.3492 0.9417
7.5122 8.6389 -1.8132 0.9547
5.8543 8.6491 -1.6542 0.9586
3.1280 8.4747 -1.4308 0.9641
1.6706 14.8351 -2.3645 0.9413
-0.0746 8.6855 -1.3757 0.9654
-1.1303 8.6920 -1.3883 0.9651
-2.2214 8.6987 -1.4220 0.9643
-4.5550 8.5093 -1.5287 0.9617
-5.8860 8.3822 -1.6222 0.9594
-14.4554 3.4496 -2.3538 0.9416
-15.6915 1.7892 -2.5014 0.9380
-15.3075 -3.8865 -2.5014 0.9380
-7.2522 -14.0297 -2.5014 0.9380
-5.4769 -14.7125 -2.4865 0.9384
0.0916 -15.7929 -2.5014 0.9380
11.8741 -10.4130 -2.5014 0.9380
14.7932 -5.5305 -2.5014 0.9380
15.2502 3.8268 -2.4903 0.9383
13.1058 6.9451 -2.3492 0.9417
12.1740 8.4729 -2.3492 0.9417
9.6628 8.6256 -2.0515 0.9489
7.5967 8.6383 -1.8220 0.9545
3.1824 8.4766 -1.4341 0.9640
1.7532 14.8254 -2.3645 0.9413
-0.0262 8.6852 -1.3756 0.9654
-1.0810 8.6917 -1.3872 0.9652
-2.1698 8.6984 -1.4199 0.9643
-2.2524 5.8912 -0.9989 0.9748
-7.7737 8.7328 -1.8518 0.9538
-13.8786 5.2326 -2.3492 0.9417
-14.4078 3.5231 -2.3492 0.9417
-15.6813 1.8765 -2.5014 0.9380
-15.7932 -0.0257 -2.5014 0.9380
-15.3289 -3.8012 -2.5014 0.9380
-14.7596 -5.6196 -2.5014 0.9380
-12.9878 -8.9857 -2.5014 0.9380
-11.8111 -10.4844 -2.5014 0.9380
-7.3302 -13.9890 -2.5014 0.9380
-5.5642 -14.6961 -2.4889 0.9383
-1.8969 -15.6664 -2.4994 0.9381
0.0036 -15.7932 -2.5014 0.9380
5.5990 -14.7674 -2.5014 0.9380
8.9676 -13.0003 -2.5014 0.9380
11.8160 -10.4790 -2.5014 0.9380
12.9919 -8.9797 -2.5014 0.9380
13.9788 -7.3497 -2.5014 0.9380
15.6760 -1.9202 -2.5014 0.9380
13.8762 5.2390 -2.3492 0.9417
13.1443 6.8720 -2.3492 0.9417
7.6820 8.6378 -1.8309 0.9543
4.5346 8.5955 -1.5392 0.9614
-4.4377 8.5169 -1.5211 0.9619
-5.7712 8.4166 -1.6163 0.9595
-7.6865 8.7323 -1.8425 0.9540
-9.8059 8.7453 -2.0810 0.9482
-13.8492 5.3098 -2.3492 0.9417
-14.7907 -5.5373 -2.5014 0.9380
-13.0376 -8.9133 -2.5014 0.9380
-10.5282 -11.7721 -2.5014 0.9380
-5.6516 -14.6796 -2.4914 0.9383
-3.8156 -15.1462 -2.4739 0.9387
-0.0843 -15.7930 -2.5014 0.9380
8.8951 -13.0500 -2.5014 0.9380
10.4020 -11.8838 -2.5014 0.9380
11.7574 -10.5446 -2.5014 0.9380
12.9417 -9.0519 -2.5014 0.9380
13.9377 -7.4274 -2.5014 0.9380
15.6651 -2.0075 -2.5014 0.9380
15.7928 -0.1063 -2.5014 0.9380
15.6907 1.7964 -2.5014 0.9380
15.3380 3.6677 -2.4978 0.9381
13.1823 6.7987 -2.3492 0.9417
12.2676 8.3368 -2.3492 0.9417
9.8806 8.6243 -2.0772 0.9483
7.7681 8.6373 -1.8399 0.9540
3.2920 8.4803 -1.4408 0.9638
0.0705 8.6846 -1.3756 0.9654
-4.3795 8.5206 -1.5174 0.9619
-5.7135 8.4326 -1.6133 0.9596
-7.6001 8.7317 -1.8335 0.9542
-9.6960 8.7446 -2.0680 0.9485
-12.1306 8.5350 -2.3492 0.9417
-14.3676 3.6834 -2.3492 0.9417
-15.6595 2.0510 -2.5014 0.9380
-15.7925 0.1503 -2.5014 0.9380
-15.6956 -1.7527 -2.5014 0.9380
-15.3703 -3.6302 -2.5014 0.9380
-13.0871 -8.8405 -2.5014 0.9380
-9.1059 -12.9038 -2.5014 0.9380
-7.4856 -13.9065 -2.5014 0.9380
-5.7389 -14.6622 -2.4938 0.9382
-3.8983 -15.1184 -2.4728 0.9387
-0.1722 -15.7923 -2.5014 0.9380
1.7309 -15.6981 -2.5014 0.9380
3.6088 -15.3754 -2.5014 0.9380
8.8223 -13.0994 -2.5014 0.9380
11.6985 -10.6099 -2.5014 0.9380
12.8911 -9.1238 -2.5014 0.9380
13.8961 -7.5049 -2.5014 0.9380
14.6988 -5.7768 -2.5014 0.9380
15.6537 -2.0946 -2.5014 0.9380
15.7005 1.7090 -2.5014 0.9380
15.3804 3.5874 -2.5014 0.9380
13.9337 5.0841 -2.3492 0.9417
13.2200 6.7252 -2.3492 0.9417
12.3138 8.2683 -2.3492 0.9417
9.9916 8.6236 -2.0904 0.9480
6.1383 8.6473 -1.6796 0.9580
3.3472 8.4821 -1.4443 0.9637
2.2017 8.4415 -1.3817 0.9653
0.0790 5.7664 -0.9134 0.9769
-2.0159 8.6974 -1.4141 0.9645
-3.1536 8.6804 -1.4628 0.9633
-7.5146 8.7312 -1.8245 0.9544
-9.5873 8.7440 -2.0552 0.9488
-12.0828 8.6024 -2.3492 0.9417
-13.0309 7.0846 -2.3492 0.9417
