ply
format ascii 1.0
element vertex 1573
property float32 x
property float32 y
property float32 z
property float32 I
end_header
57.8851 19.3752 9.6680 0.7810
8.2872 8.6285 1.8949 0.9527
6.4984 8.6451 1.7130 0.9571
5.0005 8.6543 1.5831 0.9603
1.4181 8.6763 1.3924 0.9650
-0.6903 8.6893 1.3806 0.9653
-1.7620 8.6959 1.4053 0.9647
-2.8895 8.7028 1.4524 0.9635
-5.4887 8.7188 1.6318 0.9591
-7.0946 8.7286 1.7815 0.9555
-80.4653 46.7548 14.7397 0.6860
-59.9659 -11.9989 9.6859 0.7806
-59.8347 -19.7046 9.9775 0.7748
-82.0643 -51.3837 15.3354 0.6756
-62.8115 -64.7644 14.2895 0.6939
-25.5184 -33.6063 6.6833 0.8429
-9.3605 -31.6541 5.2281 0.8749
-2.7218 -16.1586 2.5953 0.9358
-3.8564 -83.3543 13.2161 0.7132
29.3321 -89.8047 14.9631 0.6821
19.7569 -42.3683 7.4042 0.8275
25.0698 -40.2566 7.5113 0.8253
34.0834 -42.3535 8.6105 0.8024
44.9188 -43.7773 9.9343 0.7757
58.0412 -44.2962 11.5642 0.7440
70.1331 13.6784 11.3173 0.7487
57.8812 18.7492 9.6365 0.7816
33.3039 26.6677 6.7575 0.8413
5.1131 8.6536 1.5920 0.9601
2.6095 8.6690 1.4339 0.9640
1.5049 8.6758 1.3946 0.9650
0.4441 8.6823 1.3769 0.9654
-2.7955 8.7022 1.4477 0.9637
-6.9539 8.7278 1.7675 0.9558
-56.0614 55.1713 12.4579 0.7272
-82.4255 25.0304 13.6436 0.7055
-80.1817 4.2967 12.7178 0.7224
-57.8481 -45.8609 11.6922 0.7416
-64.2520 -64.9718 14.4726 0.6907
-26.0357 -33.6031 6.7328 0.8418
-18.8800 -31.6010 5.8303 0.8615
-2.6154 -14.6546 2.3577 0.9415
33.2532 -42.1552 8.5040 0.8046
43.9972 -43.7221 9.8242 0.7779
57.9792 -45.1485 11.6388 0.7426
58.0565 -25.9496 10.0720 0.7730
57.9776 18.1589 9.6227 0.7819
32.7619 19.8535 6.0674 0.8563
33.3007 26.1372 6.7049 0.8424
6.7645 8.6435 1.7384 0.9565
-12.0108 -25.4340 3.4536 0.8928
-6.8275 -33.6975 4.2216 0.8706
-6.7962 -85.5661 10.5393 0.7076
25.5546 -87.9837 11.2495 0.6913
22.6590 -39.2142 5.5609 0.8332
30.6546 -40.7794 6.2640 0.8142
40.6794 -42.3532 7.2105 0.7893
61.9855 -12.7160 7.7694 0.7749
64.5564 -5.2856 7.9530 0.7703
64.6529 10.4066 8.0406 0.7680
58.3692 16.7992 7.4578 0.7829
7.0936 8.6414 1.3727 0.9559
5.5050 8.6512 1.2591 0.9595
2.9243 8.6671 1.1231 0.9638
1.7968 8.6518 1.0850 0.9650
-1.3776 8.6935 1.0807 0.9651
-3.6655 8.7075 1.1600 0.9626
-10.6068 8.7502 1.6883 0.9461
-60.9824 -17.2304 7.7808 0.7746
-58.9930 -43.6756 9.0125 0.7439
-23.7135 -22.4458 4.0091 0.8767
-26.1348 -31.5234 5.0278 0.8479
-20.2972 -31.5573 4.6070 0.8597
-11.5429 -33.6686 4.3702 0.8664
-7.1692 -33.6954 4.2299 0.8704
24.7881 -88.5541 11.2910 0.6903
20.6476 -49.7241 6.6108 0.8049
22.5362 -39.8932 5.6258 0.8314
39.8035 -42.2571 7.1278 0.7914
50.7245 -42.2624 8.1066 0.7664
57.5936 -28.0599 7.8662 0.7725
64.4519 -22.2722 8.3729 0.7597
62.1611 -13.3839 7.8073 0.7739
64.5525 -5.9185 7.9593 0.7701
59.9412 9.0505 7.4433 0.7832
58.3654 16.1846 7.4368 0.7834
9.2051 8.6284 1.5492 0.9504
7.2348 8.6406 1.3837 0.9556
32.4470 49.9118 7.3095 0.7867
4.2448 8.6589 1.1841 0.9619
1.8896 8.6734 1.0899 0.9649
0.8171 8.6800 1.0705 0.9655
-1.2909 8.6930 1.0791 0.9652
-3.5659 8.7069 1.1553 0.9628
-4.8674 8.7150 1.2256 0.9606
-82.2658 28.8769 10.7052 0.7037
-81.7881 -33.2639 10.8411 0.7006
-66.2475 -36.7887 9.3042 0.7368
-26.6542 -31.5202 5.0684 0.8467
-20.7325 -31.5547 4.6359 0.8589
-3.9882 -40.2631 4.9679 0.8495
38.8911 -42.1022 7.0375 0.7938
49.7248 -42.2563 8.0123 0.7688
57.5893 -28.7548 7.9035 0.7715
70.3960 -25.0959 9.1764 0.7399
64.4994 -14.5459 8.1184 0.7661
62.1603 -6.3100 7.6715 0.7774
64.5966 1.2584 7.9330 0.7708
59.7494 8.4274 7.4089 0.7841
35.9021 19.7092 5.0288 0.8478
11.9937 8.6113 1.8129 0.9422
7.3783 8.6397 1.3950 0.9552
4.3495 8.6583 1.1897 0.9617
3.1132 8.6659 1.1306 0.9636
1.9781 8.6729 1.0922 0.9648
0.9024 8.6795 1.0714 0.9654
-0.1481 8.6859 1.0667 0.9656
-1.2045 8.6924 1.0775 0.9653
-3.4671 8.7063 1.1506 0.9629
-16.2027 22.6832 3.4227 0.8937
-7.9895 8.7341 1.4534 0.9534
-10.2227 8.7733 1.6541 0.9472
-21.6824 2.3077 2.6771 0.9159
-82.4382 -32.5967 10.8847 0.6996
-7.8569 -33.6912 4.2478 0.8699
-4.3799 -40.2223 4.9679 0.8495
19.9549 -50.8280 6.7046 0.8025
22.0765 -40.9197 5.7089 0.8291
28.2149 -39.9093 6.0012 0.8212
48.9724 -42.4450 7.9572 0.7701
24.8851 -16.7874 3.6858 0.8861
57.5850 -29.4565 7.9419 0.7705
61.9238 -22.7575 8.1005 0.7665
62.2028 0.6061 7.6379 0.7783
51.5985 20.1125 6.7998 0.8000
36.7361 19.7041 5.1185 0.8454
5.8653 8.6490 1.2831 0.9588
4.4553 8.6576 1.1955 0.9615
3.2085 8.6653 1.1346 0.9634
2.0670 8.6723 1.0947 0.9647
0.9879 8.6790 1.0725 0.9654
-11.8852 46.8201 5.9311 0.8231
-3.3690 8.7057 1.1462 0.9631
-7.8339 8.7332 1.4405 0.9538
-12.8304 8.7465 1.9066 0.9393
-82.1445 42.5251 11.3575 0.6888
-23.5784 2.7418 2.9145 0.9088
-27.7172 -31.5118 5.1529 0.8444
-22.8714 -33.3755 4.9679 0.8495
-12.6508 -33.6619 4.4154 0.8651
-4.7713 -40.1778 4.9679 0.8495
47.7929 -42.2444 7.8320 0.7733
57.5831 -30.1663 7.9818 0.7695
65.0103 -24.6128 8.5352 0.7557
57.9536 14.2618 7.3281 0.7862
52.5733 19.9052 6.9024 0.7973
37.6004 19.6987 5.2120 0.8428
12.4959 8.6082 1.8631 0.9407
9.7576 8.6251 1.5990 0.9489
5.9885 8.6482 1.2916 0.9585
4.5621 8.6570 1.2015 0.9613
2.1563 8.6718 1.0972 0.9646
0.0211 8.6849 1.0664 0.9656
-1.0323 8.6914 1.0747 0.9653
-2.1155 8.6876 1.0979 0.9646
-3.2717 8.7051 1.1419 0.9632
-5.9770 8.7218 1.2982 0.9583
-7.6809 8.7322 1.4279 0.9542
-9.7973 8.7452 1.6125 0.9485
-23.6883 2.9887 2.9316 0.9083
-60.1464 -14.4913 7.5964 0.7793
-28.2943 -31.5434 5.2029 0.8430
-23.1952 -33.1512 4.9679 0.8495
-17.9388 -33.6427 4.6813 0.8576
-8.5507 -33.6870 4.2674 0.8693
-5.1622 -40.1294 4.9679 0.8495
21.4975 -41.7730 5.7684 0.8275
26.7848 -39.4958 5.8595 0.8250
36.7364 -42.1766 6.8676 0.7982
46.7615 -42.1507 7.7299 0.7759
63.1172 -24.6011 8.3177 0.7611
62.0137 -8.1309 7.6795 0.7772
53.3345 19.6018 6.9769 0.7953
39.4629 20.1872 5.4426 0.8364
7.8235 8.6369 1.4309 0.9541
0.7713 5.7734 0.7152 0.9768
0.1056 8.6844 1.0664 0.9656
-0.9465 8.6908 1.0734 0.9654
-2.0284 8.6975 1.0966 0.9646
-3.1751 8.7045 1.1377 0.9633
-4.4300 8.7123 1.2001 0.9614
-7.5306 8.7313 1.4157 0.9546
-9.6061 8.7441 1.5950 0.9490
-12.3286 8.7608 1.8570 0.9409
-67.5472 -34.1401 9.2929 0.7371
-79.0860 -52.7949 11.6754 0.6817
-23.5168 -32.9239 4.9679 0.8495
-18.3602 -33.6401 4.7056 0.8569
-5.5526 -40.0773 4.9679 0.8495
21.1033 -42.0071 5.7721 0.8274
36.0166 -42.1721 6.8095 0.7997
46.1127 -42.3867 7.6905 0.7769
62.1100 -1.2088 7.6276 0.7785
13.0084 8.5926 1.9142 0.9391
10.1463 8.6227 1.6349 0.9478
7.9771 8.6360 1.4435 0.9537
6.2400 8.6467 1.3093 0.9579
4.7790 8.6557 1.2140 0.9609
3.4988 8.6635 1.1472 0.9630
2.3362 8.6707 1.1026 0.9645
-0.8609 8.6903 1.0723 0.9654
-3.0792 8.7039 1.1336 0.9635
-7.3828 8.7304 1.4039 0.9550
-82.0994 45.5898 11.5305 0.6849
-40.2169 -8.8649 5.0565 0.8471
-67.8630 -33.4742 9.2911 0.7372
-81.7073 -53.4022 11.9851 0.6748
-29.4161 -31.5366 5.2952 0.8405
-23.8362 -32.6933 4.9679 0.8495
-18.7862 -33.6375 4.7306 0.8562
27.5151 -78.9965 10.2711 0.7138
45.2151 -42.3812 7.6092 0.7790
64.5773 -1.8860 7.9325 0.7708
56.9462 19.6796 7.3979 0.7844
41.4085 20.1753 5.6557 0.8306
8.1334 8.6350 1.4565 0.9533
4.8891 8.6550 1.2205 0.9607
3.5970 8.6629 1.1517 0.9629
2.4268 8.6701 1.1055 0.9644
-0.7756 8.6898 1.0712 0.9655
-1.8505 8.6964 1.0917 0.9648
-2.9840 8.7034 1.1297 0.9636
-5.6085 8.7195 1.2730 0.9591
-7.2376 8.7295 1.3923 0.9553
-9.2359 8.7418 1.5614 0.9500
-11.8296 8.7577 1.8072 0.9424
-52.3940 -25.2127 7.1393 0.7911
-29.9922 -31.5330 5.3434 0.8391
-24.1534 -32.4597 4.9679 0.8495
-19.2167 -33.6349 4.7564 0.8555
-13.2998 -31.5951 4.2091 0.8710
-9.6043 -33.6805 4.3003 0.8684
-5.9754 -37.7114 4.6881 0.8574
22.3890 -46.8173 6.3719 0.8113
34.6123 -42.1635 6.6980 0.8026
56.3390 -42.1354 8.6382 0.7531
57.5652 -33.0749 8.1517 0.7652
57.9729 -24.5695 7.7311 0.7759
62.2747 5.0998 7.6720 0.7774
42.4399 20.1689 5.7695 0.8275
10.5531 8.6202 1.6731 0.9466
8.2926 8.6341 1.4699 0.9529
6.4984 8.6451 1.3279 0.9574
5.0005 8.6543 1.2272 0.9605
3.6961 8.6623 1.1564 0.9628
0.3594 8.6828 1.0670 0.9656
-0.6903 8.6893 1.0703 0.9655
-1.7620 8.6959 1.0894 0.9649
-7.0946 8.7286 1.3811 0.9557
-9.0564 8.7407 1.5454 0.9505
-24.4681 -32.2231 4.9679 0.8495
-13.6623 -31.5929 4.2263 0.8705
-9.9591 -33.6783 4.3122 0.8680
-2.6392 -15.6681 1.9509 0.9380
20.1111 -43.1280 5.8429 0.8255
24.8969 -39.9789 5.7828 0.8271
33.9271 -42.1592 6.6445 0.8041
43.7172 -42.6063 7.4954 0.7819
55.4355 -42.3075 8.5624 0.7550
57.5606 -33.8219 8.1973 0.7641
64.5211 -11.0299 8.0371 0.7681
62.0451 -3.0221 7.6272 0.7785
42.6354 19.7553 5.7696 0.8275
32.7647 20.2938 4.7322 0.8561
10.7637 8.6189 1.6931 0.9459
6.6305 8.6443 1.3377 0.9570
3.7959 8.6617 1.1612 0.9626
2.6095 8.6690 1.1116 0.9642
1.5049 8.6758 1.0812 0.9651
0.4441 8.6823 1.0674 0.9656
-0.6052 8.6888 1.0694 0.9655
-1.6739 8.6953 1.0873 0.9649
-2.7955 8.7022 1.1223 0.9638
-4.0099 8.7097 1.1773 0.9621
-5.3705 8.7180 1.2572 0.9596
-11.3564 8.7548 1.7606 0.9439
-67.4488 -30.8548 9.1071 0.7416
-24.7807 -31.9834 4.9679 0.8495
-10.3161 -33.6762 4.3246 0.8677
24.0578 -39.4828 5.6769 0.8300
33.2530 -42.1550 6.5925 0.8054
42.8935 -42.6253 7.4249 0.7837
54.0198 -42.0653 8.4066 0.7589
64.4664 -19.9198 8.2847 0.7619
62.0483 -11.2297 7.7423 0.7756
64.5657 -3.7751 7.9412 0.7706
62.1412 3.8728 7.6448 0.7781
64.6625 11.9594 8.0742 0.7672
42.7588 19.3092 5.7606 0.8277
32.7620 19.8535 4.7036 0.8569
8.6199 8.6321 1.4978 0.9520
6.7645 8.6435 1.3477 0.9567
-11.9746 -25.3574 2.4534 0.8935
-9.3996 -28.3124 2.6100 0.8871
-4.4959 -56.6048 4.9679 0.7961
24.4810 -84.2875 7.6789 0.7030
21.4553 -50.2815 4.7828 0.8029
40.1443 -41.7961 5.0702 0.7924
51.7482 -42.2687 5.8457 0.7647
57.9929 -36.7043 6.0045 0.7591
58.2736 -11.9545 5.2044 0.7875
62.0786 2.4191 5.4353 0.7792
56.5386 9.1006 5.0102 0.7946
57.8683 16.6551 5.2683 0.7852
4.1410 8.6596 0.8398 0.9622
1.7968 8.6518 0.7731 0.9651
-0.3173 8.6870 0.7605 0.9657
-1.3776 8.6935 0.7701 0.9653
-6.4924 8.7249 0.9515 0.9573
-8.3095 8.7361 1.0548 0.9527
-10.6068 8.7502 1.2030 0.9463
-13.7074 8.7693 1.4237 0.9368
-60.8654 -17.1973 5.5335 0.7757
-27.8498 -33.5920 3.8176 0.8393
-20.2972 -31.5573 3.2827 0.8601
-9.6911 -28.2672 2.6144 0.8869
-6.7383 -31.6702 2.8328 0.8781
24.3900 -87.1320 7.9161 0.6954
20.9922 -50.5540 4.7891 0.8027
23.3542 -41.3413 4.1541 0.8264
30.5109 -41.4218 4.5009 0.8134
39.7201 -42.1686 5.0682 0.7925
50.7245 -42.2624 5.7763 0.7671
62.0288 -5.6871 5.4496 0.7787
56.2516 8.4934 4.9771 0.7958
57.8646 16.0457 5.2535 0.7858
46.4228 19.1444 4.3933 0.8174
35.2729 19.8131 3.5395 0.8501
9.2051 8.6284 1.1038 0.9506
32.4470 49.9119 5.2083 0.7874
4.2448 8.6589 0.8437 0.9620
3.0184 8.6665 0.8029 0.9638
0.8171 8.6800 0.7628 0.9656
-4.8674 8.7150 0.8733 0.9607
-6.3608 8.7241 0.9446 0.9576
-17.8219 8.7905 1.7386 0.9233
-7.0608 -31.6682 2.8386 0.8779
23.2763 -86.3844 7.8272 0.6982
22.9410 -41.5491 4.1524 0.8265
39.1798 -42.4147 5.0517 0.7931
57.9831 -38.2992 6.0796 0.7565
56.8004 -20.2491 5.2757 0.7850
61.9778 -13.9772 5.5585 0.7748
62.0250 -6.2963 5.4544 0.7785
62.0712 1.2092 5.4316 0.7794
57.8608 15.4397 5.2393 0.7863
11.9937 8.6113 1.2918 0.9424
9.3854 8.6273 1.1153 0.9501
7.3783 8.6397 0.9940 0.9554
5.7193 8.6131 0.9045 0.9593
3.1132 8.6659 0.8056 0.9637
0.9024 8.6795 0.7634 0.9656
-4.7563 8.7143 0.8686 0.9609
-10.2227 8.7733 1.1786 0.9473
-13.1314 8.7657 1.3813 0.9386
-21.6801 2.3074 1.9075 0.9162
-21.1733 -31.5520 3.3244 0.8585
-11.5409 -31.6407 2.9466 0.8735
-4.4076 -40.4768 3.5622 0.8492
20.2282 -51.5242 4.8427 0.8007
22.2450 -41.2322 4.0989 0.8285
48.7478 -42.2503 5.6438 0.7718
24.8821 -16.7855 2.6259 0.8865
57.5850 -29.4565 5.6589 0.7713
57.3426 -21.0739 5.3449 0.7825
61.9739 -14.6117 5.5707 0.7744
62.0675 0.6047 5.4305 0.7794
57.8571 14.8369 5.2256 0.7868
49.0730 19.1281 4.6080 0.8094
36.9205 19.8029 3.6654 0.8452
12.2414 8.6098 1.3094 0.9417
32.3191 29.1333 3.8068 0.8397
7.5242 8.6388 1.0023 0.9550
2.0670 8.6723 0.7800 0.9648
0.9879 8.6790 0.7642 0.9655
-11.8852 46.8202 4.2262 0.8237
-3.3690 8.7057 0.8167 0.9632
-4.6464 8.7136 0.8640 0.9611
-6.0872 8.6997 0.9289 0.9583
-7.8339 8.7332 1.0264 0.9540
-12.8561 8.7640 1.3613 0.9394
-17.5217 -33.6453 3.3188 0.8587
-11.8904 -31.6386 2.9570 0.8731
20.2550 -53.1068 4.9727 0.7959
21.6361 -41.0551 4.0601 0.8300
29.3292 -42.3542 4.5072 0.8131
57.6828 -30.2186 5.6972 0.7699
61.9196 -23.4426 5.7925 0.7666
62.0175 -7.5180 5.4655 0.7781
62.0637 0.0005 5.4299 0.7794
60.3487 7.3167 5.3185 0.7834
12.4959 8.6082 1.3276 0.9409
2.1563 8.6718 0.7818 0.9648
1.0735 8.6784 0.7651 0.9655
-1.0323 8.6914 0.7657 0.9655
-2.1155 8.6876 0.7823 0.9647
-3.2717 8.7051 0.8136 0.9633
-4.5377 8.7129 0.8595 0.9613
-5.9770 8.7218 0.9250 0.9584
-12.5886 8.7624 1.3419 0.9403
-16.5761 8.7869 1.6414 0.9274
-23.7148 2.9920 2.0912 0.9085
-60.0293 -14.4630 5.4022 0.7804
-17.9388 -33.6427 3.3356 0.8581
-12.2423 -31.6364 2.9678 0.8727
-6.2078 -24.4568 2.2075 0.9036
21.3039 -89.3767 8.0385 0.6915
21.3908 -41.5658 4.0898 0.8289
27.4477 -40.4732 4.2784 0.8217
36.8793 -42.3407 4.9125 0.7982
61.9154 -24.1327 5.8138 0.7658
61.9660 -15.8895 5.5967 0.7735
62.1063 6.9169 5.4672 0.7781
57.8498 13.6403 5.2000 0.7877
9.9498 8.6239 1.1520 0.9485
7.8235 8.6369 1.0196 0.9543
6.1134 8.6475 0.9265 0.9584
4.6700 8.6563 0.8605 0.9613
2.2460 8.6712 0.7837 0.9647
-2.0284 8.6975 0.7814 0.9648
-5.8525 8.7210 0.9189 0.9587
-7.5306 8.7313 1.0088 0.9548
-12.3286 8.7608 1.3232 0.9411
-16.1888 8.7845 1.6114 0.9287
-70.3655 -16.2303 6.3178 0.7483
-18.3602 -33.6401 3.3529 0.8574
-12.5969 -31.6343 2.9790 0.8722
-4.3898 -31.6845 2.7985 0.8795
19.6638 -86.2082 7.7360 0.7011
19.2258 -53.5145 4.9749 0.7959
58.8501 -42.2519 6.3383 0.7476
62.0563 -1.2078 5.4303 0.7794
60.1037 13.5554 5.3905 0.7808
54.9542 19.5919 5.1043 0.7912
13.0271 8.6050 1.3659 0.9392
6.2400 8.6467 0.9329 0.9581
3.4988 8.6635 0.8174 0.9632
0.8223 5.7296 0.5064 0.9770
-0.8609 8.6903 0.7640 0.9655
-3.0792 8.7039 0.8077 0.9636
-5.7297 8.7202 0.9129 0.9590
-7.3828 8.7304 1.0003 0.9551
-12.0756 8.7592 1.3052 0.9419
-40.2444 -8.8710 3.6055 0.8475
-24.5064 -33.6125 3.6393 0.8462
20.8466 -42.5232 4.1433 0.8268
35.3085 -42.1676 4.8117 0.8019
44.8054 -41.9971 5.3728 0.7815
58.0182 -32.5880 5.8218 0.7655
61.9581 -17.1797 5.6251 0.7725
62.1460 13.3818 5.5617 0.7747
13.3042 8.6033 1.3861 0.9384
6.3683 8.6459 0.9395 0.9578
0.8791 5.7281 0.5070 0.9770
-0.7756 8.6898 0.7633 0.9656
-2.9840 8.7034 0.8050 0.9637
-7.2376 8.7295 0.9921 0.9555
-15.4548 8.7800 1.5551 0.9311
-37.6439 -7.9142 3.3654 0.8569
-82.6205 -52.8582 8.5811 0.6745
-62.2036 -65.3992 7.8965 0.6960
-25.0089 -33.6094 3.6652 0.8452
-19.2167 -33.6349 3.3891 0.8560
-13.2998 -31.5951 2.9991 0.8714
-2.5711 -16.2263 1.4373 0.9362
-3.0753 -84.2161 7.3729 0.7129
31.7965 -30.3905 3.8481 0.8381
61.9541 -17.8299 5.6403 0.7719
62.0024 -9.9790 5.4943 0.7771
62.0489 -2.4170 5.4327 0.7793
62.0950 5.0851 5.4508 0.7787
62.1421 12.7492 5.5500 0.7751
42.4399 20.1689 4.1110 0.8281
8.2926 8.6341 1.0474 0.9531
6.4984 8.6451 0.9462 0.9575
5.0005 8.6543 0.8745 0.9607
2.5179 8.6696 0.7898 0.9644
-0.6903 8.6893 0.7626 0.9656
-1.7620 8.6959 0.7763 0.9650
-2.8895 8.7028 0.8023 0.9638
-5.4887 8.7188 0.9014 0.9595
-7.0946 8.7286 0.9841 0.9558
-11.5899 8.7562 1.2708 0.9433
-15.1068 8.7779 1.5286 0.9322
-20.5118 8.8111 1.9531 0.9143
-25.5184 -33.6063 3.6917 0.8441
-9.3605 -31.6541 2.8879 0.8759
-2.7209 -16.1533 1.4331 0.9363
25.8410 -79.1161 7.2816 0.7159
24.8247 -39.8629 4.1085 0.8282
52.4172 -30.7998 5.3190 0.7834
61.9501 -18.4838 5.6560 0.7714
61.9986 -10.5987 5.5029 0.7768
62.0451 -3.0221 5.4347 0.7792
62.0913 4.4767 5.4464 0.7788
62.1383 12.1192 5.5388 0.7755
57.8812 18.7492 5.3230 0.7833
42.6354 19.7553 4.1111 0.8281
8.4547 8.6331 1.0572 0.9526
5.1131 8.6536 0.8794 0.9604
3.7959 8.6617 0.8274 0.9627
0.4441 8.6823 0.7606 0.9657
-1.6739 8.6953 0.7747 0.9651
-5.3705 8.7180 0.8958 0.9597
-6.9539 8.7278 0.9763 0.9562
-8.8806 8.7396 1.0901 0.9512
-14.7703 8.7758 1.5031 0.9333
-19.9280 8.7912 1.9056 0.9163
-19.8611 -33.2431 3.3879 0.8560
-9.6960 -31.6520 2.8962 0.8755
-4.7179 -84.2060 7.3786 0.7127
24.2169 -39.7439 4.0718 0.8295
33.2530 -42.1550 4.6974 0.8061
41.3577 -41.0991 5.1011 0.7913
54.3012 -42.2845 6.0212 0.7586
51.2365 -30.7807 5.2293 0.7866
57.8073 -25.8381 5.5397 0.7755
59.7588 -18.4652 5.4721 0.7779
62.1344 11.4919 5.5283 0.7759
57.8774 18.1276 5.3062 0.7839
10.9794 8.6176 1.2211 0.9455
8.6199 8.6321 1.0673 0.9522
-11.9558 -25.3175 1.4673 0.8939
-3.9913 -50.2518 2.6419 0.8172
23.7253 -41.0596 2.4852 0.8270
30.6721 -40.8028 2.6752 0.8151
67.0568 -13.7563 3.5875 0.7602
50.8053 8.1777 2.6969 0.8137
29.5454 8.5035 1.6113 0.8841
45.1880 19.1520 2.5721 0.8215
34.3185 19.7189 2.0743 0.8534
11.5177 8.6142 0.7538 0.9440
7.0936 8.6414 0.5859 0.9562
4.1410 8.6596 0.5030 0.9623
1.7968 8.6518 0.4631 0.9652
-0.3171 8.6809 0.4552 0.9658
-1.3758 8.6819 0.4607 0.9654
-2.4774 8.6871 0.4734 0.9645
-6.4924 8.7249 0.5700 0.9574
-8.3095 8.7361 0.6319 0.9529
-10.6068 8.7502 0.7206 0.9464
-13.7074 8.7693 0.8528 0.9369
-26.0561 8.8623 1.4424 0.8956
-60.7438 -17.1630 3.3081 0.7766
-26.1623 -31.5565 2.1483 0.8486
-12.2881 -25.3783 1.4777 0.8932
-5.1583 -24.2440 1.2990 0.9055
-3.9710 -44.5026 2.3415 0.8361
33.0476 -79.5862 4.5162 0.7081
23.4738 -41.5529 2.5012 0.8260
39.7307 -42.1798 3.0368 0.7929
32.1701 -26.8033 2.1945 0.8456
57.9382 -37.4646 3.6159 0.7585
58.0422 -28.2785 3.3837 0.7721
57.9306 -20.0186 3.2122 0.7823
67.0614 -14.4390 3.5951 0.7597
67.0062 -6.1435 3.5264 0.7637
66.9529 1.9565 3.5103 0.7647
51.1130 7.7175 2.7091 0.8130
46.4228 19.1444 2.6317 0.8178
35.0968 19.7141 2.1097 0.8511
11.7526 8.6128 0.7636 0.9433
32.4470 49.9119 3.1199 0.7878
4.2448 8.6589 0.5054 0.9621
3.0164 8.6605 0.4806 0.9639
0.8164 8.6726 0.4565 0.9657
-4.8674 8.7150 0.5231 0.9608
-6.3608 8.7241 0.5658 0.9577
-13.4151 8.7675 0.8399 0.9378
-17.8219 8.7905 1.0414 0.9235
-25.1832 8.8398 1.3987 0.8986
-59.1775 -42.9267 3.8314 0.7461
-15.2706 -23.2418 1.4574 0.8946
-15.1797 -30.5874 1.7896 0.8722
-11.2172 -31.7089 1.7626 0.8740
-3.9049 -39.4223 2.0761 0.8533
20.9964 -51.9875 2.9384 0.7989
30.0883 -41.6920 2.6946 0.8139
38.9724 -42.1902 3.0101 0.7945
32.1668 -27.3355 2.2123 0.8444
57.9034 -38.2466 3.6368 0.7573
51.3690 -18.3129 2.8581 0.8038
51.3808 7.2471 2.7194 0.8123
31.8148 8.4895 1.7257 0.8764
35.9021 19.7092 2.1464 0.8487
9.3854 8.6273 0.6681 0.9502
5.7193 8.6131 0.5418 0.9594
4.3495 8.6583 0.5078 0.9619
3.1116 8.6617 0.4823 0.9638
-0.1480 8.6801 0.4550 0.9658
-3.4671 8.7063 0.4911 0.9632
-16.2027 22.6832 1.4609 0.8944
-7.9895 8.7341 0.6204 0.9537
-10.2227 8.7733 0.7060 0.9475
-13.1314 8.7657 0.8274 0.9387
-21.6777 2.3072 1.1424 0.9164
-82.9357 -32.7934 4.6739 0.6996
-27.2106 -31.5501 2.1835 0.8463
-15.5514 -30.5852 1.7982 0.8716
-7.7866 -33.3899 1.7968 0.8717
-4.0040 -36.7703 1.9384 0.8623
21.4343 -54.5962 3.0739 0.7906
22.6579 -41.9975 2.5009 0.8260
29.7450 -42.0735 2.7004 0.8135
32.1541 -27.8684 2.2300 0.8433
24.8793 -16.7835 1.5728 0.8867
67.0705 -15.8134 3.6114 0.7588
49.0730 19.1281 2.7603 0.8098
12.2414 8.6098 0.7843 0.9418
12.8449 11.5787 0.9063 0.9331
7.5242 8.6388 0.6004 0.9551
5.8653 8.6490 0.5477 0.9590
4.4553 8.6576 0.5103 0.9618
0.9869 8.6708 0.4573 0.9656
-1.1170 8.6823 0.4588 0.9655
-4.6464 8.7136 0.5175 0.9612
-7.8339 8.7332 0.6148 0.9541
-9.9912 8.7450 0.6959 0.9482
-12.8561 8.7640 0.8154 0.9396
-23.5889 2.7431 1.2446 0.9093
-21.6212 -31.5511 2.0045 0.8580
-15.9269 -30.5829 1.8071 0.8710
-8.1297 -33.3878 1.8009 0.8714
-4.3618 -36.7295 1.9384 0.8623
22.3375 -42.3860 2.5109 0.8254
29.1392 -42.0797 2.6824 0.8146
37.4684 -42.1809 2.9568 0.7977
32.1510 -28.4184 2.2488 0.8421
35.2647 -24.2924 2.2442 0.8424
57.6828 -30.2186 3.4127 0.7704
67.0752 -16.5053 3.6201 0.7583
32.4685 17.0102 1.9210 0.8635
12.4959 8.6082 0.7952 0.9410
9.7576 8.6251 0.6825 0.9492
7.6726 8.6379 0.6055 0.9548
4.5621 8.6570 0.5128 0.9616
2.1518 8.6536 0.4673 0.9649
0.0211 8.6792 0.4549 0.9658
-1.0312 8.6823 0.4582 0.9656
-5.9770 8.7218 0.5541 0.9585
-7.6809 8.7322 0.6095 0.9545
-23.7412 2.9953 1.2541 0.9086
-65.6972 -34.0120 3.8771 0.7435
-16.3060 -30.5805 1.8163 0.8704
-4.7192 -36.6853 1.9384 0.8623
20.5559 -86.2385 4.6462 0.7011
20.0916 -54.2588 3.0323 0.7931
23.4786 -45.6227 2.6890 0.8142
28.5347 -42.0760 2.6644 0.8158
36.7362 -42.1764 2.9313 0.7993
45.4224 -40.9436 3.2048 0.7827
50.6241 -19.7317 2.8475 0.8044
66.9700 -0.6515 3.5099 0.7647
51.9966 19.1101 2.9032 0.8010
32.4556 16.6027 1.9106 0.8641
9.9498 8.6239 0.6901 0.9486
7.8235 8.6369 0.6107 0.9544
3.4013 8.6641 0.4878 0.9634
-4.4300 8.7123 0.5122 0.9616
-5.8525 8.7210 0.5504 0.9588
-7.5306 8.7313 0.6043 0.9549
-9.6061 8.7441 0.6808 0.9493
-12.3286 8.7608 0.7926 0.9412
-22.3127 8.8222 1.2574 0.9084
-70.2776 -16.2100 3.7798 0.7491
-22.5322 -31.5455 2.0316 0.8562
-5.0760 -36.6376 1.9384 0.8623
20.1698 -56.1422 3.1264 0.7875
21.0223 -41.8459 2.4542 0.8290
45.1522 -41.5038 3.2141 0.7822
58.0228 -31.8513 3.4689 0.7671
51.1628 -20.5176 2.8889 0.8019
67.0281 -9.4528 3.5476 0.7625
66.9743 -1.3035 3.5106 0.7647
61.7016 13.9158 3.3149 0.7762
32.4312 16.1938 1.8998 0.8649
10.1464 8.6227 0.6978 0.9481
7.9771 8.6360 0.6161 0.9540
3.4988 8.6635 0.4897 0.9633
2.3316 8.6538 0.4697 0.9647
0.1901 8.6781 0.4549 0.9658
-0.8601 8.6822 0.4572 0.9657
-1.9355 8.6800 0.4661 0.9650
-4.3235 8.7116 0.5097 0.9618
-5.7297 8.7202 0.5468 0.9591
-15.8153 8.7822 0.9481 0.9301
-21.6831 8.8183 1.2267 0.9105
-40.2718 -8.8770 2.1612 0.8477
-22.9959 -31.5408 2.0457 0.8553
-12.9400 -31.5973 1.7894 0.8722
-5.4325 -36.5865 1.9384 0.8623
-1.6800 -62.7551 3.2900 0.7777
19.3644 -88.8782 4.7672 0.6946
27.1451 -77.9342 4.3250 0.7185
27.2941 -41.9838 2.6244 0.8183
35.3085 -42.1676 2.8823 0.8023
44.8176 -42.0085 3.2193 0.7819
33.1504 -24.2932 2.1539 0.8482
60.7131 -25.0364 3.4418 0.7687
67.0326 -10.1200 3.5528 0.7622
66.9785 -1.9561 3.5117 0.7646
66.9255 6.1373 3.5221 0.7640
24.6925 8.5333 1.3692 0.9006
32.4636 15.8171 1.8925 0.8653
13.3042 8.6033 0.8303 0.9385
6.3683 8.6459 0.5628 0.9579
4.8891 8.6550 0.5210 0.9610
3.5970 8.6629 0.4916 0.9631
2.4224 8.6546 0.4710 0.9646
0.8791 5.7281 0.3037 0.9771
-0.7749 8.6821 0.4568 0.9657
-1.8471 8.6804 0.4651 0.9651
-4.2180 8.7110 0.5072 0.9620
-5.6085 8.7195 0.5433 0.9593
-7.2376 8.7295 0.5943 0.9556
-9.2359 8.7418 0.6665 0.9503
-15.4548 8.7800 0.9315 0.9313
-37.6393 -7.9132 2.0150 0.8572
-52.3527 -25.1928 3.0448 0.7924
-82.7146 -52.9184 5.1461 0.6748
-23.4675 -31.5379 2.0602 0.8543
-17.4676 -30.5734 1.8454 0.8685
-13.2998 -31.5951 1.7965 0.8717
-2.2892 -62.6889 3.2876 0.7778
25.8476 -40.6189 2.5232 0.8246
31.7939 -30.3881 2.3049 0.8385
32.4767 -24.2890 2.1254 0.8501
58.0136 -33.3326 3.5065 0.7649
67.0370 -10.7893 3.5585 0.7619
25.4794 8.5284 1.4081 0.8980
10.5531 8.6202 0.7141 0.9469
8.2926 8.6341 0.6274 0.9532
6.4984 8.6451 0.5668 0.9576
5.0005 8.6543 0.5238 0.9608
3.6961 8.6623 0.4936 0.9630
2.5138 8.6554 0.4724 0.9645
0.3591 8.6768 0.4551 0.9658
-0.6897 8.6820 0.4564 0.9657
-1.7590 8.6808 0.4642 0.9651
-2.8873 8.6964 0.4802 0.9640
-4.1135 8.7103 0.5048 0.9622
-5.4887 8.7188 0.5399 0.9596
-15.1068 8.7779 0.9157 0.9324
-20.5118 8.8111 1.1700 0.9145
-17.8631 -30.5710 1.8556 0.8678
-13.6623 -31.5928 1.8039 0.8712
27.7723 -85.0291 4.6879 0.6989
32.1838 -24.5622 2.1218 0.8503
57.5606 -33.8220 3.4989 0.7654
57.7116 -25.1244 3.2987 0.7772
66.7205 -19.9071 3.6490 0.7566
67.0415 -11.4607 3.5645 0.7615
66.9872 -3.2628 3.5148 0.7644
26.3125 8.5233 1.4495 0.8951
42.6354 19.7553 2.4626 0.8284
32.7647 20.2938 2.0198 0.8570
10.7637 8.6189 0.7227 0.9463
6.6305 8.6443 0.5709 0.9573
5.1131 8.6536 0.5268 0.9605
3.7959 8.6617 0.4956 0.9628
2.6057 8.6562 0.4738 0.9644
0.4438 8.6762 0.4553 0.9658
-1.6712 8.6811 0.4633 0.9652
-6.9539 8.7278 0.5848 0.9563
-8.8806 8.7396 0.6530 0.9513
-29.1907 8.8644 1.5988 0.8850
-24.4310 -31.5320 2.0905 0.8523
-10.2238 -33.3750 1.8293 0.8695
-5.9892 -33.5582 1.7865 0.8724
-4.7178 -84.2060 4.4200 0.7133
32.1697 -40.7818 2.7222 0.8122
41.2128 -40.9550 3.0450 0.7924
32.1808 -25.0592 2.1375 0.8493
66.9915 -3.9169 3.5169 0.7643
32.7620 19.8535 2.0076 0.8577
10.9794 8.6176 0.7315 0.9456
8.6199 8.6321 0.6393 0.9523
6.7645 8.6435 0.5752 0.9570
-6.3262 -31.2237 0.5561 0.8803
28.2066 -48.8149 0.9841 0.7981
29.4288 -39.1488 0.8549 0.8221
32.1207 -33.4424 0.8094 0.8307
32.1733 -26.2796 0.7251 0.8469
38.4138 -24.3125 0.7935 0.8337
51.3558 -24.4050 0.9925 0.7965
73.6074 -24.6365 1.3549 0.7331
29.5454 8.5035 0.5366 0.8843
34.3186 19.7189 0.6909 0.8536
11.5177 8.6142 0.2510 0.9441
9.0285 8.6295 0.2180 0.9513
7.0936 8.6414 0.1951 0.9563
4.1315 8.6396 0.1672 0.9624
2.9103 8.6256 0.1589 0.9642
1.7968 8.6518 0.1542 0.9653
-1.3776 8.6935 0.1536 0.9654
-2.4788 8.6923 0.1578 0.9645
-3.6570 8.6873 0.1645 0.9630
-10.6068 8.7502 0.2400 0.9465
-18.2711 8.7920 0.3539 0.9221
-82.5835 -12.8807 1.4589 0.7158
-59.3042 -16.7562 1.0757 0.7815
-23.7039 -22.4367 0.5697 0.8776
-25.8364 -31.1635 0.7066 0.8505
-20.2972 -31.5573 0.6549 0.8606
-6.6429 -31.2218 0.5572 0.8801
24.7540 -88.4325 1.6029 0.6925
28.0031 -49.5707 0.9938 0.7963
28.8326 -39.1433 0.8486 0.8233
32.1251 -34.1054 0.8178 0.8291
37.6093 -24.3193 0.7818 0.8360
50.0759 -24.3972 0.9723 0.8002
47.6562 19.6531 0.8998 0.8136
35.0968 19.7141 0.7026 0.8513
9.2051 8.6284 0.2202 0.9508
4.2350 8.6390 0.1679 0.9622
1.8804 8.6313 0.1542 0.9653
0.8171 8.6800 0.1522 0.9657
-0.2327 8.6865 0.1517 0.9658
-2.3887 8.6965 0.1574 0.9646
-4.8452 8.6752 0.1734 0.9610
-6.3608 8.7241 0.1885 0.9577
-17.7967 8.7781 0.3464 0.9237
-25.1371 8.8236 0.4650 0.8989
-26.3499 -31.1604 0.7123 0.8494
-20.7325 -31.5547 0.6590 0.8598
-6.9608 -31.2198 0.5583 0.8799
24.0951 -43.6394 0.8701 0.8192
30.4098 -42.1375 0.9070 0.8123
32.1211 -34.7732 0.8263 0.8275
32.1668 -27.3355 0.7368 0.8446
36.8127 -24.3157 0.7701 0.8382
48.8469 -24.3896 0.9530 0.8038
11.9937 8.6113 0.2577 0.9426
9.3854 8.6273 0.2225 0.9503
4.3395 8.6384 0.1687 0.9621
3.0983 8.6246 0.1600 0.9640
0.9024 8.6795 0.1523 0.9657
-0.1481 8.6859 0.1516 0.9658
-1.2045 8.6924 0.1532 0.9655
-3.4590 8.6860 0.1632 0.9633
-4.7345 8.6744 0.1725 0.9612
-16.2027 22.6832 0.4866 0.8945
-10.2227 8.7733 0.2351 0.9475
-17.3613 8.7745 0.3395 0.9251
-76.2649 -30.1558 1.4315 0.7203
-26.8717 -31.1572 0.7182 0.8482
-4.4076 -40.4769 0.7107 0.8497
27.9888 -51.8784 1.0289 0.7899
29.7876 -42.1339 0.9007 0.8135
47.6654 -24.3824 0.9345 0.8072
52.3829 -19.2512 0.9741 0.7999
57.8572 14.8368 1.0426 0.7875
51.5986 20.1126 0.9667 0.8013
36.7362 19.7041 0.7276 0.8464
7.5242 8.6388 0.2000 0.9552
3.1933 8.6241 0.1605 0.9639
2.0570 8.6303 0.1549 0.9651
0.9879 8.6790 0.1525 0.9657
-1.1183 8.6919 0.1530 0.9655
-1.5096 5.9467 0.1071 0.9758
-3.3611 8.6853 0.1626 0.9634
-4.6251 8.6736 0.1716 0.9614
-6.0872 8.6997 0.1853 0.9584
-12.8561 8.7640 0.2716 0.9397
-16.9427 8.7710 0.3330 0.9265
-23.6716 8.8305 0.4410 0.9039
33.3561 -87.4567 1.6338 0.6877
29.5673 -42.6980 0.9065 0.8124
32.1601 -28.4265 0.7492 0.8422
35.2849 -24.3063 0.7479 0.8425
48.5360 -18.3756 0.9059 0.8125
32.4366 12.2811 0.6054 0.8704
37.6004 19.6987 0.7409 0.8438
13.0886 9.0165 0.2774 0.9384
7.6726 8.6379 0.2017 0.9548
4.5516 8.6372 0.1704 0.9617
3.2889 8.6235 0.1611 0.9638
2.1458 8.6298 0.1552 0.9650
1.0735 8.6784 0.1526 0.9656
-7.6809 8.7322 0.2030 0.9545
-16.5399 8.7677 0.3268 0.9278
-22.9745 8.8262 0.4296 0.9062
-23.7675 2.9987 0.4181 0.9086
-64.1573 -33.2149 1.2610 0.7490
-18.8440 -35.3403 0.6991 0.8520
-7.9230 -31.2139 0.5621 0.8791
27.9735 -54.3569 1.0671 0.7830
34.1373 -39.1927 0.9072 0.8123
32.1566 -28.9859 0.7557 0.8410
34.5536 -24.3018 0.7374 0.8445
48.2875 -18.8210 0.9046 0.8127
57.8498 13.6403 1.0375 0.7884
39.4629 20.1873 0.7737 0.8375
13.1785 8.8905 0.2775 0.9384
7.8235 8.6369 0.2034 0.9544
2.2351 8.6293 0.1556 0.9650
0.1056 8.6844 0.1516 0.9659
-0.9465 8.6908 0.1526 0.9656
-2.0284 8.6975 0.1559 0.9649
-3.1677 8.6841 0.1613 0.9637
-9.6061 8.7441 0.2267 0.9494
-22.2750 -31.1853 0.6689 0.8579
-19.2867 -35.3376 0.7027 0.8512
30.0791 -83.7243 1.5529 0.7005
28.1250 -55.9840 1.0936 0.7783
28.0481 -42.2378 0.8850 0.8164
33.4191 -39.1308 0.8983 0.8139
33.8424 -24.2974 0.7272 0.8465
44.3800 -24.3622 0.8837 0.8167
47.9917 -19.2459 0.9025 0.8131
54.9543 19.5919 1.0184 0.7918
32.4312 16.1938 0.6327 0.8650
10.1463 8.6227 0.2324 0.9481
7.9771 8.6360 0.2052 0.9541
3.4863 8.6325 0.1625 0.9634
2.3249 8.6288 0.1560 0.9649
0.8223 5.7295 0.1010 0.9771
0.1902 8.6839 0.1516 0.9658
-0.8609 8.6903 0.1524 0.9657
-1.9392 8.6970 0.1555 0.9650
-3.0720 8.6834 0.1608 0.9638
-4.3106 8.6856 0.1693 0.9620
-5.7042 8.6815 0.1813 0.9593
-7.3828 8.7304 0.1996 0.9553
-9.4190 8.7429 0.2243 0.9499
-12.0756 8.7592 0.2604 0.9421
-15.7968 8.7720 0.3154 0.9303
-57.8560 -12.7529 1.0341 0.7890
-12.9400 -31.5973 0.5960 0.8723
-8.5721 -31.2099 0.5649 0.8785
-2.2913 -85.5909 1.4945 0.7100
32.1496 -30.1346 0.7691 0.8384
33.1504 -24.2932 0.7174 0.8484
43.3623 -24.3559 0.8681 0.8196
47.8583 -19.7354 0.9036 0.8129
24.6739 8.5269 0.4557 0.9008
14.8688 9.6150 0.3091 0.9316
3.5864 8.6373 0.1632 0.9633
2.4151 8.6283 0.1564 0.9648
0.8791 5.7280 0.1012 0.9771
-1.8505 8.6964 0.1552 0.9651
-2.9770 8.6828 0.1602 0.9639
-4.2081 8.6904 0.1685 0.9621
-5.5835 8.6806 0.1802 0.9595
-9.2359 8.7418 0.2220 0.9504
-15.4360 8.7694 0.3099 0.9314
-82.7463 -52.9387 1.7146 0.6750
-23.2009 -31.1797 0.6784 0.8560
-19.8705 -34.7792 0.6992 0.8519
-13.2997 -31.5951 0.5984 0.8718
-2.5705 -16.2225 0.2867 0.9364
28.0371 -44.0595 0.9116 0.8115
31.7907 -30.3850 0.7676 0.8387
32.4767 -24.2890 0.7079 0.8502
48.3372 -20.4858 0.9164 0.8106
48.6939 9.9901 0.8677 0.8197
32.7674 20.7396 0.6769 0.8563
10.5531 8.6202 0.2378 0.9469
4.9892 8.6348 0.1741 0.9609
3.6874 8.6421 0.1640 0.9631
1.4181 8.6763 0.1535 0.9654
0.3594 8.6828 0.1517 0.9658
-1.7620 8.6959 0.1549 0.9651
-4.1040 8.6902 0.1678 0.9623
-9.0564 8.7407 0.2197 0.9509
-11.5899 8.7562 0.2535 0.9435
-15.0879 8.7669 0.3046 0.9326
-20.4868 8.8004 0.3892 0.9147
-19.8657 -33.9984 0.6873 0.8543
-13.6623 -31.5928 0.6008 0.8714
-9.2280 -31.2059 0.5680 0.8779
-3.0897 -66.7813 1.1669 0.7653
39.1090 -83.8687 1.6153 0.6906
31.5202 -39.1683 0.8776 0.8178
41.4305 -24.3441 0.8388 0.8251
57.6119 -25.0810 1.0968 0.7777
26.3004 8.5194 0.4826 0.8953
10.7637 8.6189 0.2407 0.9463
2.5970 8.6273 0.1573 0.9646
-0.6052 8.6888 0.1520 0.9658
-1.6739 8.6953 0.1546 0.9652
-2.7889 8.6816 0.1592 0.9642
-4.0007 8.6896 0.1670 0.9625
-14.7512 8.7645 0.2995 0.9337
-29.1907 8.8644 0.5325 0.8851
-24.1535 -31.1738 0.6884 0.8540
-19.8611 -33.2431 0.6759 0.8565
-5.9892 -33.5582 0.5950 0.8725
-3.7273 -66.5267 1.1630 0.7660
29.3137 -92.8002 1.6987 0.6775
39.7669 -87.4925 1.6775 0.6808
30.8924 -39.1625 0.8707 0.8191
32.1284 -31.9275 0.7906 0.8343
32.1808 -25.0592 0.7119 0.8494
40.5129 -24.3384 0.8249 0.8277
79.9515 -24.7047 1.4607 0.7155
32.7620 19.8535 0.6687 0.8579
8.6199 8.6321 0.2129 0.9524
6.7645 8.6435 0.1916 0.9570
-9.1848 -19.4496 -0.3754 0.9175
-4.2963 -21.2048 -0.3776 0.9171
-1.8135 -22.8316 -0.3998 0.9124
36.2244 -84.8937 -1.6111 0.6913
27.2441 -47.1493 -0.9505 0.8042
29.2669 -38.9333 -0.8502 0.8230
32.1292 -33.4512 -0.8096 0.8306
51.3558 -24.4050 -0.9925 0.7965
75.4581 -25.2559 -1.3889 0.7274
74.6416 2.9087 -1.3039 0.7417
49.7377 8.0059 -0.8793 0.8175
29.5454 8.5035 -0.5366 0.8843
42.9823 18.2172 -0.8149 0.8296
34.3186 19.7189 -0.6909 0.8536
9.0285 8.6295 -0.2180 0.9513
7.0936 8.6414 -0.1951 0.9563
5.5032 8.6484 -0.1789 0.9598
2.8960 8.5831 -0.1581 0.9644
0.7320 8.6805 -0.1521 0.9657
-0.3173 8.6870 -0.1517 0.9658
-1.3776 8.6935 -0.1536 0.9654
-6.4924 8.7249 -0.1898 0.9574
-10.6068 8.7502 -0.2400 0.9465
-13.7074 8.7693 -0.2840 0.9370
-18.2711 8.7920 -0.3539 0.9221
-26.0561 8.8623 -0.4804 0.8957
-56.7227 11.9244 -1.0117 0.7930
-89.3961 -3.0479 -1.5613 0.6992
-75.3196 -31.4911 -1.4250 0.7214
-63.9519 -47.3470 -1.3889 0.7274
-23.6990 -22.4321 -0.5696 0.8776
-17.8652 -21.5487 -0.4886 0.8941
-17.0371 -35.1863 -0.6824 0.8552
-4.5000 -21.1501 -0.3774 0.9171
-2.0150 -22.5811 -0.3957 0.9133
24.6671 -88.1221 -1.5973 0.6934
32.1701 -26.8033 -0.7309 0.8458
37.6113 -24.3206 -0.7818 0.8360
71.7564 -24.7964 -1.3252 0.7381
49.1073 7.4147 -0.8669 0.8198
9.2051 8.6284 -0.2202 0.9508
24.4264 37.5741 -0.7823 0.8359
4.2241 8.6167 -0.1675 0.9623
0.8171 8.6800 -0.1522 0.9657
-1.2909 8.6930 -0.1534 0.9655
-3.5486 8.6647 -0.1634 0.9632
-4.8246 8.6384 -0.1727 0.9612
-10.3974 8.7489 -0.2372 0.9471
-13.4151 8.7675 -0.2797 0.9379
-75.2202 -10.9833 -1.3269 0.7378
-59.2872 -16.1298 -1.0725 0.7821
-75.1920 -30.5812 -1.4169 0.7227
-75.2785 -41.8038 -1.5030 0.7086
-10.0312 -28.3563 -0.5250 0.8866
-2.2008 -22.2186 -0.3897 0.9146
32.1211 -34.7732 -0.8263 0.8275
70.4421 -25.1124 -1.3054 0.7414
31.8148 8.4895 -0.5748 0.8766
49.8471 19.9910 -0.9374 0.8067
11.9937 8.6113 -0.2577 0.9426
7.3783 8.6397 -0.1983 0.9556
5.7193 8.6131 -0.1805 0.9595
4.3283 8.6160 -0.1683 0.9622
0.9024 8.6795 -0.1523 0.9657
-1.2045 8.6924 -0.1532 0.9655
-1.5565 5.8907 -0.1063 0.9759
-3.4503 8.6642 -0.1628 0.9634
-16.2027 22.6832 -0.4866 0.8945
-13.1314 8.7657 -0.2756 0.9388
-21.6698 2.3063 -0.3804 0.9165
-89.4535 -12.1733 -1.5758 0.6969
-59.7073 -15.6215 -1.0773 0.7812
-64.4562 -34.9773 -1.2801 0.7457
-63.4734 -45.1064 -1.3592 0.7323
-19.3014 -22.3795 -0.5158 0.8885
-13.4770 -20.0832 -0.4222 0.9078
-9.9604 -19.5893 -0.3836 0.9158
-7.1757 -19.6731 -0.3655 0.9196
-7.8233 -33.5470 -0.6013 0.8713
-2.4343 -22.3544 -0.3925 0.9140
34.3021 -87.3725 -1.6384 0.6869
27.3438 -50.6830 -1.0052 0.7942
23.5497 -33.3105 -0.7116 0.8494
32.1635 -27.8765 -0.7429 0.8434
24.8701 -16.7773 -0.5236 0.8869
67.2821 -24.7268 -1.2512 0.7507
58.3079 14.9524 -1.0507 0.7860
51.1570 19.9404 -0.9584 0.8028
12.9988 9.1425 -0.2774 0.9384
7.5242 8.6388 -0.2000 0.9552
4.4335 8.6153 -0.1691 0.9620
2.0471 8.5887 -0.1541 0.9653
0.9879 8.6790 -0.1525 0.9657
-1.5090 5.9444 -0.1070 0.9758
-6.0415 8.6344 -0.1839 0.9587
-9.9911 8.7450 -0.2318 0.9483
-12.8561 8.7640 -0.2716 0.9397
-16.7902 8.6921 -0.3300 0.9272
-23.6716 8.8305 -0.4410 0.9039
-23.5994 2.7443 -0.4147 0.9093
-89.3796 -0.4359 -1.5601 0.6994
-75.3816 -9.5119 -1.3262 0.7379
-57.6402 -14.4826 -1.0374 0.7884
-65.1697 -34.5474 -1.2875 0.7445
-60.6891 -54.1736 -1.4200 0.7222
-13.6473 -19.9152 -0.4214 0.9079
-10.1547 -19.4991 -0.3837 0.9158
-8.1679 -33.5449 -0.6026 0.8710
-4.8066 -40.4744 -0.7114 0.8495
33.3217 -87.3665 -1.6321 0.6879
27.9813 -53.0952 -1.0476 0.7865
23.0775 -33.3260 -0.7076 0.8503
32.1126 -36.1515 -0.8440 0.8241
48.5818 -18.3930 -0.9067 0.8124
57.9536 14.2618 -1.0418 0.7876
37.6004 19.6987 -0.7409 0.8438
13.0886 9.0165 -0.2774 0.9384
9.7576 8.6251 -0.2273 0.9492
4.5397 8.6146 -0.1700 0.9618
2.1355 8.5881 -0.1545 0.9652
1.0735 8.6784 -0.1526 0.9656
-3.2559 8.6630 -0.1615 0.9637
-7.6809 8.7322 -0.2030 0.9545
-9.7973 8.7452 -0.2292 0.9488
-16.4301 8.7095 -0.3246 0.9283
-22.9745 8.8262 -0.4296 0.9062
-23.7939 3.0020 -0.4186 0.9085
-89.3742 0.4343 -1.5600 0.6994
-57.6029 -13.8785 -1.0342 0.7890
-63.1949 -43.0817 -1.3350 0.7364
-20.9799 -23.3892 -0.5484 0.8819
-14.1330 -20.1994 -0.4303 0.9061
-10.4759 -19.6468 -0.3886 0.9148
-2.8179 -21.9059 -0.3855 0.9154
-0.2045 -28.0386 -0.4894 0.8939
22.1761 -93.0361 -1.6694 0.6821
27.9735 -54.3569 -1.0671 0.7830
32.1566 -28.9859 -0.7557 0.8410
34.5536 -24.3018 -0.7374 0.8445
45.4347 -24.3687 -0.8999 0.8136
49.5699 -19.3208 -0.9286 0.8083
57.8498 13.6403 -1.0375 0.7884
53.3347 19.6019 -0.9918 0.7967
39.4629 20.1873 -0.7737 0.8375
13.1785 8.8905 -0.2775 0.9384
9.9498 8.6239 -0.2298 0.9487
6.1134 8.6475 -0.1849 0.9585
4.6470 8.6139 -0.1708 0.9616
3.3784 8.6058 -0.1614 0.9637
0.7713 5.7732 -0.1017 0.9770
0.1056 8.6844 -0.1516 0.9659
-0.9465 8.6908 -0.1526 0.9656
-2.0284 8.6975 -0.1559 0.9649
-5.7936 8.6332 -0.1815 0.9593
-9.6061 8.7441 -0.2267 0.9494
-22.3127 8.8222 -0.4188 0.9085
-52.1896 13.6536 -0.9416 0.8059
-58.1049 -13.4023 -1.0408 0.7878
-75.1111 -27.1912 -1.3943 0.7265
-65.1638 -32.9355 -1.2745 0.7467
-62.9365 -42.0141 -1.3208 0.7388
-14.3270 -20.0581 -0.4303 0.9061
-10.6276 -19.4723 -0.3872 0.9151
-7.7685 -19.5088 -0.3665 0.9194
-5.4739 -20.7173 -0.3740 0.9178
-3.0133 -21.7495 -0.3833 0.9159
-0.4754 -27.9191 -0.4874 0.8943
28.9572 -80.6017 -1.4949 0.7099
26.9799 -53.7047 -1.0491 0.7863
32.1531 -29.5551 -0.7623 0.8397
44.3799 -24.3622 -0.8837 0.8167
32.4312 16.1938 -0.6327 0.8650
10.1463 8.6227 -0.2324 0.9481
6.2400 8.6467 -0.1861 0.9582
4.7556 8.6133 -0.1717 0.9614
0.8223 5.7294 -0.1010 0.9771
0.1902 8.6839 -0.1516 0.9658
-0.8609 8.6903 -0.1524 0.9657
-1.9392 8.6970 -0.1555 0.9650
-3.0654 8.6648 -0.1604 0.9639
-4.2996 8.6635 -0.1688 0.9620
-9.4190 8.7429 -0.2243 0.9499
-15.7203 8.7295 -0.3139 0.9306
-21.3903 8.6992 -0.4031 0.9118
-29.9531 8.1486 -0.5418 0.8832
-55.5186 8.1056 -0.9793 0.7989
-89.3632 2.1747 -1.5603 0.6993
-75.0952 -7.2551 -1.3169 0.7395
-58.2406 -12.8377 -1.0410 0.7877
-75.5415 -26.5180 -1.3975 0.7259
-23.4808 -25.1734 -0.6009 0.8713
-14.8699 -20.3953 -0.4406 0.9040
-10.9826 -19.6650 -0.3932 0.9138
-5.6406 -20.5364 -0.3717 0.9183
-0.7232 -27.0125 -0.4717 0.8975
29.3190 -84.1756 -1.5559 0.7001
27.9572 -57.0276 -1.1086 0.7756
28.0425 -43.1350 -0.8980 0.8140
33.1504 -24.2932 -0.7174 0.8484
95.3334 8.7423 -1.6710 0.6818
56.6622 19.5814 -1.0464 0.7868
32.7702 21.1910 -0.6812 0.8555
2.4033 8.5863 -0.1556 0.9650
0.8791 5.7280 -0.1012 0.9771
-0.7756 8.6898 -0.1523 0.9657
-1.8505 8.6964 -0.1552 0.9651
-2.9723 8.6691 -0.1600 0.9640
-4.1974 8.6684 -0.1681 0.9622
-5.5522 8.6321 -0.1791 0.9598
-7.2376 8.7295 -0.1979 0.9556
-9.2359 8.7418 -0.2220 0.9504
-20.8398 8.7127 -0.3943 0.9136
-55.5151 8.6580 -0.9807 0.7987
-75.2080 -6.5275 -1.3177 0.7393
-52.2815 -25.1586 -1.0127 0.7929
-61.6575 -64.8250 -1.5616 0.6991
-11.2246 -19.6465 -0.3950 0.9135
-13.2997 -31.5951 -0.5984 0.8718
-5.8685 -20.5796 -0.3735 0.9179
-2.5704 -16.2221 -0.2867 0.9364
22.6620 -47.3881 -0.9169 0.8105
31.7853 -30.3798 -0.7675 0.8387
32.4767 -24.2890 -0.7079 0.8502
42.3798 -24.3499 -0.8531 0.8224
58.2123 -24.6710 -1.1036 0.7765
86.6009 -24.9231 -1.5730 0.6973
66.9506 13.7357 -1.1930 0.7608
38.8384 18.4573 -0.7506 0.8420
32.7674 20.7396 -0.6769 0.8563
8.2926 8.6341 -0.2090 0.9532
4.9830 8.6240 -0.1739 0.9609
2.4935 8.5857 -0.1561 0.9649
0.3594 8.6828 -0.1517 0.9658
-5.4338 8.6315 -0.1780 0.9600
-7.0946 8.7286 -0.1963 0.9560
-49.5980 -23.2755 -0.9563 0.8032
-15.6838 -20.6547 -0.4527 0.9014
-6.0373 -20.4159 -0.3716 0.9184
-2.7206 -16.1514 -0.2859 0.9366
29.2438 -89.5344 -1.6441 0.6860
30.0257 -64.3896 -1.2401 0.7526
22.8133 -36.6332 -0.7533 0.8414
31.3467 -38.9527 -0.8727 0.8187
32.1423 -31.3255 -0.7834 0.8356
41.4305 -24.3441 -0.8388 0.8251
86.8447 -14.8461 -1.5379 0.7029
96.1090 6.9293 -1.6819 0.6801
49.7482 9.7026 -0.8847 0.8165
39.7242 18.4064 -0.7642 0.8393
32.7647 20.2937 -0.6727 0.8571
10.7637 8.6189 -0.2407 0.9463
3.7775 8.6196 -0.1643 0.9631
2.5843 8.5851 -0.1565 0.9648
1.5049 8.6758 -0.1537 0.9654
0.4441 8.6823 -0.1517 0.9658
-2.7877 8.6778 -0.1591 0.9642
-6.9539 8.7278 -0.1948 0.9563
-89.3468 4.7879 -1.5618 0.6991
-67.8854 -4.5624 -1.1876 0.7617
-75.5847 -24.0781 -1.3847 0.7281
-16.0058 -20.6580 -0.4561 0.9007
-8.6451 -19.4687 -0.3718 0.9183
-6.1888 -20.2029 -0.3688 0.9189
28.7149 -90.9045 -1.6640 0.6829
22.2910 -36.5830 -0.7478 0.8425
30.7223 -38.9469 -0.8659 0.8200
32.1385 -31.9375 -0.7909 0.8342
80.5112 -24.8776 -1.4709 0.7138
26.9948 8.4550 -0.4938 0.8930
40.6422 18.3534 -0.7784 0.8366
32.7620 19.8535 -0.6687 0.8579
10.9794 8.6176 -0.2436 0.9457
8.6199 8.6321 -0.2129 0.9524
-8.9989 -19.0562 -1.1044 0.9191
-4.2365 -20.9100 -1.1181 0.9181
-1.7645 -22.2156 -1.1679 0.9146
1.8546 -44.7911 -2.3494 0.8356
7.7003 -47.1084 -2.5016 0.8260
22.4286 -38.8154 -2.3494 0.8356
26.9370 -35.8340 -2.3494 0.8356
29.3893 -30.5986 -2.2235 0.8437
32.0689 -26.1944 -2.1701 0.8472
40.4901 -19.2415 -2.3494 0.8356
39.0212 -13.0604 -2.1565 0.8480
47.6974 1.8587 -2.5016 0.8260
27.2553 11.5516 -1.5514 0.8882
27.7670 15.9545 -1.6783 0.8796
11.5177 8.6142 -0.7538 0.9440
7.0936 8.6414 -0.5859 0.9562
5.5032 8.6484 -0.5372 0.9598
2.8888 8.5617 -0.4736 0.9645
1.7968 8.6518 -0.4631 0.9652
0.7320 8.6805 -0.4565 0.9657
-0.3173 8.6870 -0.4556 0.9658
-1.3776 8.6935 -0.4613 0.9654
-2.4788 8.6923 -0.4737 0.9644
-3.6385 8.6434 -0.4915 0.9631
-4.9197 8.6107 -0.5197 0.9611
-6.4924 8.7249 -0.5700 0.9574
-8.3095 8.7361 -0.6319 0.9529
-10.6068 8.7502 -0.7206 0.9464
-13.7074 8.7693 -0.8528 0.9369
-17.8353 8.5823 -1.0373 0.9238
-24.5694 8.3566 -1.3601 0.9013
-44.5128 9.3576 -2.3838 0.8334
-45.0546 -1.5361 -2.3626 0.8348
-43.1405 -12.1892 -2.3494 0.8356
-44.0393 -18.4128 -2.5016 0.8260
-41.5032 -23.5792 -2.5016 0.8260
-38.3638 -28.4027 -2.5016 0.8260
-23.6453 -22.3813 -1.7063 0.8777
-12.6652 -19.6915 -1.2270 0.9105
7.2414 -47.1812 -2.5016 0.8260
32.0657 -26.7164 -2.1873 0.8460
37.4476 -24.2147 -2.3371 0.8364
46.6642 -10.0473 -2.5016 0.8260
11.7526 8.6128 -0.7636 0.9433
9.2051 8.6284 -0.6612 0.9507
1.8624 8.5489 -0.4585 0.9656
0.8171 8.6800 -0.4569 0.9657
-0.2327 8.6865 -0.4554 0.9658
-3.5397 8.6429 -0.4895 0.9633
-13.4151 8.7675 -0.8399 0.9378
-25.1832 8.8398 -1.3987 0.8986
-45.0716 -1.0976 -2.3628 0.8348
-43.5728 -6.3623 -2.3078 0.8383
-44.2165 -17.9833 -2.5016 0.8260
-41.7308 -23.1740 -2.5016 0.8260
-34.9845 -32.4744 -2.5016 0.8260
-18.3744 -21.7289 -1.4913 0.8923
-12.9417 -19.6972 -1.2352 0.9099
-9.4740 -19.0904 -1.1169 0.9182
-6.9038 -19.5158 -1.0849 0.9204
-4.6299 -20.7654 -1.1150 0.9183
-2.1897 -22.1063 -1.1642 0.9149
21.9852 -39.8180 -2.3837 0.8334
26.2343 -36.3517 -2.3494 0.8356
30.4186 -32.9301 -2.3494 0.8356
30.3843 -25.8207 -2.0897 0.8524
36.6525 -24.2098 -2.3021 0.8387
46.5642 -10.5011 -2.5016 0.8260
47.7245 0.9297 -2.5016 0.8260
44.3901 6.2611 -2.3494 0.8356
31.8148 8.4895 -1.7257 0.8764
27.3127 14.9938 -1.6329 0.8827
9.3854 8.6273 -0.6681 0.9502
7.3783 8.6397 -0.5954 0.9555
5.7193 8.6131 -0.5418 0.9594
4.3170 8.5937 -0.5040 0.9622
-1.5563 5.8897 -0.3193 0.9759
-15.9874 22.3819 -1.4415 0.8957
-7.9895 8.7341 -0.6204 0.9537
-10.2227 8.7733 -0.7060 0.9475
-17.0819 8.6333 -1.0031 0.9262
-21.6659 2.3059 -1.1419 0.9164
-43.2015 -5.8791 -2.2850 0.8398
-44.3895 -17.5519 -2.5016 0.8260
-41.9544 -22.7667 -2.5016 0.8260
-38.9095 -27.6504 -2.5016 0.8260
-35.2989 -32.1323 -2.5016 0.8260
-19.0864 -22.1302 -1.5316 0.8895
-4.7841 -20.5146 -1.1040 0.9191
-2.3893 -21.9415 -1.1567 0.9154
6.3214 -47.3132 -2.5016 0.8260
32.0592 -27.7861 -2.2234 0.8437
24.8656 -16.7743 -1.5719 0.8868
39.9109 -20.4157 -2.3494 0.8356
46.4597 -10.9539 -2.5016 0.8260
47.7313 0.4651 -2.5016 0.8260
12.9988 9.1425 -0.8329 0.9383
7.5242 8.6388 -0.6004 0.9551
5.8653 8.6490 -0.5477 0.9590
2.0372 8.5475 -0.4605 0.9654
0.9879 8.6790 -0.4578 0.9656
-1.1183 8.6919 -0.4593 0.9655
-1.5084 5.9420 -0.3213 0.9757
-4.5999 8.6264 -0.5123 0.9616
-12.8561 8.7640 -0.8154 0.9396
-30.0138 7.2308 -1.6180 0.8837
-23.6047 2.7449 -1.2454 0.9092
-45.1098 -0.2200 -2.3641 0.8347
-42.6855 -5.3862 -2.2548 0.8417
-44.5389 -17.1115 -2.5005 0.8260
-42.1741 -22.3571 -2.5016 0.8260
-39.1769 -27.2703 -2.5016 0.8260
-19.8590 -22.5778 -1.5758 0.8865
-13.5769 -19.8125 -1.2587 0.9083
-5.0238 -20.6324 -1.1129 0.9185
-2.5660 -21.6078 -1.1404 0.9165
11.5192 -46.3228 -2.5016 0.8260
39.7103 -20.8032 -2.3494 0.8356
47.7336 0.0004 -2.5016 0.8260
43.5307 10.7125 -2.3494 0.8356
27.2365 10.3122 -1.5263 0.8899
13.0886 9.0165 -0.8330 0.9383
9.7576 8.6251 -0.6825 0.9492
4.5335 8.6029 -0.5096 0.9618
3.2720 8.5794 -0.4812 0.9639
2.1252 8.5468 -0.4616 0.9653
0.0211 8.6849 -0.4552 0.9658
-1.0323 8.6914 -0.4587 0.9655
-3.2532 8.6560 -0.4846 0.9636
-4.4952 8.6315 -0.5100 0.9618
-5.8831 8.5847 -0.5454 0.9592
-9.7973 8.7452 -0.6883 0.9488
-16.3554 8.6699 -0.9701 0.9285
-21.8271 8.3854 -1.2254 0.9106
-28.7493 7.2230 -1.5535 0.8880
-23.8203 3.0053 -1.2583 0.9083
-40.3698 -9.7265 -2.1762 0.8468
-13.8946 -19.8586 -1.2702 0.9075
-10.2691 -19.2588 -1.1438 0.9163
-7.4571 -19.2704 -1.0829 0.9206
-5.1972 -20.4754 -1.1071 0.9189
-0.2025 -27.7656 -1.4552 0.8947
11.0677 -46.4328 -2.5016 0.8260
16.5755 -44.7633 -2.5016 0.8260
29.4440 -33.8043 -2.3494 0.8356
32.0524 -28.8919 -2.2615 0.8413
39.5059 -21.1888 -2.3494 0.8356
47.3285 -6.2055 -2.5016 0.8260
47.7313 -0.4643 -2.5016 0.8260
43.6329 10.2882 -2.3494 0.8356
27.2320 10.0085 -1.5205 0.8903
9.9498 8.6239 -0.6901 0.9486
3.3698 8.5839 -0.4833 0.9637
2.2136 8.5461 -0.4627 0.9653
0.7713 5.7731 -0.3052 0.9769
0.1056 8.6844 -0.4552 0.9658
-0.9465 8.6908 -0.4582 0.9656
-7.5306 8.7313 -0.6043 0.9549
-12.3286 8.7608 -0.7926 0.9412
-16.0097 8.6874 -0.9546 0.9296
-21.6460 8.5586 -1.2199 0.9110
-27.6312 7.2288 -1.4968 0.8919
-44.9253 6.1129 -2.3761 0.8339
-45.1301 0.6587 -2.3654 0.8346
-42.6160 -4.5363 -2.2460 0.8423
-39.7887 -9.1776 -2.1400 0.8491
-44.2121 -16.0053 -2.4642 0.8283
-42.6014 -21.5318 -2.5016 0.8260
-36.2222 -31.0878 -2.5016 0.8260
-14.2238 -19.9136 -1.2825 0.9066
-10.4923 -19.2243 -1.1478 0.9160
-0.4676 -27.4548 -1.4391 0.8958
10.6152 -46.5383 -2.5016 0.8260
21.4281 -42.6536 -2.5016 0.8260
29.1135 -34.0893 -2.3494 0.8356
33.6951 -24.1917 -2.1739 0.8469
41.6084 -16.6860 -2.3494 0.8356
47.2659 -6.6658 -2.5016 0.8260
47.7246 -0.9289 -2.5016 0.8260
44.9922 4.5679 -2.3701 0.8343
27.2890 13.6261 -1.5985 0.8850
13.2685 8.7644 -0.8334 0.9383
6.2400 8.6467 -0.5588 0.9582
4.7556 8.6133 -0.5156 0.9614
3.4685 8.5884 -0.4854 0.9636
0.8223 5.7294 -0.3033 0.9771
0.1902 8.6839 -0.4552 0.9658
-0.8609 8.6903 -0.4577 0.9656
-4.2887 8.6416 -0.5056 0.9621
-7.3828 8.7304 -0.5992 0.9552
-9.4190 8.7429 -0.6735 0.9498
-12.0756 8.7592 -0.7818 0.9420
-21.1723 8.6106 -1.1978 0.9125
-36.7619 0.8946 -1.9272 0.8630
-44.7729 -4.3256 -2.3574 0.8351
-43.7117 -15.3445 -2.4279 0.8306
-42.8090 -21.1160 -2.5016 0.8260
-36.5232 -30.7336 -2.5016 0.8260
-23.5289 -25.2250 -1.8078 0.8710
-14.6261 -20.0610 -1.3011 0.9053
-10.8954 -19.5088 -1.1711 0.9144
-7.8853 -19.2546 -1.0904 0.9200
-5.5360 -20.1560 -1.0954 0.9197
4.4746 -47.5234 -2.5016 0.8260
10.1616 -46.6394 -2.5016 0.8260
15.7008 -45.0775 -2.5016 0.8260
21.0118 -42.8602 -2.5016 0.8260
24.4345 -37.5851 -2.3494 0.8356
45.9981 -12.7543 -2.5016 0.8260
47.1987 -7.1257 -2.5016 0.8260
47.7133 -1.3935 -2.5016 0.8260
43.8250 9.4368 -2.3494 0.8356
27.3626 17.6942 -1.7077 0.8776
10.3473 8.6214 -0.7058 0.9475
8.1334 8.6350 -0.6217 0.9536
6.3683 8.6459 -0.5628 0.9579
4.8686 8.6186 -0.5188 0.9611
2.3917 8.5447 -0.4650 0.9651
0.8790 5.7279 -0.3037 0.9771
0.2747 8.6833 -0.4553 0.9658
-1.8505 8.6964 -0.4660 0.9650
-2.9723 8.6691 -0.4803 0.9640
-7.2376 8.7295 -0.5943 0.9556
-9.2359 8.7418 -0.6665 0.9503
-11.8296 8.7577 -0.7714 0.9427
-25.4946 7.2030 -1.3884 0.8993
-44.8411 -3.8919 -2.3589 0.8350
-37.4895 -7.8817 -2.0077 0.8577
-43.2086 -14.6969 -2.3919 0.8329
-43.0126 -20.6982 -2.5016 0.8260
-30.8957 -32.4829 -2.3494 0.8356
-14.9543 -20.0971 -1.3128 0.9045
-11.1924 -19.5902 -1.1824 0.9136
-8.0429 -19.1068 -1.0864 0.9203
-2.5703 -16.2217 -0.8608 0.9363
2.1833 -25.8866 -1.3615 0.9012
9.7070 -46.7362 -2.5016 0.8260
20.5935 -43.0628 -2.5016 0.8260
24.0674 -37.8212 -2.3494 0.8356
38.7064 -22.2393 -2.3395 0.8363
35.5341 -15.0597 -2.0226 0.8568
42.5845 -12.2555 -2.3223 0.8374
47.6974 -1.8580 -2.5016 0.8260
27.3554 17.3141 -1.6967 0.8784
10.5531 8.6202 -0.7141 0.9469
3.6685 8.5976 -0.4899 0.9633
2.4814 8.5440 -0.4663 0.9650
-0.6903 8.6893 -0.4568 0.9657
-11.5899 8.7562 -0.7613 0.9435
-15.0234 8.7294 -0.9106 0.9328
-20.1831 8.6699 -1.1512 0.9158
-24.5353 7.1905 -1.3399 0.9027
-44.7972 7.4338 -2.3798 0.8337
-42.7050 -14.0635 -2.3563 0.8352
-43.2120 -20.2787 -2.5016 0.8260
-37.1145 -30.0168 -2.5016 0.8260
-15.2472 -20.0797 -1.3213 0.9039
-11.4577 -19.6090 -1.1902 0.9130
-8.1953 -18.9510 -1.0821 0.9206
-5.9806 -20.2244 -1.1053 0.9190
-1.1245 -24.3047 -1.2751 0.9071
23.6980 -38.0537 -2.3494 0.8356
32.0795 -24.4826 -2.1149 0.8507
41.1033 -17.8941 -2.3494 0.8356
47.6771 -2.3223 -2.5016 0.8260
47.6100 3.4326 -2.5016 0.8260
25.5860 8.2880 -1.4095 0.8979
27.2726 12.6369 -1.5753 0.8866
27.3483 16.9389 -1.6859 0.8791
10.7637 8.6189 -0.7227 0.9463
8.4547 8.6331 -0.6333 0.9528
6.6305 8.6443 -0.5709 0.9573
3.7679 8.5978 -0.4920 0.9631
2.5728 8.5471 -0.4678 0.9649
0.4441 8.6823 -0.4556 0.9658
-3.9802 8.6450 -0.4988 0.9626
-5.2931 8.5924 -0.5289 0.9604
-6.9539 8.7278 -0.5848 0.9563
-19.7166 8.6979 -1.1294 0.9173
-24.5749 7.4627 -1.3460 0.9022
-44.7449 7.8735 -2.3810 0.8336
-44.9148 -3.0186 -2.3592 0.8350
-42.7145 -13.6070 -2.3494 0.8356
-43.4074 -19.8570 -2.5016 0.8260
-31.5222 -31.8753 -2.3494 0.8356
-3.7794 -21.1766 -1.1274 0.9174
-1.3292 -23.7246 -1.2453 0.9092
14.3778 -45.5167 -2.5016 0.8260
22.2909 -36.5830 -2.2451 0.8423
38.4281 -23.0859 -2.3494 0.8356
47.6522 -2.7862 -2.5016 0.8260
