ply
format ascii 1.0
element vertex 1563
property float32 x
property float32 y
property float32 z
property float32 I
end_header
-17.2133 -20.6086 -2.3492 0.8978
-13.3091 -20.5318 -2.1407 0.9064
-9.4948 -19.4382 -1.8927 0.9168
-6.6210 -19.1036 -1.7689 0.9220
-4.2527 -19.6738 -1.7610 0.9224
-1.9087 -20.6554 -1.8148 0.9201
0.6237 -21.7992 -1.9080 0.9162
10.8923 -26.4352 -2.5014 0.8915
16.8982 -23.0633 -2.5014 0.8915
19.5532 -20.8599 -2.5014 0.8915
21.9235 -18.3528 -2.5014 0.8915
23.9745 -15.5784 -2.5014 0.8915
25.6764 -12.5772 -2.5014 0.8915
27.9392 -6.0717 -2.5014 0.8915
11.7821 8.6126 -1.2768 0.9431
7.2039 8.5861 -0.9806 0.9560
5.5475 8.5166 -0.8892 0.9600
4.2455 8.6430 -0.8425 0.9621
3.0252 8.6664 -0.8031 0.9638
1.8950 8.6734 -0.7767 0.9650
0.8214 8.6800 -0.7628 0.9656
-6.3625 8.7241 -0.9447 0.9576
-10.4043 8.7490 -1.1893 0.9469
-17.3219 8.5325 -1.6893 0.9254
-26.2685 5.7697 -2.3530 0.8976
-26.8431 -0.6788 -2.3492 0.8978
-27.5799 -7.5373 -2.5014 0.8915
-26.4713 -10.8044 -2.5014 0.8915
-24.9771 -13.9143 -2.5014 0.8915
-23.1192 -16.8215 -2.5014 0.8915
-17.3044 -20.5321 -2.3492 0.8978
-9.6088 -19.4526 -1.8982 0.9166
-6.7287 -19.1398 -1.7750 0.9218
-2.0001 -20.6468 -1.8148 0.9201
3.8778 -26.5702 -2.3492 0.8978
16.7959 -23.1379 -2.5014 0.8915
23.9052 -15.6845 -2.5014 0.8915
25.6204 -12.6908 -2.5014 0.8915
26.9625 -9.5124 -2.5014 0.8915
11.8914 8.6119 -1.2845 0.9428
7.2716 8.5893 -0.9846 0.9558
1.9352 8.6731 -0.7775 0.9649
-1.2372 8.6106 -0.7611 0.9657
-2.3125 8.5737 -0.7769 0.9650
-8.0792 8.7347 -1.0410 0.9533
-13.0396 8.5968 -1.3664 0.9392
-21.8957 7.7794 -2.0329 0.9109
-26.2464 5.8868 -2.3533 0.8976
-26.7178 2.6778 -2.3492 0.8978
-26.5189 -10.6870 -2.5014 0.8915
-25.0385 -13.8035 -2.5014 0.8915
-6.9175 -19.4018 -1.8021 0.9206
-2.0894 -20.6163 -1.8129 0.9202
7.3844 -27.6212 -2.5014 0.8915
21.7600 -18.5463 -2.5014 0.8915
23.8355 -15.7902 -2.5014 0.8915
25.5639 -12.8042 -2.5014 0.8915
26.9201 -9.6318 -2.5014 0.8915
28.5863 0.5329 -2.5014 0.8915
28.3140 3.9723 -2.5014 0.8915
25.9483 6.9064 -2.3492 0.8978
24.9275 9.9817 -2.3492 0.8978
7.3399 8.5925 -0.9887 0.9556
5.6588 8.5215 -0.8949 0.9598
9.0854 18.0891 -1.7710 0.9219
3.1114 8.6659 -0.8056 0.9637
1.9755 8.6729 -0.7782 0.9649
-1.1983 8.6104 -0.7606 0.9657
-2.2723 8.5757 -0.7762 0.9650
-4.7665 8.7143 -0.8690 0.9609
-6.2443 8.7234 -0.9386 0.9578
-8.0073 8.7342 -1.0367 0.9535
-10.2178 8.7478 -1.1768 0.9474
-28.2711 -3.9024 -2.4969 0.8917
-27.6456 -7.2926 -2.5014 0.8915
-25.0994 -13.6925 -2.5014 0.8915
-13.9028 -20.8358 -2.1914 0.9043
-9.8388 -19.4816 -1.9094 0.9161
-2.1810 -20.6101 -1.8132 0.9202
0.3315 -21.6442 -1.8938 0.9168
7.2620 -27.6537 -2.5014 0.8915
13.6646 -25.1145 -2.5014 0.8915
16.5903 -23.2858 -2.5014 0.8915
23.7654 -15.8956 -2.5014 0.8915
26.8772 -9.7509 -2.5014 0.8915
27.8560 -6.4425 -2.5014 0.8915
25.9786 6.7913 -2.3492 0.8978
24.9714 9.8711 -2.3492 0.8978
15.9887 8.6764 -1.5915 0.9296
7.4088 8.5958 -0.9928 0.9555
5.7150 8.5240 -0.8979 0.9596
0.9379 8.6793 -0.7638 0.9656
-0.1135 8.6612 -0.7578 0.9658
-1.1597 8.6121 -0.7603 0.9657
-2.2323 8.5776 -0.7754 0.9650
-4.7162 8.7140 -0.8669 0.9610
-6.1858 8.7230 -0.9356 0.9580
-7.9359 8.7338 -1.0324 0.9537
-16.8221 8.5659 -1.6516 0.9270
-26.2006 6.1208 -2.3540 0.8976
-26.8497 -0.3221 -2.3492 0.8978
-27.6776 -7.1701 -2.5014 0.8915
-26.6125 -10.4518 -2.5014 0.8915
-25.1598 -13.5811 -2.5014 0.8915
-23.3408 -16.5128 -2.5014 0.8915
-21.1818 -19.2040 -2.5014 0.8915
-17.5758 -20.3003 -2.3492 0.8978
-7.0923 -19.3485 -1.8029 0.9206
-4.5419 -19.3451 -1.7385 0.9233
7.1395 -27.6856 -2.5014 0.8915
25.4495 -13.0302 -2.5014 0.8915
27.8272 -6.5658 -2.5014 0.8915
28.5899 0.2796 -2.5014 0.8915
16.0555 8.6209 -1.5944 0.9294
15.1624 10.6766 -1.6224 0.9282
9.5571 8.6263 -1.1264 0.9496
9.1963 17.9125 -1.7616 0.9223
3.1982 8.6654 -0.8081 0.9636
2.0564 8.6724 -0.7798 0.9648
0.9768 8.6790 -0.7641 0.9655
-0.0751 8.6630 -0.7579 0.9658
-1.1211 8.6139 -0.7600 0.9657
-3.3191 8.5345 -0.8012 0.9639
-7.8652 8.7334 -1.0283 0.9539
-16.6603 8.5767 -1.6394 0.9275
-19.0088 2.1607 -1.6738 0.9261
-28.1981 -3.6380 -2.4875 0.8921
-27.7092 -7.0474 -2.5014 0.8915
-26.6585 -10.3337 -2.5014 0.8915
-25.2197 -13.4696 -2.5014 0.8915
-23.4136 -16.4093 -2.5014 0.8915
-21.2666 -19.1101 -2.5014 0.8915
-17.6654 -20.2223 -2.3492 0.8978
-4.6502 -19.4194 -1.7470 0.9230
-2.3483 -20.4572 -1.8015 0.9206
7.0167 -27.7169 -2.5014 0.8915
10.3042 -26.6700 -2.5014 0.8915
13.4416 -25.2346 -2.5014 0.8915
16.3833 -23.4318 -2.5014 0.8915
23.6236 -16.1055 -2.5014 0.8915
27.7979 -6.6890 -2.5014 0.8915
28.4012 -3.2921 -2.5014 0.8915
15.1665 1.9226 -1.3375 0.9405
25.0579 9.6495 -2.3492 0.8978
16.7817 8.9152 -1.6625 0.9265
12.3063 8.5842 -1.3127 0.9415
9.6421 8.6258 -1.1319 0.9494
1.0157 8.6788 -0.7645 0.9655
-0.0368 8.6648 -0.7581 0.9658
-4.6166 8.7134 -0.8627 0.9612
-7.7951 8.7329 -1.0241 0.9541
-12.5926 8.6260 -1.3354 0.9406
-16.5095 8.5918 -1.6283 0.9280
-18.9015 2.2333 -1.6652 0.9264
-26.8515 -0.0842 -2.3492 0.8978
-17.7549 -20.1439 -2.3492 0.8978
-10.1890 -19.5258 -1.9269 0.9154
-4.7383 -19.4077 -1.7478 0.9229
13.3297 -25.2939 -2.5014 0.8915
16.2793 -23.5042 -2.5014 0.8915
21.4280 -18.9289 -2.5014 0.8915
27.7679 -6.8121 -2.5014 0.8915
28.3863 -3.4178 -2.5014 0.8915
15.1832 1.8564 -1.3382 0.9404
26.0666 6.4456 -2.3492 0.8978
25.1004 9.5385 -2.3492 0.8978
12.4583 8.6085 -1.3249 0.9410
9.7279 8.6252 -1.1374 0.9491
7.6190 8.6056 -1.0056 0.9549
5.8859 8.5315 -0.9068 0.9592
0.0016 8.6666 -0.7582 0.9658
-1.0440 8.6175 -0.7594 0.9657
-2.1124 8.5835 -0.7734 0.9651
-3.2323 8.5344 -0.7984 0.9640
-4.5671 8.7131 -0.8607 0.9613
-7.7255 8.7325 -1.0201 0.9543
-16.3785 8.6161 -1.6191 0.9284
-26.1279 6.4712 -2.3550 0.8976
-26.8516 0.0348 -2.3492 0.8978
-27.7177 -3.3267 -2.4424 0.8940
-27.7705 -6.8017 -2.5014 0.8915
-26.7490 -10.0972 -2.5014 0.8915
8.9058 8.6303 -1.5227 0.9513
6.8734 8.4934 -1.3416 0.9569
3.5872 5.7265 -0.8297 0.9731
2.8543 8.6675 -1.1205 0.9639
0.6666 8.6809 -1.0690 0.9655
-0.3813 8.6400 -1.0619 0.9657
-1.4286 8.5874 -1.0689 0.9655
-10.7895 8.7513 -1.7058 0.9456
-13.4358 8.4372 -1.9480 0.9381
-18.7572 3.7728 -2.3492 0.9258
-20.3536 -0.8758 -2.5014 0.9212
-18.7224 -8.0315 -2.5014 0.9212
-16.2584 -12.2760 -2.5014 0.9212
-14.6614 -14.1449 -2.5014 0.9212
-10.1928 -16.1917 -2.3492 0.9258
-8.1682 -17.3016 -2.3492 0.9258
-6.0248 -18.1595 -2.3492 0.9258
-3.7936 -18.7530 -2.3492 0.9258
-1.5071 -19.0734 -2.3492 0.9258
0.8013 -19.1160 -2.3492 0.9258
5.6962 -19.5598 -2.5014 0.9212
8.0108 -18.7313 -2.5014 0.9212
12.2579 -16.2720 -2.5014 0.9212
14.1287 -14.6770 -2.5014 0.9212
15.7937 -12.8683 -2.5014 0.9212
19.3289 -6.4365 -2.5014 0.9212
19.9635 -4.0614 -2.5014 0.9212
20.3073 -1.6272 -2.5014 0.9212
12.2952 2.0035 -1.5296 0.9510
17.5999 7.5039 -2.3492 0.9258
11.4619 8.6146 -1.7605 0.9439
6.9374 8.4953 -1.3467 0.9568
4.1118 8.6598 -1.1771 0.9621
1.7747 8.6741 -1.0871 0.9649
-0.3431 8.6419 -1.0619 0.9657
-2.4642 8.5318 -1.0904 0.9648
-3.7013 8.7078 -1.1618 0.9626
-5.0212 8.7159 -1.2351 0.9603
-6.5426 8.7252 -1.3391 0.9570
-8.3729 8.7365 -1.4858 0.9524
-18.7403 3.8558 -2.3492 0.9258
-19.5787 -5.6313 -2.5014 0.9212
-16.3126 -12.2038 -2.5014 0.9212
-14.7239 -14.0799 -2.5014 0.9212
-10.2644 -16.1464 -2.3492 0.9258
-6.1051 -18.1326 -2.3492 0.9258
-3.8766 -18.7360 -2.3492 0.9258
3.0144 -18.8939 -2.3492 0.9258
5.6096 -19.5849 -2.5014 0.9212
10.1305 -17.6750 -2.5014 0.9212
14.0635 -14.7395 -2.5014 0.9212
15.7366 -12.9382 -2.5014 0.9212
19.3002 -6.5221 -2.5014 0.9212
19.9453 -4.1498 -2.5014 0.9212
20.2999 -1.7172 -2.5014 0.9212
20.3589 0.7405 -2.5014 0.9212
12.2526 1.9409 -1.5232 0.9512
15.7592 9.0093 -2.2289 0.9295
11.5674 8.6139 -1.7708 0.9435
7.0019 8.4972 -1.3519 0.9566
5.3970 8.4483 -1.2309 0.9604
4.1588 8.6595 -1.1795 0.9620
2.9395 8.6670 -1.1237 0.9638
-1.3512 8.5914 -1.0679 0.9656
-2.4239 8.5341 -1.0893 0.9649
-3.6557 8.7075 -1.1595 0.9627
-4.9698 8.7156 -1.2319 0.9604
-8.2985 8.7360 -1.4795 0.9526
-10.5948 8.7501 -1.6872 0.9461
-17.2406 8.3035 -2.3496 0.9258
-18.1123 6.1654 -2.3492 0.9258
-18.7929 -7.8653 -2.5014 0.9212
-17.7086 -10.0717 -2.5014 0.9212
-16.3665 -12.1314 -2.5014 0.9212
-14.7861 -14.0145 -2.5014 0.9212
-8.3212 -17.2286 -2.3492 0.9258
-6.1854 -18.1054 -2.3492 0.9258
-3.9596 -18.7186 -2.3492 0.9258
0.6319 -19.1224 -2.3492 0.9258
5.5228 -19.6095 -2.5014 0.9212
10.0521 -17.7198 -2.5014 0.9212
13.9981 -14.8016 -2.5014 0.9212
15.6791 -13.0077 -2.5014 0.9212
19.2711 -6.6075 -2.5014 0.9212
19.9267 -4.2381 -2.5014 0.9212
20.2921 -1.8070 -2.5014 0.9212
20.3620 0.6503 -2.5014 0.9212
17.6657 7.3477 -2.3492 0.9258
15.8062 8.9435 -2.2299 0.9294
9.1444 8.6288 -1.5437 0.9506
7.0669 8.4991 -1.3572 0.9564
4.2060 8.6592 -1.1820 0.9619
2.9823 8.6667 -1.1254 0.9637
-0.2665 8.6456 -1.0620 0.9657
-6.4221 8.7245 -1.3302 0.9573
-8.2248 8.7356 -1.4732 0.9528
-13.0867 8.4625 -1.9135 0.9391
-17.2054 8.3806 -2.3498 0.9258
-18.0848 6.2455 -2.3492 0.9258
-18.7054 4.0217 -2.3492 0.9258
-19.0536 1.7393 -2.3492 0.9258
-20.3634 -0.6052 -2.5014 0.9212
-20.1423 -3.0536 -2.5014 0.9212
-19.6278 -5.4576 -2.5014 0.9212
-17.7531 -9.9932 -2.5014 0.9212
-14.8480 -13.9489 -2.5014 0.9212
-13.0597 -15.6358 -2.5014 0.9212
-10.4071 -16.0549 -2.3492 0.9258
-8.3974 -17.1915 -2.3492 0.9258
-1.7604 -19.0517 -2.3492 0.9258
0.5472 -19.1250 -2.3492 0.9258
12.0406 -16.4334 -2.5014 0.9212
13.9324 -14.8635 -2.5014 0.9212
18.2954 -8.9617 -2.5014 0.9212
20.2839 -1.8969 -2.5014 0.9212
20.3647 0.5601 -2.5014 0.9212
15.8532 8.8776 -2.2309 0.9294
9.2254 8.6283 -1.5510 0.9504
7.1324 8.5010 -1.3625 0.9563
5.5052 8.4518 -1.2385 0.9602
3.0252 8.6664 -1.1271 0.9637
-1.2739 8.5954 -1.0669 0.9656
-2.3436 8.5385 -1.0872 0.9649
-7.3362 17.9173 -2.3772 0.9249
-4.8676 8.7149 -1.2257 0.9606
-6.3625 8.7241 -1.3258 0.9574
-12.9740 8.4713 -1.9025 0.9395
-17.1697 8.4576 -2.3501 0.9258
-18.0569 6.3256 -2.3492 0.9258
-19.0457 1.8237 -2.3492 0.9258
-20.3659 -0.5150 -2.5014 0.9212
-20.1556 -2.9644 -2.5014 0.9212
-19.6518 -5.3706 -2.5014 0.9212
-18.8618 -7.6985 -2.5014 0.9212
-13.1289 -15.5778 -2.5014 0.9212
-10.4820 -16.0147 -2.3501 0.9258
-8.4735 -17.1542 -2.3492 0.9258
-1.8448 -19.0437 -2.3492 0.9258
0.4625 -19.1272 -2.3492 0.9258
9.8948 -17.8081 -2.5014 0.9212
13.8664 -14.9250 -2.5014 0.9212
17.0334 -11.1758 -2.5014 0.9212
18.2555 -9.0427 -2.5014 0.9212
20.2753 -1.9868 -2.5014 0.9212
20.1621 2.9197 -2.5014 0.9212
11.8914 8.6119 -1.8028 0.9425
9.3072 8.6278 -1.5583 0.9501
7.1985 8.5029 -1.3679 0.9561
5.5598 8.4535 -1.2423 0.9600
4.2894 8.6354 -1.1839 0.9619
3.0682 8.6662 -1.1288 0.9636
0.8602 8.6797 -1.0710 0.9655
-2.3036 8.5407 -1.0861 0.9650
-4.8169 8.7146 -1.2226 0.9607
-12.8767 8.4894 -1.8937 0.9397
-18.0287 6.4055 -2.3492 0.9258
-19.0375 1.9080 -2.3492 0.9258
-20.3680 -0.4248 -2.5014 0.9212
-20.1685 -2.8751 -2.5014 0.9212
-18.8957 -7.6149 -2.5014 0.9212
-17.8409 -9.8355 -2.5014 0.9212
-16.5263 -11.9129 -2.5014 0.9212
-14.9710 -13.8168 -2.5014 0.9212
-13.1978 -15.5195 -2.5014 0.9212
-10.6073 -16.0503 -2.3622 0.9254
-8.5494 -17.1165 -2.3492 0.9258
-4.2079 -18.6644 -2.3492 0.9258
-1.9291 -19.0353 -2.3492 0.9258
0.3778 -19.1291 -2.3492 0.9258
13.8002 -14.9863 -2.5014 0.9212
20.2663 -2.0766 -2.5014 0.9212
20.1748 2.8304 -2.5014 0.9212
9.8618 2.6248 -1.2530 0.9597
17.7618 7.1123 -2.3492 0.9258
15.9473 8.7456 -2.2332 0.9293
12.0020 8.6113 -1.8137 0.9422
9.3897 8.6273 -1.5657 0.9499
7.2650 8.5048 -1.3734 0.9559
5.6147 8.4552 -1.2462 0.9599
3.1114 8.6659 -1.1305 0.9636
0.8991 8.6795 -1.0714 0.9654
-0.1517 8.6511 -1.0624 0.9657
-2.2636 8.5429 -1.0851 0.9650
-10.2178 8.7478 -1.6516 0.9472
-18.0002 6.4853 -2.3492 0.9258
-19.0288 1.9924 -2.3492 0.9258
-20.3697 -0.3346 -2.5014 0.9212
-19.6986 -5.1963 -2.5014 0.9212
-18.9292 -7.5312 -2.5014 0.9212
-17.8843 -9.7564 -2.5014 0.9212
-13.2664 -15.4609 -2.5014 0.9212
-4.2905 -18.6456 -2.3492 0.9258
-2.0135 -19.0266 -2.3492 0.9258
5.1683 -19.6810 -2.4985 0.9213
16.9337 -11.3263 -2.5014 0.9212
19.1510 -6.9479 -2.5014 0.9212
19.8485 -4.5905 -2.5014 0.9212
20.2569 -2.1663 -2.5014 0.9212
9.8841 2.5839 -1.2544 0.9597
17.7931 7.0335 -2.3492 0.9258
12.1055 8.6045 -1.8236 0.9419
7.3321 8.5067 -1.3789 0.9557
8.7527 17.2360 -2.3735 0.9251
-3.3311 8.4544 -1.1157 0.9640
-4.7162 8.7140 -1.2166 0.9609
-7.9359 8.7338 -1.4490 0.9536
-10.1259 8.7473 -1.6430 0.9475
-12.6847 8.5250 -1.8765 0.9403
-17.0607 8.6875 -2.3507 0.9257
-17.9713 6.5650 -2.3492 0.9258
-18.6312 4.3525 -2.3492 0.9258
-19.7214 -5.1090 -2.5014 0.9212
-18.9624 -7.4473 -2.5014 0.9212
-17.9273 -9.6771 -2.5014 0.9212
-16.6312 -11.7660 -2.5014 0.9212
-10.8714 -16.1374 -2.3891 0.9246
7.4263 -18.9706 -2.5014 0.9212
9.6573 -17.9380 -2.5014 0.9212
13.6669 -15.1080 -2.5014 0.9212
15.3871 -13.3518 -2.5014 0.9212
16.8834 -11.4012 -2.5014 0.9212
20.2471 -2.2560 -2.5014 0.9212
15.1257 1.9856 -1.8731 0.9404
9.9038 2.5423 -1.2555 0.9596
17.8241 6.9547 -2.3492 0.9258
16.0555 8.6209 -2.2376 0.9292
9.5571 8.6263 -1.5808 0.9494
5.7257 8.4587 -1.2542 0.9597
2.0564 8.6724 -1.0944 0.9647
-0.0751 8.6547 -1.0627 0.9657
-1.1197 8.6033 -1.0653 0.9656
-6.1277 8.7227 -1.3089 0.9579
-7.8652 8.7334 -1.4431 0.9537
-10.0351 8.7467 -1.6345 0.9478
-12.5901 8.5426 -1.8681 0.9405
-19.7438 -5.0216 -2.5014 0.9212
-17.9700 -9.5976 -2.5014 0.9212
-16.6831 -11.6923 -2.5014 0.9212
-8.7761 -17.0014 -2.3492 0.9258
-2.1819 -19.0080 -2.3492 0.9258
4.9879 -19.7030 -2.4955 0.9214
7.3421 -19.0034 -2.5014 0.9212
11.6737 -16.6960 -2.5014 0.9212
13.5998 -15.1683 -2.5014 0.9212
16.8327 -11.4758 -2.5014 0.9212
18.0925 -9.3647 -2.5014 0.9212
20.3721 0.1090 -2.5014 0.9212
15.0150 1.9034 -1.8584 0.9408
16.7817 8.9152 -2.3333 0.9263
7.4678 8.5106 -1.3902 0.9554
5.7817 8.4604 -1.2582 0.9595
4.4791 8.6302 -1.1939 0.9616
1.0157 8.6788 -1.0729 0.9654
-1.0812 8.6053 -1.0649 0.9657
-2.1442 8.5494 -1.0822 0.9651
-3.2532 8.4758 -1.1147 0.9641
-6.0699 8.7223 -1.3048 0.9581
-7.7951 8.7329 -1.4373 0.9539
-12.4962 8.5600 -1.8598 0.9408
-18.7969 2.2209 -2.3240 0.9266
-19.7659 -4.9341 -2.5014 0.9212
-19.0277 -7.2789 -2.5014 0.9212
-16.7348 -11.6182 -2.5014 0.9212
-15.2135 -13.5494 -2.5014 0.9212
-8.8513 -16.9623 -2.3492 0.9258
-6.7437 -17.9050 -2.3492 0.9258
-4.5379 -18.5869 -2.3492 0.9258
7.2579 -19.0357 -2.5014 0.9212
9.4979 -18.0229 -2.5014 0.9212
11.5996 -16.7476 -2.5014 0.9212
13.5325 -15.2285 -2.5014 0.9212
15.2683 -13.4876 -2.5014 0.9212
16.7817 -11.5503 -2.5014 0.9212
18.0508 -9.4448 -2.5014 0.9212
19.0570 -7.2018 -2.5014 0.9212
20.2263 -2.4353 -2.5014 0.9212
15.1734 1.8553 -1.8769 0.9403
16.7811 8.8199 -2.3277 0.9264
12.4583 8.6085 -1.8593 0.9408
7.5366 8.5126 -1.3960 0.9552
2.1376 8.6719 -1.0966 0.9646
-1.0427 8.6072 -1.0646 0.9657
-2.1045 8.5515 -1.0813 0.9651
-3.2142 8.4866 -1.1143 0.9641
-6.0125 8.7220 -1.3007 0.9582
-9.8561 8.7456 -1.6179 0.9483
-16.9485 8.9159 -2.3514 0.9257
-17.8824 6.8032 -2.3492 0.9258
-18.5717 4.5997 -2.3492 0.9258
-20.3685 0.0264 -2.5009 0.9212
-20.2272 -2.4277 -2.5014 0.9212
-19.0597 -7.1946 -2.5014 0.9212
8.9058 8.6303 -1.9642 0.9510
4.0651 8.6600 -1.5152 0.9620
2.8543 8.6675 -1.4453 0.9637
-5.0730 8.7162 -1.5973 0.9600
-10.7895 8.7513 -2.2003 0.9453
-13.4197 6.3174 -2.3492 0.9417
-14.0830 4.6550 -2.3492 0.9417
-15.1585 -4.4327 -2.5014 0.9380
-14.5142 -6.2263 -2.5014 0.9380
-13.6585 -7.9292 -2.5014 0.9380
-11.3659 -10.9656 -2.5014 0.9380
-2.9624 -14.6440 -2.3664 0.9413
0.6549 -15.6231 -2.4766 0.9386
6.2102 -14.5211 -2.5014 0.9380
9.5027 -12.6145 -2.5014 0.9380
12.2438 -9.9759 -2.5014 0.9380
14.2742 -6.7583 -2.5014 0.9380
14.9844 -4.9898 -2.5014 0.9380
15.4763 -3.1485 -2.5014 0.9380
15.7802 0.6440 -2.5014 0.9380
9.3656 2.7162 -1.5445 0.9613
13.6440 5.8173 -2.3492 0.9417
11.8569 8.9114 -2.3492 0.9417
6.8612 8.4020 -1.7181 0.9570
5.2645 8.3220 -1.5597 0.9609
0.7053 8.6807 -1.3794 0.9653
-0.3402 8.5704 -1.3585 0.9659
-3.7013 8.7078 -1.4986 0.9624
-6.5426 8.7252 -1.7273 0.9568
-10.6916 8.7507 -2.1883 0.9456
-13.3916 6.3768 -2.3492 0.9417
-14.5280 2.9892 -2.3492 0.9417
-15.5933 -2.5055 -2.5014 0.9380
-11.4144 -10.9151 -2.5014 0.9380
-10.0165 -12.2106 -2.5014 0.9380
-8.4728 -13.3282 -2.5014 0.9380
-6.8057 -14.2517 -2.5014 0.9380
-4.9367 -14.6622 -2.4504 0.9393
-3.0284 -14.6367 -2.3673 0.9413
-1.2470 -14.9392 -2.3744 0.9411
6.1458 -14.5484 -2.5014 0.9380
10.9025 -11.4265 -2.5014 0.9380
12.1995 -10.0300 -2.5014 0.9380
15.7371 -1.3312 -2.5014 0.9380
15.7829 0.5741 -2.5014 0.9380
12.6493 2.0037 -2.0284 0.9495
11.8962 8.8588 -2.3492 0.9417
9.0641 8.6293 -1.9822 0.9506
5.3238 8.3338 -1.5663 0.9607
4.1588 8.6595 -1.5215 0.9618
2.9395 8.6670 -1.4495 0.9636
0.7440 8.6805 -1.3799 0.9653
-1.3400 8.5200 -1.3660 0.9657
-2.4034 8.4617 -1.3932 0.9650
-3.6557 8.7075 -1.4957 0.9625
-4.9698 8.7156 -1.5891 0.9602
-6.4822 8.7249 -1.7215 0.9569
-10.5948 8.7501 -2.1764 0.9459
-12.4907 7.9989 -2.3492 0.9417
-15.7341 1.3661 -2.5014 0.9380
-15.7841 -0.5391 -2.5014 0.9380
-15.6042 -2.4364 -2.5014 0.9380
-13.7283 -7.8079 -2.5014 0.9380
-12.6878 -9.4046 -2.5014 0.9380
-11.4626 -10.8645 -2.5014 0.9380
-8.5318 -13.2905 -2.5014 0.9380
-3.0949 -14.6310 -2.3686 0.9412
0.5141 -15.5571 -2.4653 0.9389
4.2814 -15.2019 -2.5014 0.9380
6.0813 -14.5755 -2.5014 0.9380
7.7927 -13.7369 -2.5014 0.9380
9.3906 -12.6982 -2.5014 0.9380
12.1549 -10.0840 -2.5014 0.9380
14.2138 -6.8845 -2.5014 0.9380
14.9396 -5.1223 -2.5014 0.9380
15.4478 -3.2855 -2.5014 0.9380
15.7310 -1.4009 -2.5014 0.9380
12.9068 1.9860 -2.0683 0.9485
9.3766 2.6296 -1.5424 0.9613
12.9092 7.3043 -2.3492 0.9417
6.9887 8.4050 -1.7313 0.9567
5.3836 8.3457 -1.5730 0.9606
2.9823 8.6667 -1.4517 0.9636
1.8548 8.6736 -1.4048 0.9647
-1.3016 8.5220 -1.3654 0.9657
-2.3635 8.4640 -1.3918 0.9650
-3.5990 8.6801 -1.4883 0.9627
-4.9185 8.7153 -1.5850 0.9603
-6.4221 8.7245 -1.7158 0.9571
-10.4990 8.7496 -2.1646 0.9462
-13.3346 6.4952 -2.3492 0.9417
-14.0199 4.8417 -2.3492 0.9417
-14.5010 3.1178 -2.3492 0.9417
-15.7279 1.4357 -2.5014 0.9380
-15.2160 -4.2309 -2.5014 0.9380
-10.1243 -12.1213 -2.5014 0.9380
-8.5906 -13.2526 -2.5014 0.9380
-5.0868 -14.6769 -2.4603 0.9390
-3.1621 -14.6283 -2.3704 0.9412
-1.3774 -14.9061 -2.3710 0.9412
7.7318 -13.7713 -2.5014 0.9380
10.8008 -11.5226 -2.5014 0.9380
12.1101 -10.1377 -2.5014 0.9380
15.7247 -1.4705 -2.5014 0.9380
15.7873 0.4342 -2.5014 0.9380
13.2155 1.9736 -2.1163 0.9473
12.9414 7.2470 -2.3492 0.9417
11.9742 8.7531 -2.3492 0.9417
9.2254 8.6283 -2.0006 0.9501
7.0622 8.4173 -1.7403 0.9565
4.2455 8.6430 -1.5252 0.9618
-0.2264 8.5763 -1.3588 0.9659
-4.8676 8.7149 -1.5810 0.9604
-13.3057 6.5542 -2.3492 0.9417
-14.4870 3.1820 -2.3492 0.9417
-15.7883 -0.3993 -2.5014 0.9380
-15.6252 -2.2981 -2.5014 0.9380
-12.7706 -9.2919 -2.5014 0.9380
-8.6492 -13.2144 -2.5014 0.9380
-6.9945 -14.1600 -2.5014 0.9380
-5.1624 -14.6843 -2.4653 0.9389
-1.4424 -14.8896 -2.3693 0.9412
2.2808 -15.6278 -2.5014 0.9380
4.1466 -15.2392 -2.5014 0.9380
7.6707 -13.8054 -2.5014 0.9380
9.2777 -12.7809 -2.5014 0.9380
10.7497 -11.5703 -2.5014 0.9380
14.1522 -7.0102 -2.5014 0.9380
14.8936 -5.2545 -2.5014 0.9380
15.4181 -3.4222 -2.5014 0.9380
15.7180 -1.5402 -2.5014 0.9380
15.7891 0.3643 -2.5014 0.9380
15.6303 2.2635 -2.5014 0.9380
9.4086 2.5489 -1.5439 0.9613
12.9734 7.1896 -2.3492 0.9417
12.0129 8.7000 -2.3492 0.9417
7.1379 8.4313 -1.7497 0.9562
3.0682 8.6662 -1.4561 0.9635
1.9352 8.6731 -1.4075 0.9647
0.8602 8.6797 -1.3815 0.9653
-2.2841 8.4685 -1.3892 0.9651
-4.8169 8.7146 -1.5771 0.9605
-6.3032 8.7238 -1.7046 0.9573
-10.3105 8.7484 -2.1417 0.9467
-12.3833 8.1641 -2.3492 0.9417
-13.2765 6.6131 -2.3492 0.9417
-13.9764 4.9657 -2.3492 0.9417
-14.4728 3.2461 -2.3492 0.9417
-15.2530 -4.0959 -2.5014 0.9380
-14.6485 -5.9033 -2.5014 0.9380
-13.8308 -7.6248 -2.5014 0.9380
-12.8117 -9.2352 -2.5014 0.9380
-11.6060 -10.7112 -2.5014 0.9380
-8.7077 -13.1759 -2.5014 0.9380
-5.2382 -14.6917 -2.4704 0.9388
0.3055 -15.4678 -2.4503 0.9393
4.0790 -15.2574 -2.5014 0.9380
5.8871 -14.6550 -2.5014 0.9380
10.6984 -11.6178 -2.5014 0.9380
12.0198 -10.2446 -2.5014 0.9380
14.8702 -5.3204 -2.5014 0.9380
13.7695 5.5137 -2.3492 0.9417
7.2143 8.4455 -1.7592 0.9560
6.6846 13.3091 -2.3589 0.9415
-10.2178 8.7478 -2.1304 0.9470
-12.3470 8.2189 -2.3492 0.9417
-13.9543 5.0276 -2.3492 0.9417
-14.4583 3.3102 -2.3492 0.9417
-15.7912 -0.2594 -2.5014 0.9380
-15.2709 -4.0283 -2.5014 0.9380
-14.6745 -5.8384 -2.5014 0.9380
-13.8644 -7.5635 -2.5014 0.9380
-11.6533 -10.6597 -2.5014 0.9380
-10.2845 -11.9857 -2.5014 0.9380
-7.1197 -14.0975 -2.5014 0.9380
-1.5722 -14.8566 -2.3662 0.9413
0.2364 -15.4382 -2.4455 0.9394
5.8221 -14.6810 -2.5014 0.9380
9.1642 -12.8626 -2.5014 0.9380
10.6468 -11.6651 -2.5014 0.9380
13.1275 -8.7804 -2.5014 0.9380
14.0896 -7.1353 -2.5014 0.9380
14.8465 -5.3862 -2.5014 0.9380
15.3871 -3.5587 -2.5014 0.9380
15.7038 -1.6794 -2.5014 0.9380
15.7917 0.2244 -2.5014 0.9380
9.4390 2.4675 -1.5452 0.9613
13.7938 5.4526 -2.3492 0.9417
13.0366 7.0744 -2.3492 0.9417
12.0895 8.5932 -2.3492 0.9417
9.4730 8.6268 -2.0293 0.9494
7.2917 8.4598 -1.7689 0.9558
5.6122 8.3706 -1.5962 0.9600
6.7431 13.2788 -2.3588 0.9415
0.9379 8.6793 -1.3827 0.9653
-0.1127 8.5974 -1.3618 0.9658
-2.2050 8.4729 -1.3867 0.9652
-3.2661 8.2893 -1.4111 0.9646
-4.7162 8.7140 -1.5693 0.9607
-7.9359 8.7338 -1.8691 0.9533
-13.2174 6.7304 -2.3492 0.9417
-13.9319 5.0894 -2.3492 0.9417
-15.7000 1.7142 -2.5014 0.9380
-15.7922 -0.1894 -2.5014 0.9380
-15.2886 -3.9606 -2.5014 0.9380
-14.7003 -5.7734 -2.5014 0.9380
-12.8930 -9.1214 -2.5014 0.9380
-11.7004 -10.6079 -2.5014 0.9380
-10.3375 -11.9400 -2.5014 0.9380
-5.3945 -14.7165 -2.4825 0.9385
-3.4318 -14.6172 -2.3781 0.9410
0.1678 -15.4088 -2.4407 0.9395
2.0729 -15.6567 -2.5014 0.9380
5.7571 -14.7066 -2.5014 0.9380
7.4866 -13.9061 -2.5014 0.9380
9.1071 -12.9030 -2.5014 0.9380
13.0885 -8.8385 -2.5014 0.9380
15.3712 -3.6269 -2.5014 0.9380
15.1128 1.9839 -2.4142 0.9401
9.4527 2.4265 -1.5457 0.9612
13.8178 5.3915 -2.3492 0.9417
13.0677 7.0166 -2.3492 0.9417
12.1274 8.5396 -2.3492 0.9417
9.5571 8.6263 -2.0391 0.9492
7.3699 8.4743 -1.7788 0.9555
5.6671 8.3721 -1.6012 0.9599
3.1982 8.6654 -1.4630 0.9633
0.9768 8.6790 -1.3833 0.9652
-0.0746 8.6044 -1.3629 0.9658
-2.1655 8.4751 -1.3855 0.9652
-3.2279 8.2999 -1.4105 0.9646
-4.6663 8.7137 -1.5656 0.9608
-7.8653 8.7334 -1.8615 0.9535
-15.7929 -0.1194 -2.5014 0.9380
-15.3060 -3.8929 -2.5014 0.9380
-14.7257 -5.7082 -2.5014 0.9380
-13.9309 -7.4403 -2.5014 0.9380
-11.7473 -10.5560 -2.5014 0.9380
-10.3903 -11.8942 -2.5014 0.9380
-5.4735 -14.7299 -2.4888 0.9383
-3.4996 -14.6144 -2.3801 0.9410
0.0993 -15.3794 -2.4359 0.9396
3.8759 -15.3103 -2.5014 0.9380
5.6918 -14.7320 -2.5014 0.9380
7.4249 -13.9391 -2.5014 0.9380
14.7982 -5.5175 -2.5014 0.9380
15.7931 0.0845 -2.5014 0.9380
15.1343 1.9185 -2.4162 0.9401
9.4664 2.3853 -1.5462 0.9612
9.5112 3.6626 -1.6143 0.9596
12.1652 8.4857 -2.3492 0.9417
9.6421 8.6258 -2.0491 0.9490
5.7223 8.3735 -1.6063 0.9598
4.4791 8.6302 -1.5400 0.9614
3.2417 8.6651 -1.4653 0.9632
2.0969 8.6721 -1.4131 0.9645
1.0157 8.6788 -1.3840 0.9652
-0.0365 8.6115 -1.3639 0.9657
-1.0722 8.5339 -1.3623 0.9658
-2.1261 8.4774 -1.3843 0.9652
-3.1897 8.3105 -1.4099 0.9646
-7.7951 8.7329 -1.8540 0.9537
-9.9452 8.7462 -2.0976 0.9478
-12.2367 8.3822 -2.3492 0.9417
-14.4130 3.5020 -2.3492 0.9417
-15.7932 -0.0495 -2.5014 0.9380
-15.3231 -3.8251 -2.5014 0.9380
-13.9637 -7.3785 -2.5014 0.9380
-11.7940 -10.5039 -2.5014 0.9380
-8.9397 -13.0196 -2.5014 0.9380
-7.3064 -14.0016 -2.5014 0.9380
-1.7674 -14.8173 -2.3635 0.9414
7.3631 -13.9719 -2.5014 0.9380
10.4908 -11.8056 -2.5014 0.9380
13.9935 -7.3219 -2.5014 0.9380
14.7736 -5.5830 -2.5014 0.9380
15.6801 -1.8879 -2.5014 0.9380
15.7933 0.0145 -2.5014 0.9380
15.2797 1.8682 -2.4381 0.9396
9.7279 8.6252 -2.0592 0.9487
6.9180 13.1860 -2.3584 0.9415
0.0016 8.6186 -1.3650 0.9657
-2.0868 8.4796 -1.3831 0.9653
-7.7255 8.7325 -1.8467 0.9539
-9.8561 8.7456 -2.0870 0.9480
-12.1994 8.4364 -2.3492 0.9417
-13.8630 5.2741 -2.3492 0.9417
-15.6568 1.9203 -2.4984 0.9381
-15.7933 0.0204 -2.5014 0.9380
-15.6808 -1.8820 -2.5014 0.9380
-15.3399 -3.7571 -2.5014 0.9380
-14.7757 -5.5775 -2.5014 0.9380
8.6791 8.4105 -2.3492 0.9519
3.5871 5.7262 -1.3134 0.9728
4.0651 8.6600 -1.8596 0.9618
2.8543 8.6675 -1.7738 0.9635
1.7348 8.6744 -1.7195 0.9646
0.6666 8.6809 -1.6924 0.9651
-0.3773 8.5483 -1.6632 0.9657
-2.4479 8.3367 -1.6889 0.9652
-3.7470 8.7080 -1.8427 0.9621
-5.0730 8.7162 -1.9603 0.9597
-6.6035 8.7256 -2.1270 0.9564
-8.4009 8.6884 -2.3492 0.9519
-9.3863 7.6132 -2.3492 0.9519
-10.2350 6.4272 -2.3492 0.9519
-10.9346 5.1475 -2.3492 0.9519
-12.8568 -0.5532 -2.5014 0.9489
-12.3514 -3.6118 -2.5014 0.9489
-11.1292 -6.4609 -2.5014 0.9489
-10.2700 -7.7544 -2.5014 0.9489
-9.2612 -8.9350 -2.5014 0.9489
-6.8556 -10.8905 -2.5014 0.9489
-4.0522 -12.2140 -2.5014 0.9489
-2.5515 -12.6132 -2.5014 0.9489
-1.0137 -12.8287 -2.5014 0.9489
5.0602 -11.8320 -2.5014 0.9489
8.9247 -9.2711 -2.5014 0.9489
10.8829 -6.8677 -2.5014 0.9489
12.2095 -4.0658 -2.5014 0.9489
12.8275 -1.0279 -2.5014 0.9489
12.8580 0.5247 -2.5014 0.9489
9.3125 2.7008 -1.8848 0.9613
10.4655 6.0446 -2.3492 0.9519
9.6612 7.2612 -2.3492 0.9519
8.7162 8.3720 -2.3492 0.9519
6.8401 8.3761 -2.1021 0.9569
5.1221 8.0969 -1.8624 0.9617
4.1118 8.6598 -1.8634 0.9617
2.8969 8.6672 -1.7763 0.9634
1.7747 8.6741 -1.7210 0.9646
0.7053 8.6807 -1.6929 0.9651
-1.3668 8.4470 -1.6633 0.9657
-2.4107 8.3468 -1.6888 0.9652
-5.0212 8.7159 -1.9552 0.9598
-6.5426 8.7252 -2.1199 0.9565
-8.3624 8.7255 -2.3492 0.9519
-10.2064 6.4725 -2.3492 0.9519
-11.4581 3.8438 -2.3492 0.9519
-12.8252 1.0563 -2.5014 0.9489
-12.7057 -2.0415 -2.5014 0.9489
-11.1577 -6.4115 -2.5014 0.9489
-10.3042 -7.7088 -2.5014 0.9489
-9.3006 -8.8938 -2.5014 0.9489
-6.9038 -10.8600 -2.5014 0.9489
-4.1063 -12.1959 -2.5014 0.9489
5.0077 -11.8543 -2.5014 0.9489
7.6974 -10.3127 -2.5014 0.9489
9.9403 -8.1727 -2.5014 0.9489
11.6064 -5.5583 -2.5014 0.9489
12.1914 -4.1198 -2.5014 0.9489
12.8602 0.4678 -2.5014 0.9489
12.7102 2.0134 -2.5014 0.9489
11.1383 4.6907 -2.3492 0.9519
6.9133 8.3897 -2.1131 0.9567
5.1792 8.1074 -1.8700 0.9616
4.1588 8.6595 -1.8673 0.9616
2.9395 8.6670 -1.7789 0.9634
1.8147 8.6739 -1.7225 0.9645
-0.3019 8.5623 -1.6654 0.9657
-1.3288 8.4490 -1.6625 0.9657
-3.3905 8.0759 -1.7025 0.9649
-4.9698 8.7156 -1.9502 0.9599
-6.4822 8.7249 -2.1128 0.9567
-10.8886 5.2442 -2.3492 0.9519
-11.4410 3.8945 -2.3492 0.9519
-12.8204 1.1131 -2.5014 0.9489
-12.8612 -0.4393 -2.5014 0.9489
-12.7146 -1.9852 -2.5014 0.9489
-12.3829 -3.5023 -2.5014 0.9489
-6.9518 -10.8293 -2.5014 0.9489
-4.1603 -12.1776 -2.5014 0.9489
-2.6632 -12.5901 -2.5014 0.9489
0.4250 -12.8617 -2.5014 0.9489
3.4886 -12.3868 -2.5014 0.9489
4.9552 -11.8764 -2.5014 0.9489
6.3496 -11.1931 -2.5014 0.9489
7.6516 -10.3467 -2.5014 0.9489
12.1730 -4.1737 -2.5014 0.9489
12.8621 0.4108 -2.5014 0.9489
12.7190 1.9571 -2.5014 0.9489
11.1589 4.6413 -2.3492 0.9519
6.9874 8.4034 -2.1244 0.9564
1.8548 8.6736 -1.7241 0.9645
-0.2642 8.5693 -1.6665 0.9657
-1.2908 8.4510 -1.6618 0.9658
-2.3364 8.3668 -1.6886 0.9652
-3.3529 8.0865 -1.7016 0.9650
-4.9185 8.7153 -1.9452 0.9600
-6.4221 8.7245 -2.1058 0.9568
-8.2847 8.7992 -2.3492 0.9519
-9.2843 7.7372 -2.3492 0.9519
-10.1487 6.5626 -2.3492 0.9519
-10.8653 5.2924 -2.3492 0.9519
-12.8630 -0.3823 -2.5014 0.9489
-12.7233 -1.9289 -2.5014 0.9489
-11.8928 -4.9157 -2.5014 0.9489
-11.2141 -6.3124 -2.5014 0.9489
-10.3721 -7.6172 -2.5014 0.9489
-8.2495 -9.8767 -2.5014 0.9489
0.3681 -12.8634 -2.5014 0.9489
4.9025 -11.8982 -2.5014 0.9489
9.8675 -8.2604 -2.5014 0.9489
12.1544 -4.2276 -2.5014 0.9489
12.8128 -1.1982 -2.5014 0.9489
9.3247 2.5705 -1.8802 0.9614
10.5449 5.9050 -2.3492 0.9519
8.8267 8.2555 -2.3492 0.9519
5.2948 8.1287 -1.8857 0.9612
4.2455 8.6430 -1.8718 0.9615
-0.2264 8.5763 -1.6676 0.9656
-1.2528 8.4530 -1.6611 0.9658
-3.3154 8.0971 -1.7007 0.9650
-4.8676 8.7149 -1.9403 0.9601
-6.3625 8.7241 -2.0989 0.9570
-8.2457 8.8358 -2.3492 0.9519
-9.2499 7.7783 -2.3492 0.9519
-10.1195 6.6075 -2.3492 0.9519
-10.8417 5.3405 -2.3492 0.9519
-11.4060 3.9957 -2.3492 0.9519
-12.5562 2.7579 -2.4989 0.9490
-12.8646 -0.3253 -2.5014 0.9489
-11.9145 -4.8629 -2.5014 0.9489
-10.4057 -7.5712 -2.5014 0.9489
-9.4180 -8.7695 -2.5014 0.9489
-5.6992 -11.5378 -2.5014 0.9489
0.3111 -12.8649 -2.5014 0.9489
1.8584 -12.7338 -2.5014 0.9489
3.3787 -12.4172 -2.5014 0.9489
6.2502 -11.2489 -2.5014 0.9489
7.5597 -10.4141 -2.5014 0.9489
8.7590 -9.4277 -2.5014 0.9489
10.7595 -7.0594 -2.5014 0.9489
12.1356 -4.2814 -2.5014 0.9489
12.8073 -1.2550 -2.5014 0.9489
12.7358 1.8443 -2.5014 0.9489
10.5709 5.8582 -2.3492 0.9519
9.7883 7.0889 -2.3492 0.9519
8.8632 8.2163 -2.3492 0.9519
7.1379 8.4313 -2.1473 0.9560
-0.1885 8.5833 -1.6688 0.9656
-6.3032 8.7238 -2.0920 0.9571
-8.2064 8.8723 -2.3492 0.9519
-10.0901 6.6523 -2.3492 0.9519
-10.8179 5.3885 -2.3492 0.9519
-11.3882 4.0462 -2.3492 0.9519
-12.8659 -0.2683 -2.5014 0.9489
-12.7399 -1.8161 -2.5014 0.9489
-12.4284 -3.3374 -2.5014 0.9489
-11.9359 -4.8101 -2.5014 0.9489
-11.2696 -6.2128 -2.5014 0.9489
-8.3367 -9.8032 -2.5014 0.9489
-7.0951 -10.7360 -2.5014 0.9489
-4.3217 -12.1213 -2.5014 0.9489
-2.8302 -12.5536 -2.5014 0.9489
-1.2975 -12.8031 -2.5014 0.9489
6.2004 -11.2764 -2.5014 0.9489
7.5135 -10.4475 -2.5014 0.9489
10.7281 -7.1070 -2.5014 0.9489
11.5061 -5.7630 -2.5014 0.9489
12.5504 -2.8441 -2.5014 0.9489
12.8016 -1.3117 -2.5014 0.9489
12.8664 0.2398 -2.5014 0.9489
12.7439 1.7879 -2.5014 0.9489
10.5968 5.8114 -2.3492 0.9519
1.9755 8.6729 -1.7290 0.9644
-2.2249 8.3967 -1.6885 0.9652
-6.2443 8.7234 -2.0853 0.9572
-8.1671 8.9085 -2.3492 0.9519
-10.0606 6.6969 -2.3492 0.9519
-11.3702 4.0966 -2.3492 0.9519
-12.5229 2.8671 -2.4972 0.9490
-12.7987 1.3401 -2.5014 0.9489
-12.7478 -1.7596 -2.5014 0.9489
-12.4430 -3.2823 -2.5014 0.9489
-11.2970 -6.1629 -2.5014 0.9489
-9.4953 -8.6857 -2.5014 0.9489
-2.8858 -12.5409 -2.5014 0.9489
3.2685 -12.4467 -2.5014 0.9489
4.7440 -11.9623 -2.5014 0.9489
10.6966 -7.1545 -2.5014 0.9489
11.4804 -5.8139 -2.5014 0.9489
12.8674 0.1829 -2.5014 0.9489
8.9356 8.1374 -2.3492 0.9519
7.8904 9.1545 -2.3492 0.9519
5.4727 10.7769 -2.3495 0.9519
2.0159 8.6726 -1.7307 0.9644
0.9379 8.6793 -1.6969 0.9651
-1.1390 8.4590 -1.6591 0.9658
-2.1864 8.4013 -1.6874 0.9652
-3.2028 8.1288 -1.6983 0.9650
-4.7162 8.7140 -1.9260 0.9604
-6.1858 8.7230 -2.0786 0.9574
-8.1275 8.9446 -2.3492 0.9519
-9.1458 7.9005 -2.3492 0.9519
-10.0308 6.7414 -2.3492 0.9519
-11.3519 4.1469 -2.3492 0.9519
-12.5059 2.9215 -2.4963 0.9490
-12.7926 1.3967 -2.5014 0.9489
-12.4574 -3.2272 -2.5014 0.9489
-11.9780 -4.7042 -2.5014 0.9489
-11.3242 -6.1127 -2.5014 0.9489
-10.5054 -7.4322 -2.5014 0.9489
-8.4232 -9.7290 -2.5014 0.9489
-7.1900 -10.6727 -2.5014 0.9489
-4.4290 -12.0825 -2.5014 0.9489
-2.9413 -12.5280 -2.5014 0.9489
0.1401 -12.8679 -2.5014 0.9489
1.6891 -12.7573 -2.5014 0.9489
3.2134 -12.4610 -2.5014 0.9489
7.4206 -10.5136 -2.5014 0.9489
8.6330 -9.5433 -2.5014 0.9489
12.0776 -4.4423 -2.5014 0.9489
12.5247 -2.9552 -2.5014 0.9489
12.8681 0.1258 -2.5014 0.9489
12.7592 1.6749 -2.5014 0.9489
9.3749 2.4065 -1.8814 0.9613
10.6478 5.7173 -2.3492 0.9519
5.5202 10.7522 -2.3494 0.9519
2.0564 8.6724 -1.7325 0.9643
0.9768 8.6790 -1.6977 0.9650
-0.0746 8.6044 -1.6726 0.9655
-1.1012 8.4610 -1.6585 0.9658
-2.1472 8.4035 -1.6860 0.9653
-9.1107 7.9410 -2.3492 0.9519
-10.0009 6.7857 -2.3492 0.9519
-10.7454 5.5317 -2.3492 0.9519
-12.7629 -1.6466 -2.5014 0.9489
-11.3511 -6.0625 -2.5014 0.9489
-10.5383 -7.3857 -2.5014 0.9489
-7.2372 -10.6408 -2.5014 0.9489
-1.4676 -12.7847 -2.5014 0.9489
1.6325 -12.7647 -2.5014 0.9489
3.1581 -12.4751 -2.5014 0.9489
7.3740 -10.5464 -2.5014 0.9489
8.5906 -9.5814 -2.5014 0.9489
9.6822 -8.4769 -2.5014 0.9489
10.6327 -7.2489 -2.5014 0.9489
12.0578 -4.4958 -2.5014 0.9489
12.7831 -1.4817 -2.5014 0.9489
12.8685 0.0688 -2.5014 0.9489
9.4501 3.6391 -1.9684 0.9596
9.9124 6.9143 -2.3492 0.9519
9.0074 8.0580 -2.3492 0.9519
7.5783 8.6365 -2.2334 0.9543
5.5921 8.1830 -1.9266 0.9604
2.0969 8.6721 -1.7343 0.9643
1.0157 8.6788 -1.6985 0.9650
-3.1280 8.1497 -1.6968 0.9651
-4.6166 8.7134 -1.9168 0.9606
-8.0480 9.0163 -2.3492 0.9519
-9.9707 6.8300 -2.3492 0.9519
-10.7208 5.5793 -2.3492 0.9519
-12.8686 -0.0404 -2.5014 0.9489
-12.7701 -1.5901 -2.5014 0.9489
-12.4855 -3.1167 -2.5014 0.9489
-10.5709 -7.3389 -2.5014 0.9489
-5.9534 -11.4088 -2.5014 0.9489
-3.0522 -12.5015 -2.5014 0.9489
7.3272 -10.5790 -2.5014 0.9489
9.6445 -8.5197 -2.5014 0.9489
10.6005 -7.2960 -2.5014 0.9489
12.0378 -4.5491 -2.5014 0.9489
12.4981 -3.0660 -2.5014 0.9489
12.8687 0.0118 -2.5014 0.9489
9.3995 2.3243 -1.8821 0.9613
9.4053 3.5741 -1.9558 0.9598
10.6981 5.6227 -2.3492 0.9519
9.9429 6.8704 -2.3492 0.9519
9.0430 8.0180 -2.3492 0.9519
2.1376 8.6719 -1.7361 0.9643
1.0547 8.6786 -1.6994 0.9650
-4.5671 8.7131 -1.9122 0.9607
-6.0125 8.7220 -2.0592 0.9578
-7.7225 8.7291 -2.2655 0.9536
-9.0399 8.0214 -2.3492 0.9519
-9.9403 6.8741 -2.3492 0.9519
-10.6960 5.6267 -2.3492 0.9519
-12.7730 1.5666 -2.5014 0.9489
-12.8687 0.0167 -2.5014 0.9489
-12.7770 -1.5335 -2.5014 0.9489
-12.4992 -3.0614 -2.5014 0.9489
-12.0395 -4.5446 -2.5014 0.9489
7.3074 7.0813 -2.3492 0.9591
3.5870 5.7261 -1.5599 0.9726
2.8543 8.6675 -2.1068 0.9632
-5.1185 8.7945 -2.3492 0.9591
-10.2679 3.3940 -2.4967 0.9566
-10.6221 2.1365 -2.5014 0.9565
-10.8021 0.8415 -2.5014 0.9565
-10.6899 -1.7663 -2.5014 0.9565
-9.9573 -4.2715 -2.5014 0.9565
-9.3703 -5.4397 -2.5014 0.9565
-8.6468 -6.5288 -2.5014 0.9565
-7.7975 -7.5228 -2.5014 0.9565
-6.8346 -8.4073 -2.5014 0.9565
-5.7721 -9.1693 -2.5014 0.9565
-4.6256 -9.7978 -2.5014 0.9565
-3.3949 -10.2327 -2.4890 0.9567
-2.1483 -10.6197 -2.5014 0.9565
0.4538 -10.8253 -2.5014 0.9565
3.0295 -10.4027 -2.5014 0.9565
4.2604 -9.9620 -2.5014 0.9565
7.5142 -7.8058 -2.5014 0.9565
8.3997 -6.8439 -2.5014 0.9565
9.1629 -5.7823 -2.5014 0.9565
9.7927 -4.6365 -2.5014 0.9565
10.6173 -2.1600 -2.5014 0.9565
10.6938 1.7426 -2.5014 0.9565
10.4060 3.0180 -2.5014 0.9565
8.8114 5.0893 -2.3492 0.9591
8.1343 6.1136 -2.3492 0.9591
4.1118 8.6598 -2.2132 0.9614
1.7747 8.6741 -2.0441 0.9643
-0.3396 8.5553 -1.9767 0.9655
-1.3554 8.3762 -1.9589 0.9658
-2.3646 8.1870 -1.9674 0.9656
-6.1046 8.1411 -2.3492 0.9591
-7.0407 7.3465 -2.3492 0.9591
-10.6125 2.1835 -2.5014 0.9565
-10.8268 -0.4178 -2.5014 0.9565
-10.4127 -2.9949 -2.5014 0.9565
-9.9761 -4.2273 -2.5014 0.9565
-9.3943 -5.3982 -2.5014 0.9565
-8.6757 -6.4905 -2.5014 0.9565
-4.6690 -9.7772 -2.5014 0.9565
-2.1953 -10.6101 -2.5014 0.9565
-0.9013 -10.7973 -2.5014 0.9565
0.4058 -10.8272 -2.5014 0.9565
5.3878 -9.4003 -2.5014 0.9565
7.4795 -7.8390 -2.5014 0.9565
10.6077 -2.2070 -2.5014 0.9565
10.8277 0.3938 -2.5014 0.9565
8.8339 5.0502 -2.3492 0.9591
8.1613 6.0775 -2.3492 0.9591
7.3698 7.0163 -2.3492 0.9591
4.1588 8.6595 -2.2178 0.9613
0.7440 8.6805 -2.0114 0.9649
-3.6557 8.7075 -2.1803 0.9620
-7.8457 6.4797 -2.3492 0.9591
-10.2318 3.4829 -2.4953 0.9566
-10.6027 2.2305 -2.5014 0.9565
-10.8285 -0.3698 -2.5014 0.9565
-10.7051 -1.6715 -2.5014 0.9565
-10.4258 -2.9488 -2.5014 0.9565
-9.9948 -4.1831 -2.5014 0.9565
-9.4181 -5.3565 -2.5014 0.9565
-7.8638 -7.4534 -2.5014 0.9565
-6.9088 -8.3464 -2.5014 0.9565
4.1720 -9.9994 -2.5014 0.9565
5.3461 -9.4240 -2.5014 0.9565
7.4447 -7.8721 -2.5014 0.9565
8.3387 -6.9180 -2.5014 0.9565
9.7512 -4.7230 -2.5014 0.9565
10.2491 -3.5141 -2.5014 0.9565
10.8293 0.3458 -2.5014 0.9565
10.7088 1.6478 -2.5014 0.9565
10.4323 2.9257 -2.5014 0.9565
8.8562 5.0110 -2.3492 0.9591
1.8548 8.6736 -2.0477 0.9642
-0.2642 8.5693 -1.9793 0.9654
-1.2801 8.3809 -1.9573 0.9658
-3.5990 8.6801 -2.1694 0.9622
-6.0322 8.1948 -2.3492 0.9591
-6.9754 7.4086 -2.3492 0.9591
-7.8170 6.5144 -2.3492 0.9591
-9.1481 4.4560 -2.3492 0.9591
-10.7900 0.9850 -2.5014 0.9565
-10.8300 -0.3219 -2.5014 0.9565
-10.0132 -4.1388 -2.5014 0.9565
-9.4418 -5.3148 -2.5014 0.9565
-7.8968 -7.4185 -2.5014 0.9565
-6.9457 -8.3157 -2.5014 0.9565
-5.8935 -9.0918 -2.5014 0.9565
-3.5481 -10.2374 -2.5014 0.9565
-2.2892 -10.5902 -2.5014 0.9565
-0.9969 -10.7889 -2.5014 0.9565
0.3099 -10.8304 -2.5014 0.9565
1.6122 -10.7142 -2.5014 0.9565
4.1277 -10.0178 -2.5014 0.9565
6.4037 -8.7399 -2.5014 0.9565
7.4098 -7.9050 -2.5014 0.9565
8.3080 -6.9549 -2.5014 0.9565
9.0852 -5.9035 -2.5014 0.9565
10.7877 -1.0088 -2.5014 0.9565
10.8307 0.2979 -2.5014 0.9565
10.7160 1.6003 -2.5014 0.9565
10.4452 2.8794 -2.5014 0.9565
10.0198 4.1156 -2.5008 0.9565
8.2148 6.0050 -2.3492 0.9591
7.4317 6.9507 -2.3492 0.9591
6.5403 7.7953 -2.3492 0.9591
4.2455 8.6430 -2.2231 0.9612
1.8950 8.6734 -2.0496 0.9642
-4.9619 8.8838 -2.3492 0.9591
-5.9958 8.2214 -2.3492 0.9591
-6.9425 7.4394 -2.3492 0.9591
-9.1282 4.4964 -2.3492 0.9591
-10.1950 3.5714 -2.4939 0.9566
-10.5826 2.3244 -2.5014 0.9565
-10.7855 1.0328 -2.5014 0.9565
-10.7195 -1.5766 -2.5014 0.9565
-10.4516 -2.8563 -2.5014 0.9565
-10.0314 -4.0944 -2.5014 0.9565
-8.7612 -6.3746 -2.5014 0.9565
-7.9295 -7.3835 -2.5014 0.9565
-5.9337 -9.0656 -2.5014 0.9565
-4.7985 -9.7143 -2.5014 0.9565
-3.5935 -10.2216 -2.5014 0.9565
-2.3361 -10.5800 -2.5014 0.9565
-1.0447 -10.7844 -2.5014 0.9565
1.5647 -10.7212 -2.5014 0.9565
4.0833 -10.0359 -2.5014 0.9565
5.2624 -9.4710 -2.5014 0.9565
6.3649 -8.7682 -2.5014 0.9565
7.3747 -7.9377 -2.5014 0.9565
9.0590 -5.9437 -2.5014 0.9565
9.7090 -4.8092 -2.5014 0.9565
10.5774 -2.3478 -2.5014 0.9565
10.7832 -1.0566 -2.5014 0.9565
10.8319 0.2499 -2.5014 0.9565
10.4579 2.8331 -2.5014 0.9565
10.0405 4.0722 -2.5014 0.9565
8.9002 4.9324 -2.3492 0.9591
7.4624 6.9177 -2.3492 0.9591
5.5915 8.5016 -2.3492 0.9591
4.2894 8.6354 -2.2260 0.9612
3.0682 8.6662 -2.1224 0.9630
1.9352 8.6731 -2.0516 0.9642
-0.1885 8.5833 -1.9821 0.9654
-1.2061 8.3946 -1.9579 0.9658
-4.9225 8.9057 -2.3492 0.9591
-5.9594 8.2479 -2.3492 0.9591
-6.9094 7.4701 -2.3492 0.9591
-9.1082 4.5368 -2.3492 0.9591
-10.7264 -1.5291 -2.5014 0.9565
-9.4885 -5.2309 -2.5014 0.9565
-8.7893 -6.3357 -2.5014 0.9565
-7.9622 -7.3483 -2.5014 0.9565
-7.0191 -8.2538 -2.5014 0.9565
-4.8415 -9.6929 -2.5014 0.9565
0.2139 -10.8327 -2.5014 0.9565
1.5172 -10.7281 -2.5014 0.9565
4.0388 -10.0539 -2.5014 0.9565
6.3260 -8.7963 -2.5014 0.9565
7.3395 -7.9703 -2.5014 0.9565
9.0326 -5.9838 -2.5014 0.9565
9.6876 -4.8522 -2.5014 0.9565
10.5669 -2.3946 -2.5014 0.9565
10.7784 -1.1044 -2.5014 0.9565
10.4703 2.7868 -2.5014 0.9565
10.0584 4.0277 -2.5014 0.9565
7.4930 6.8846 -2.3492 0.9591
4.5671 9.0931 -2.3492 0.9591
3.1114 8.6659 -2.1257 0.9629
-0.1506 8.5903 -1.9835 0.9653
-1.1692 8.4014 -1.9583 0.9658
-3.7721 9.4506 -2.3492 0.9591
-4.8830 8.9274 -2.3492 0.9591
-7.7297 6.6177 -2.3492 0.9591
-10.5616 2.4181 -2.5014 0.9565
-10.7759 1.1283 -2.5014 0.9565
-10.8334 -0.1779 -2.5014 0.9565
-10.7331 -1.4815 -2.5014 0.9565
-10.4765 -2.7636 -2.5014 0.9565
-10.0673 -4.0054 -2.5014 0.9565
-9.5115 -5.1888 -2.5014 0.9565
-7.9946 -7.3129 -2.5014 0.9565
-6.0138 -9.0127 -2.5014 0.9565
-3.6839 -10.1893 -2.5014 0.9565
1.4696 -10.7347 -2.5014 0.9565
5.1783 -9.5173 -2.5014 0.9565
7.3041 -8.0027 -2.5014 0.9565
8.2149 -7.0646 -2.5014 0.9565
10.1852 -3.6951 -2.5014 0.9565
10.5562 -2.4414 -2.5014 0.9565
10.8337 0.1540 -2.5014 0.9565
10.4825 2.7404 -2.5014 0.9565
10.0762 3.9830 -2.5014 0.9565
8.2939 5.8953 -2.3492 0.9591
5.6666 8.4518 -2.3492 0.9591
4.6073 9.0728 -2.3492 0.9591
3.1547 8.6656 -2.1291 0.9628
-0.1127 8.5974 -1.9850 0.9653
-1.1322 8.4083 -1.9587 0.9658
-3.4288 8.7022 -2.1594 0.9623
-6.8430 7.5310 -2.3492 0.9591
-7.7003 6.6519 -2.3492 0.9591
-8.4455 5.6759 -2.3492 0.9591
-9.0677 4.6173 -2.3492 0.9591
-9.9483 3.6341 -2.4452 0.9575
-10.5508 2.4648 -2.5014 0.9565
-10.7708 1.1760 -2.5014 0.9565
-10.8340 -0.1300 -2.5014 0.9565
-10.4886 -2.7171 -2.5014 0.9565
-8.0270 -7.2775 -2.5014 0.9565
-7.0919 -8.1913 -2.5014 0.9565
-4.9272 -9.6497 -2.5014 0.9565
-3.7290 -10.1729 -2.5014 0.9565
-1.1879 -10.7695 -2.5014 0.9565
0.1180 -10.8342 -2.5014 0.9565
8.9792 -6.0636 -2.5014 0.9565
9.6442 -4.9379 -2.5014 0.9565
10.1688 -3.7402 -2.5014 0.9565
10.5453 -2.4882 -2.5014 0.9565
10.8343 0.1060 -2.5014 0.9565
10.7427 1.4102 -2.5014 0.9565
10.4946 2.6939 -2.5014 0.9565
10.0937 3.9384 -2.5014 0.9565
8.9650 4.8137 -2.3492 0.9591
6.6774 7.6781 -2.3492 0.9591
5.7040 8.4266 -2.3492 0.9591
4.6474 9.0523 -2.3492 0.9591
2.0564 8.6724 -2.0577 0.9641
0.9768 8.6790 -2.0164 0.9648
-2.1094 8.2555 -1.9672 0.9656
-4.8037 8.9703 -2.3492 0.9591
-8.4203 5.7133 -2.3492 0.9591
-9.0471 4.6575 -2.3492 0.9591
-10.5397 2.5115 -2.5014 0.9565
-10.8345 -0.0819 -2.5014 0.9565
-10.5005 -2.6707 -2.5014 0.9565
-6.0934 -8.9590 -2.5014 0.9565
-4.9698 -9.6278 -2.5014 0.9565
-3.7740 -10.1563 -2.5014 0.9565
-2.5232 -10.5369 -2.5014 0.9565
-1.2356 -10.7641 -2.5014 0.9565
1.3745 -10.7473 -2.5014 0.9565
2.6590 -10.5035 -2.5014 0.9565
3.9048 -10.1067 -2.5014 0.9565
5.0938 -9.5628 -2.5014 0.9565
7.2329 -8.0671 -2.5014 0.9565
10.1521 -3.7852 -2.5014 0.9565
10.5341 -2.5348 -2.5014 0.9565
10.5064 2.6474 -2.5014 0.9565
10.1110 3.8936 -2.5014 0.9565
6.7114 7.6485 -2.3492 0.9591
5.7412 8.4012 -2.3492 0.9591
4.4791 8.6302 -2.2448 0.9609
3.2417 8.6651 -2.1359 0.9627
2.0969 8.6721 -2.0598 0.9640
-1.0581 8.4220 -1.9597 0.9658
-3.0678 7.9930 -1.9766 0.9655
-4.7639 8.9915 -2.3492 0.9591
-6.7760 7.5913 -2.3492 0.9591
-7.6411 6.7198 -2.3492 0.9591
-8.3949 5.7505 -2.3492 0.9591
-9.0264 4.6975 -2.3492 0.9591
-10.5285 2.5582 -2.5014 0.9565
-10.8348 -0.0340 -2.5014 0.9565
-10.7518 -1.3388 -2.5014 0.9565
-10.5123 -2.6241 -2.5014 0.9565
-10.1196 -3.8712 -2.5014 0.9565
-9.5797 -5.0620 -2.5014 0.9565
-8.9002 -6.1790 -2.5014 0.9565
-6.1330 -8.9319 -2.5014 0.9565
-5.0125 -9.6056 -2.5014 0.9565
-3.8189 -10.1395 -2.5014 0.9565
5.0513 -9.5853 -2.5014 0.9565
7.1971 -8.0991 -2.5014 0.9565
8.1202 -7.1732 -2.5014 0.9565
8.9251 -6.1429 -2.5014 0.9565
10.1352 -3.8302 -2.5014 0.9565
10.5228 -2.5815 -2.5014 0.9565
10.7571 -1.2952 -2.5014 0.9565
10.8348 0.0100 -2.5014 0.9565
9.0073 4.7341 -2.3492 0.9591
8.3715 5.7846 -2.3492 0.9591
7.6138 6.7508 -2.3492 0.9591
5.7784 8.3757 -2.3492 0.9591
3.2855 8.6648 -2.1394 0.9627
-1.0211 8.4289 -1.9602 0.9657
-2.0364 8.2748 -1.9674 0.9656
-6.7423 7.6212 -2.3492 0.9591
-7.6112 6.7536 -2.3492 0.9591
-10.7542 1.3190 -2.5014 0.9565
-10.7576 -1.2911 -2.5014 0.9565
-1.4388 8.6485 -2.3492 0.9643
-3.4653 8.0535 -2.3492 0.9643
-4.4102 7.5774 -2.3492 0.9643
-5.2908 6.9911 -2.3492 0.9643
-6.0944 6.3029 -2.3492 0.9643
-7.4248 4.6625 -2.3492 0.9643
-8.8637 2.9298 -2.5014 0.9621
-9.1521 1.8408 -2.5014 0.9621
-8.0736 -4.6870 -2.5014 0.9621
-5.8887 -7.2438 -2.5014 0.9621
-4.9733 -7.9004 -2.5014 0.9621
1.5116 -9.2122 -2.5014 0.9621
2.6102 -8.9631 -2.5014 0.9621
3.6708 -8.5834 -2.5014 0.9621
6.4743 -6.7256 -2.5014 0.9621
9.1480 -1.8611 -2.5014 0.9621
9.3276 0.3806 -2.5014 0.9621
9.2139 1.5014 -2.5014 0.9621
8.9659 2.6003 -2.5014 0.9621
7.0086 5.2675 -2.3492 0.9643
0.7100 8.7386 -2.3492 0.9643
-0.3478 8.7605 -2.3492 0.9643
-1.4005 8.6548 -2.3492 0.9643
-2.4328 8.4231 -2.3492 0.9643
-3.4296 8.0688 -2.3492 0.9643
-5.2598 7.0144 -2.3492 0.9643
-6.0664 6.3298 -2.3492 0.9643
-6.7846 5.5530 -2.3492 0.9643
-8.2449 3.9260 -2.4469 0.9629
-9.1439 1.8814 -2.5014 0.9621
-9.3039 0.7663 -2.5014 0.9621
-9.3285 -0.3600 -2.5014 0.9621
-9.2172 -1.4810 -2.5014 0.9621
-8.9717 -2.5804 -2.5014 0.9621
-8.5956 -3.6423 -2.5014 0.9621
-8.0942 -4.6512 -2.5014 0.9621
-4.9928 -7.8538 -2.4937 0.9622
-4.0229 -8.4242 -2.5014 0.9621
-2.9789 -8.8474 -2.5014 0.9621
-0.7766 -9.3031 -2.5014 0.9621
0.3497 -9.3289 -2.5014 0.9621
1.4708 -9.2188 -2.5014 0.9621
3.6328 -8.5996 -2.5014 0.9621
4.6422 -8.0994 -2.5014 0.9621
6.4444 -6.7542 -2.5014 0.9621
7.2111 -5.9287 -2.5014 0.9621
7.8727 -5.0170 -2.5014 0.9621
8.4197 -4.0322 -2.5014 0.9621
8.8441 -2.9887 -2.5014 0.9621
9.1397 -1.9016 -2.5014 0.9621
9.3022 -0.7869 -2.5014 0.9621
9.3292 0.3393 -2.5014 0.9621
9.2204 1.4606 -2.5014 0.9621
7.9357 4.5367 -2.4493 0.9629
3.5925 5.6236 -1.7881 0.9727
0.7487 8.7354 -2.3492 0.9643
-0.3090 8.7619 -2.3492 0.9643
-2.3954 8.4338 -2.3492 0.9643
-3.3939 8.0839 -2.3492 0.9643
-5.2286 7.0376 -2.3492 0.9643
-6.0383 6.3566 -2.3492 0.9643
-6.7600 5.5830 -2.3492 0.9643
-8.1784 3.9389 -2.4323 0.9631
-9.3300 -0.3187 -2.5014 0.9621
-8.9830 -2.5407 -2.5014 0.9621
-6.7756 -6.4220 -2.5014 0.9621
-5.9527 -7.1914 -2.5014 0.9621
-3.0180 -8.8341 -2.5014 0.9621
-0.8178 -9.2995 -2.5014 0.9621
0.3083 -9.3303 -2.5014 0.9621
1.4299 -9.2252 -2.5014 0.9621
2.5307 -8.9858 -2.5014 0.9621
4.6063 -8.1199 -2.5014 0.9621
5.5508 -7.5059 -2.5014 0.9621
6.4145 -6.7827 -2.5014 0.9621
7.8504 -5.0518 -2.5014 0.9621
9.1312 -1.9421 -2.5014 0.9621
9.2268 1.4197 -2.5014 0.9621
8.9886 2.5208 -2.5014 0.9621
8.6196 3.5851 -2.5014 0.9621
8.0122 4.5335 -2.4667 0.9626
7.0550 5.2052 -2.3492 0.9643
3.6271 5.6227 -1.7929 0.9727
3.8306 7.8863 -2.3492 0.9643
2.8528 8.2903 -2.3492 0.9643
-0.2702 8.7632 -2.3492 0.9643
-2.3580 8.4443 -2.3492 0.9643
-3.3580 8.0988 -2.3492 0.9643
-6.0101 6.3833 -2.3492 0.9643
-7.3622 4.7608 -2.3492 0.9643
-9.1269 1.9623 -2.5014 0.9621
-9.2968 0.8487 -2.5014 0.9621
-9.3313 -0.2773 -2.5014 0.9621
-8.6275 -3.5660 -2.5014 0.9621
-8.1351 -4.5793 -2.5014 0.9621
-6.8039 -6.3919 -2.5014 0.9621
-5.9845 -7.1649 -2.5014 0.9621
-5.0511 -7.7923 -2.4882 0.9623
-0.8590 -9.2958 -2.5014 0.9621
0.2670 -9.3316 -2.5014 0.9621
2.4909 -8.9970 -2.5014 0.9621
3.5565 -8.6314 -2.5014 0.9621
5.5175 -7.5304 -2.5014 0.9621
6.3844 -6.8110 -2.5014 0.9621
7.1583 -5.9924 -2.5014 0.9621
8.3836 -4.1066 -2.5014 0.9621
8.8173 -3.0669 -2.5014 0.9621
9.1225 -1.9825 -2.5014 0.9621
9.2949 -0.8692 -2.5014 0.9621
9.2330 1.3789 -2.5014 0.9621
8.6354 3.5469 -2.5014 0.9621
8.0898 4.5302 -2.4844 0.9623
5.6352 6.7165 -2.3492 0.9643
3.6630 5.6236 -1.7983 0.9726
3.8655 7.8693 -2.3492 0.9643
2.8894 8.2776 -2.3492 0.9643
1.8714 8.5654 -2.3492 0.9643
0.8260 8.7284 -2.3492 0.9643
-0.2314 8.7643 -2.3492 0.9643
-4.2752 7.6544 -2.3492 0.9643
-5.1661 7.0837 -2.3492 0.9643
-5.9817 6.4098 -2.3492 0.9643
-9.3324 -0.2360 -2.5014 0.9621
-9.0052 -2.4610 -2.5014 0.9621
-8.1553 -4.5432 -2.5014 0.9621
-6.0162 -7.1383 -2.5014 0.9621
-4.1344 -8.3700 -2.5014 0.9621
-3.0962 -8.8070 -2.5014 0.9621
0.2257 -9.3327 -2.5014 0.9621
4.5342 -8.1603 -2.5014 0.9621
5.4841 -7.5548 -2.5014 0.9621
6.3541 -6.8392 -2.5014 0.9621
7.1317 -6.0241 -2.5014 0.9621
9.3329 0.2153 -2.5014 0.9621
9.2390 1.3379 -2.5014 0.9621
9.0106 2.4411 -2.5014 0.9621
8.1414 4.5118 -2.4941 0.9622
7.1008 5.1425 -2.3492 0.9643
6.4297 5.9604 -2.3492 0.9643
5.6649 6.6915 -2.3492 0.9643
4.8177 7.3251 -2.3492 0.9643
-0.1925 8.7653 -2.3492 0.9643
-4.2413 7.6732 -2.3492 0.9643
-5.1347 7.1065 -2.3492 0.9643
-7.3198 4.8258 -2.3492 0.9643
-9.3334 -0.1947 -2.5014 0.9621
-8.6587 -3.4894 -2.5014 0.9621
-8.1754 -4.5070 -2.5014 0.9621
-7.5730 -5.4589 -2.5014 0.9621
-6.8603 -6.3313 -2.5014 0.9621
-6.0477 -7.1116 -2.5014 0.9621
-4.1715 -8.3516 -2.5014 0.9621
-3.1352 -8.7932 -2.5014 0.9621
-2.0532 -9.1068 -2.5014 0.9621
-0.9413 -9.2878 -2.5014 0.9621
0.1843 -9.3336 -2.5014 0.9621
1.3072 -9.2434 -2.5014 0.9621
3.4799 -8.6626 -2.5014 0.9621
4.4980 -8.1804 -2.5014 0.9621
7.1049 -6.0556 -2.5014 0.9621
7.7826 -5.1557 -2.5014 0.9621
8.3469 -4.1807 -2.5014 0.9621
8.7897 -3.1449 -2.5014 0.9621
9.3338 0.1740 -2.5014 0.9621
9.2449 1.2970 -2.5014 0.9621
8.6664 3.4703 -2.5014 0.9621
7.1235 5.1110 -2.3492 0.9643
6.4560 5.9319 -2.3492 0.9643
4.8501 7.3037 -2.3492 0.9643
3.9350 7.8347 -2.3492 0.9643
0.9033 8.7207 -2.3492 0.9643
-0.1537 8.7660 -2.3492 0.9643
-1.2085 8.6837 -2.3492 0.9643
-2.2456 8.4749 -2.3492 0.9643
-3.2501 8.1427 -2.3492 0.9643
-5.1031 7.1292 -2.3492 0.9643
-5.9247 6.4626 -2.3492 0.9643
-6.6600 5.7019 -2.3492 0.9643
-7.2983 4.8582 -2.3492 0.9643
-9.2847 0.9721 -2.5014 0.9621
-9.2477 -1.2765 -2.5014 0.9621
-9.0266 -2.3811 -2.5014 0.9621
-8.6741 -3.4511 -2.5014 0.9621
-7.5971 -5.4253 -2.5014 0.9621
-6.0792 -7.0848 -2.5014 0.9621
-5.1530 -7.7227 -2.4876 0.9623
-3.1740 -8.7793 -2.5014 0.9621
0.1430 -9.3343 -2.5014 0.9621
1.2663 -9.2491 -2.5014 0.9621
4.4617 -8.2002 -2.5014 0.9621
6.2933 -6.8952 -2.5014 0.9621
7.7597 -5.1901 -2.5014 0.9621
8.3283 -4.2177 -2.5014 0.9621
8.7757 -3.1838 -2.5014 0.9621
9.2505 1.2560 -2.5014 0.9621
8.1850 4.4417 -2.4953 0.9622
6.4822 5.9032 -2.3492 0.9643
3.9697 7.8172 -2.3492 0.9643
-4.1731 7.7105 -2.3492 0.9643
-5.8960 6.4888 -2.3492 0.9643
-6.6347 5.7313 -2.3492 0.9643
-7.2767 4.8905 -2.3492 0.9643
-9.0907 2.1237 -2.5014 0.9621
-9.2533 -1.2356 -2.5014 0.9621
-8.6893 -3.4126 -2.5014 0.9621
-7.6211 -5.3916 -2.5014 0.9621
-5.1903 -7.7044 -2.4891 0.9623
-3.2129 -8.7651 -2.5014 0.9621
-2.1338 -9.0883 -2.5014 0.9621
-1.0235 -9.2791 -2.5014 0.9621
0.1016 -9.3349 -2.5014 0.9621
2.3311 -9.0397 -2.5014 0.9621
