ply
format ascii 1.0
element vertex 1580
property float32 x
property float32 y
property float32 z
property float32 I
end_header
35.7654 69.5477 15.2015 0.7271
2.0648 8.6723 1.7329 0.9643
0.9860 8.6790 1.6979 0.9650
-1.1198 8.6919 1.7035 0.9649
-2.2096 8.6986 1.7445 0.9641
-4.6427 8.7041 1.9175 0.9606
-16.2249 23.1834 5.5004 0.8911
-47.9327 53.4267 13.9520 0.7464
-77.4262 9.0069 15.1516 0.7279
-56.6802 -14.2354 11.3597 0.7881
-57.8634 -65.7590 17.0262 0.6998
-23.0507 -33.6214 7.9238 0.8470
-9.5126 -25.2921 5.2525 0.8957
-7.5890 -31.1296 6.2282 0.8776
33.3732 -87.5999 18.2215 0.6825
50.2722 -44.4765 13.0472 0.7607
62.5294 -43.1176 14.7640 0.7338
60.5549 14.8626 12.1200 0.7756
35.4876 24.4116 8.3726 0.8390
36.0331 31.8066 9.3425 0.8221
35.0801 39.4370 10.2597 0.8065
3.3122 8.6647 1.8031 0.9629
2.1635 8.6717 1.7373 0.9642
-2.1101 8.6980 1.7398 0.9642
-3.2629 8.7051 1.8071 0.9628
-4.5194 8.6972 1.9052 0.9608
-23.6948 26.9894 6.9811 0.8639
-59.7869 53.4707 15.5912 0.7212
-20.8847 2.6575 4.0923 0.9178
-57.4643 -13.7767 11.4864 0.7860
-59.2677 -65.9112 17.2297 0.6968
-23.5841 -33.6182 7.9824 0.8459
-17.1564 -32.0776 7.0710 0.8622
-7.8974 -30.9441 6.2077 0.8780
-4.3820 -33.7125 6.6082 0.8706
32.2242 -87.3997 18.1067 0.6842
44.7350 -87.2316 19.0558 0.6707
60.7976 -42.8959 14.4633 0.7385
61.7612 -33.2462 13.6338 0.7514
54.9488 20.0919 11.3726 0.7879
38.6547 19.6923 8.4326 0.8380
35.4842 23.8509 8.3107 0.8401
36.0289 31.1196 9.2540 0.8237
35.0749 38.5869 10.1361 0.8086
36.0175 50.7582 12.0980 0.7760
1.1755 8.6778 1.7022 0.9649
-0.9300 8.6907 1.6990 0.9650
-19.5035 22.7035 5.8179 0.8852
-58.8185 53.7547 15.4886 0.7227
-20.8501 2.8814 4.0914 0.9178
-50.0295 -25.1488 10.8843 0.7960
-17.3273 -31.5755 7.0011 0.8635
-13.4976 -33.6699 7.0511 0.8626
-8.4069 -31.5208 6.3412 0.8755
-4.7308 -33.5659 6.5890 0.8710
32.0295 -89.8380 18.5394 0.6780
26.2087 -39.6800 9.2436 0.8238
36.3787 -42.8113 10.9203 0.7954
50.4591 -46.6157 13.3532 0.7558
60.2186 -33.2565 13.3718 0.7555
60.8372 13.5509 12.1153 0.7757
55.4153 19.5891 11.4249 0.7870
35.4808 23.2983 8.2507 0.8412
35.0195 29.5959 8.9125 0.8296
2.3625 8.6705 1.7468 0.9640
1.2706 8.6772 1.7047 0.9649
0.2152 8.6837 1.6885 0.9652
-0.8355 8.6902 1.6970 0.9651
-1.9126 8.6968 1.7309 0.9644
-3.0504 8.7038 1.7927 0.9631
-4.2913 8.7114 1.8876 0.9612
-15.1298 23.1767 5.3800 0.8933
-58.2367 54.3844 15.4886 0.7227
-50.1228 -24.5237 10.8465 0.7966
-24.5690 -33.4665 8.0700 0.8444
-17.7704 -31.5728 7.0424 0.8627
-13.9189 -33.6674 7.0815 0.8620
-4.2210 -15.1690 3.0607 0.9379
-5.1213 -33.7080 6.6274 0.8703
35.3043 -42.4645 10.7344 0.7985
60.4367 -44.6197 14.6025 0.7363
60.1891 -34.0904 13.4458 0.7544
63.9875 13.5316 12.7130 0.7661
57.3377 19.5772 11.7771 0.7812
35.0155 28.9524 8.8316 0.8310
35.0648 36.9463 9.9011 0.8126
36.1370 48.6726 11.7835 0.7811
3.6361 8.6627 1.8262 0.9624
1.3661 8.6766 1.7073 0.9648
-0.7412 8.6896 1.6952 0.9651
-1.8146 8.6962 1.7268 0.9644
-56.0378 53.4713 15.0559 0.7293
-67.0553 -13.8039 13.3075 0.7566
-55.9806 -18.7781 11.4774 0.7862
-64.1391 -30.5308 13.8078 0.7487
-54.5131 -44.5821 13.6886 0.7505
-18.2189 -31.5701 7.0852 0.8620
-9.7636 -33.6796 6.8162 0.8668
-1.6577 -40.4937 7.8778 0.8478
25.3652 -40.2607 9.2496 0.8237
34.4166 -42.3149 10.6023 0.8007
51.5985 -49.7683 13.9349 0.7467
60.8355 -26.1142 12.8687 0.7636
59.3826 19.5646 12.1531 0.7751
35.0599 36.1539 9.7893 0.8145
36.1303 47.5852 11.6137 0.7839
5.0564 8.6540 1.9483 0.9600
2.5638 8.6693 1.7573 0.9638
1.4618 8.6760 1.7102 0.9648
-0.6470 8.6890 1.6936 0.9651
-1.7170 8.6956 1.7229 0.9645
-4.0601 8.7100 1.8680 0.9616
-13.8390 22.2302 5.0900 0.8988
-18.6333 23.1628 5.7784 0.8859
-54.8365 53.4640 14.8868 0.7319
-56.6589 -18.3298 11.5754 0.7845
-64.0564 -29.6503 13.7205 0.7500
-5.8653 -33.7034 6.6497 0.8699
-2.0942 -40.4910 7.8812 0.8477
33.6630 -42.3103 10.5098 0.8023
50.4924 -49.7615 13.7800 0.7491
60.4242 -46.6521 14.8386 0.7327
75.2472 -44.7847 17.0211 0.6999
60.2499 -26.6345 12.8047 0.7646
44.1719 20.1583 9.4380 0.8205
35.4708 21.6865 8.0814 0.8442
36.1238 46.5283 11.4500 0.7866
3.4608 5.7794 1.3094 0.9729
1.5579 8.6755 1.7133 0.9647
-0.5531 8.6884 1.6923 0.9651
-1.6199 8.6950 1.7192 0.9646
-3.9463 8.7093 1.8586 0.9618
-18.2522 23.1959 5.7373 0.8867
-54.7534 54.5443 15.0227 0.7298
-54.4379 -42.5992 13.4364 0.7545
-20.3896 -33.6377 7.6459 0.8519
-15.2054 -33.6595 7.1794 0.8603
-10.0679 -32.1272 6.5444 0.8718
32.9224 -42.3058 10.4201 0.8038
95.9080 17.0684 18.9356 0.6724
60.5774 18.5229 12.3132 0.7725
45.2611 20.0697 9.6240 0.8173
35.4676 21.1637 8.0283 0.8451
35.0041 27.0892 8.6036 0.8350
35.1442 34.7141 9.6020 0.8177
36.1174 45.5009 11.2921 0.7892
3.5087 5.7189 1.3042 0.9730
0.5894 8.6784 1.6908 0.9652
-0.4592 8.6878 1.6911 0.9652
-1.5232 8.6944 1.7158 0.9647
-2.6350 8.7012 1.7672 0.9636
-54.4210 55.3924 15.0942 0.7287
-56.9063 -17.0664 11.5482 0.7850
-66.3254 -28.9841 14.0696 0.7446
-20.8858 -33.6347 7.6959 0.8510
-15.6426 -33.6568 7.2143 0.8596
-10.2817 -31.6136 6.4619 0.8733
25.4841 -43.5020 9.8000 0.8143
32.1942 -42.3013 10.3330 0.8052
50.4268 -51.8825 14.0636 0.7447
60.4113 -48.7528 15.0897 0.7288
60.7728 -28.4442 13.0429 0.7608
45.4580 19.5746 9.6205 0.8174
35.2710 26.6940 8.5981 0.8351
35.7423 34.5530 9.6633 0.8166
36.1113 44.5014 11.1399 0.7917
3.5941 5.7190 1.3129 0.9729
4.0816 8.6599 1.8609 0.9617
2.8706 8.6674 1.7748 0.9635
1.7511 8.6743 1.7201 0.9646
-2.5330 8.7006 1.7614 0.9637
-3.7219 8.7079 1.8408 0.9621
-17.4537 23.1910 5.6419 0.8885
-56.4622 -42.2565 13.7084 0.7502
-21.3887 -33.6316 7.7474 0.8501
-16.0839 -33.6541 7.2504 0.8590
-3.1784 -37.7692 7.3675 0.8569
31.4047 -42.1988 10.2248 0.8071
60.3113 -29.0232 13.0101 0.7613
60.5687 17.1042 12.2338 0.7738
35.5561 26.3130 8.5981 0.8351
36.1053 43.5284 10.9929 0.7942
31.2483 -76.9999 13.1616 0.7142
22.7906 -41.1158 7.4456 0.8266
60.3815 -30.0317 10.6811 0.7610
69.4543 -24.6401 11.6722 0.7420
35.7847 19.7099 6.4706 0.8475
35.9969 25.9205 7.0257 0.8356
32.4625 64.8309 11.4835 0.7456
3.1007 8.6660 1.4578 0.9634
1.9666 8.6729 1.4085 0.9646
-0.1587 8.6860 1.3760 0.9654
-2.3096 8.6992 1.4256 0.9642
-10.4810 26.2306 4.4739 0.8919
-4.7693 8.7143 1.5734 0.9606
-6.2460 8.7234 1.6993 0.9575
-8.0073 8.7342 1.8767 0.9531
-62.5286 53.5461 13.0386 0.7165
-76.6518 27.6587 12.9067 0.7189
-63.4794 -34.5201 11.4446 0.7463
-21.1366 -31.5522 6.0151 0.8574
-16.0455 -31.6184 5.6158 0.8662
-11.5026 -31.6112 5.3279 0.8726
-3.4212 -31.6319 5.0392 0.8791
30.7801 -78.2522 13.3183 0.7114
38.2592 -42.1857 9.0201 0.7940
67.1130 -24.6257 11.3226 0.7486
49.0170 19.1285 8.3337 0.8081
36.7036 19.7042 6.5980 0.8448
35.9933 25.3343 6.9713 0.8367
36.0375 32.5069 7.6868 0.8216
7.5195 8.6388 1.8140 0.9547
33.3370 64.8255 11.5455 0.7444
3.2060 8.6653 1.4634 0.9633
0.9860 8.6790 1.3835 0.9652
-0.0652 8.6854 1.3757 0.9654
-1.1198 8.6919 1.3880 0.9651
-2.2096 8.6986 1.4215 0.9643
-4.6477 8.7136 1.5641 0.9608
-61.1742 53.5378 12.8756 0.7195
-79.5208 -30.5405 13.4918 0.7082
-77.5892 -53.9903 14.9714 0.6819
30.4617 -79.9577 13.5520 0.7071
27.4702 -39.7047 7.6470 0.8224
37.3903 -42.1298 8.9216 0.7960
65.0122 -24.6517 11.0124 0.7546
61.0056 14.9733 9.9491 0.7754
52.9361 20.0043 8.9629 0.7952
35.4876 24.4116 6.8221 0.8399
7.6835 8.6378 1.8310 0.9543
5.9978 8.6482 1.6669 0.9583
4.5703 8.6569 1.5505 0.9611
1.0806 8.6784 1.3851 0.9652
0.0283 8.6848 1.3756 0.9654
-2.1101 8.6980 1.4176 0.9644
-3.2629 8.7051 1.4724 0.9631
-5.9651 8.7217 1.6736 0.9581
-7.6662 8.7321 1.8404 0.9540
-59.8528 53.5296 12.7180 0.7224
-20.8894 2.6582 3.3352 0.9183
-83.9789 -31.2199 14.1903 0.6957
-65.5035 -33.8151 11.6756 0.7419
-59.1705 -65.8031 14.0161 0.6988
-22.1305 -31.5461 6.1033 0.8555
-16.8893 -31.5782 5.6719 0.8650
-7.8940 -30.9306 5.0560 0.8787
-0.7199 -83.3736 13.2056 0.7134
21.9074 -42.7187 7.6038 0.8233
60.7095 -32.6803 10.9201 0.7564
64.0246 -25.0683 10.8901 0.7570
60.6508 14.1960 9.8658 0.7770
54.9487 20.0919 9.2666 0.7890
38.8487 19.7910 6.9055 0.8381
36.0289 31.1196 7.5404 0.8246
6.1361 8.6473 1.6794 0.9580
4.6897 8.6562 1.5593 0.9609
3.4192 8.6640 1.4752 0.9630
2.2628 8.6711 1.4194 0.9644
1.1755 8.6778 1.3870 0.9652
-3.1562 8.7044 1.4665 0.9632
-5.8278 8.7208 1.6613 0.9584
-58.4990 53.4627 12.5518 0.7255
-37.5218 -8.5699 6.0959 0.8557
-49.8008 -25.0338 8.8282 0.7979
-79.6061 -52.8883 15.1374 0.6791
-59.5093 -64.7646 13.9305 0.7003
-12.6834 -31.6390 5.3988 0.8711
-8.4440 -31.6597 5.1897 0.8757
-4.4573 -31.6256 5.0585 0.8787
25.4683 -51.0065 9.0297 0.7938
60.5426 -33.4355 10.9541 0.7557
55.4153 19.5891 9.3095 0.7882
39.7186 19.6988 7.0220 0.8356
35.5812 23.3643 6.7419 0.8417
36.0248 30.4455 7.4705 0.8261
8.0211 8.6357 1.8668 0.9534
6.2764 8.6465 1.6922 0.9577
4.8105 8.6555 1.5684 0.9607
1.2706 8.6772 1.3890 0.9651
0.2152 8.6837 1.3758 0.9654
-1.9126 8.6968 1.4104 0.9646
-4.2914 8.7114 1.5381 0.9614
-5.6925 8.7200 1.6494 0.9587
-78.9436 44.1535 14.3263 0.6933
-79.2927 -51.4591 14.9716 0.6819
-60.6045 -64.5484 14.0234 0.6987
-24.6755 -33.6115 6.6041 0.8446
-17.7704 -31.5728 5.7383 0.8635
-13.0649 -31.6016 5.4161 0.8707
-4.2206 -15.1674 2.4936 0.9382
-4.8046 -31.6234 5.0661 0.8785
32.0105 -92.9337 15.5679 0.6716
24.9872 -51.4199 9.0548 0.7933
46.4754 -43.8715 10.1226 0.7720
60.6225 -44.7568 11.9350 0.7370
60.3560 -34.1850 10.9863 0.7551
60.4090 -25.1650 10.3648 0.7672
64.5475 13.6500 10.4494 0.7655
8.1949 8.6347 1.8855 0.9529
4.9327 8.6547 1.5778 0.9605
3.6361 8.6627 1.4880 0.9627
-0.7412 8.6896 1.3813 0.9653
-1.8146 8.6962 1.4070 0.9647
-5.5590 8.7192 1.6378 0.9590
-78.6008 45.0788 14.3512 0.6928
-57.0004 -11.7340 9.2173 0.7900
-66.3431 -31.5798 11.6374 0.7426
-80.5749 -51.0674 15.1091 0.6795
-13.4786 -31.6341 5.4462 0.8700
24.3827 -51.5807 9.0364 0.7937
33.2926 -40.9329 8.3568 0.8076
45.4182 -43.8072 9.9944 0.7745
60.6548 -45.7971 12.0376 0.7351
60.3507 -35.0451 11.0533 0.7538
60.7533 -26.0790 10.4715 0.7651
59.3826 19.5646 9.9026 0.7763
42.9065 20.1413 7.5073 0.8253
35.5444 22.2605 6.6426 0.8438
36.0391 37.1637 8.1993 0.8109
6.5637 8.6447 1.7191 0.9570
-0.6471 8.6890 1.3800 0.9653
-1.7170 8.6956 1.4038 0.9647
-2.8412 8.7025 1.4499 0.9636
-7.0214 8.7282 1.7742 0.9556
-54.8364 53.4639 12.1300 0.7333
-79.4972 46.7366 14.6059 0.6883
-61.2059 -11.9148 9.8760 0.7768
-61.5931 -62.8355 13.9360 0.7002
-9.5465 -31.6530 5.2364 0.8747
-5.5067 -31.6428 5.0871 0.8780
-1.6366 -31.6428 5.0184 0.8796
42.7234 -42.1049 9.5006 0.7843
60.7486 -26.8549 10.5198 0.7642
71.3367 13.4889 11.4988 0.7453
60.6141 19.2499 10.0728 0.7729
44.1720 20.1583 7.6903 0.8215
35.4708 21.6865 6.5848 0.8450
36.0128 28.4948 7.2734 0.8303
8.5506 8.6296 1.9241 0.9520
6.7109 8.6438 1.7332 0.9566
3.8568 8.6613 1.5017 0.9623
2.6654 8.6686 1.4364 0.9639
-0.5531 8.6884 1.3789 0.9654
-1.6199 8.6950 1.4008 0.9648
-3.9463 8.7093 1.5144 0.9620
-5.2977 8.7176 1.6157 0.9595
-6.8672 8.7272 1.7589 0.9560
-8.7725 8.7389 1.9612 0.9511
-14.2725 -31.5942 5.4910 0.8690
-1.9780 -31.6407 5.0212 0.8795
23.2828 -52.1284 9.0424 0.7936
30.7740 -39.5450 7.9364 0.8163
60.7437 -27.6378 10.5699 0.7632
75.6458 13.4624 12.1694 0.7326
36.0089 27.8668 7.2116 0.8316
8.7383 8.6313 1.9453 0.9515
3.5049 5.7126 1.0615 0.9732
3.9686 8.6606 1.5089 0.9622
1.1212 5.8794 0.9480 0.9761
0.5894 8.6784 1.3777 0.9654
-6.7157 8.7263 1.7440 0.9564
-8.5846 8.7378 1.9401 0.9516
-77.6182 25.0133 12.9161 0.7187
-56.9736 -17.0866 9.4208 0.7859
-79.1225 -34.5764 13.6761 0.7049
-14.6990 -31.6266 5.5237 0.8683
-2.3200 -31.6386 5.0245 0.8794
23.6396 -54.4945 9.4082 0.7862
29.5993 -38.8917 7.7409 0.8204
53.0729 -42.8306 10.8018 0.7587
75.0260 -24.6244 12.5066 0.7263
60.5730 17.8112 10.0000 0.7744
35.9046 27.1735 7.1318 0.8333
8.9272 8.6302 1.9666 0.9510
4.0816 8.6599 1.5163 0.9620
2.8706 8.6674 1.4461 0.9637
1.7511 8.6743 1.4016 0.9648
0.6835 8.6808 1.3792 0.9653
-0.3655 8.6873 1.3771 0.9654
-1.4268 8.6938 1.3954 0.9649
-3.7219 8.7079 1.4999 0.9624
-5.0432 8.7160 1.5949 0.9600
-8.3915 8.7272 1.9176 0.9522
-56.8929 -16.3973 9.3777 0.7868
-79.0341 -33.5297 13.5977 0.7063
-56.1869 -42.0504 11.1154 0.7526
-20.0926 -31.5937 5.9302 0.8593
-6.5639 -31.6364 5.1174 0.8773
-2.6623 -31.6365 5.0284 0.8793
28.9948 -38.9606 7.6921 0.8214
40.1399 -42.1977 9.2242 0.7899
51.7622 -42.7006 10.6279 0.7620
60.3850 -29.0587 10.6138 0.7623
72.4891 -24.6588 12.1272 0.7334
31.0983 4.8466 4.9850 0.8803
61.0195 17.2315 10.0425 0.7735
35.4613 20.1381 6.4590 0.8478
36.0014 26.6425 7.0936 0.8341
36.0473 34.1050 7.8597 0.8179
30.8825 -76.0985 10.0838 0.7182
25.5920 -46.1697 6.4816 0.8084
28.6182 -39.5186 5.9910 0.8215
64.2374 -42.2852 9.4428 0.7335
60.2818 -29.9821 8.2666 0.7624
67.2952 1.4104 8.2646 0.7624
60.7638 16.3079 7.7249 0.7760
9.3600 8.6275 1.5630 0.9500
5.7273 8.6498 1.2738 0.9591
32.4625 64.8309 8.9024 0.7466
3.1007 8.6660 1.1301 0.9636
1.9666 8.6729 1.0919 0.9648
0.8915 8.6796 1.0713 0.9654
-0.1587 8.6860 1.0667 0.9656
-1.2151 8.6925 1.0777 0.9652
-4.7693 8.7143 1.2197 0.9608
-8.0073 8.7342 1.4549 0.9534
-10.2153 8.7478 1.6513 0.9472
-64.0454 -34.8278 8.9513 0.7454
-27.1354 -31.5155 5.1063 0.8457
-9.2843 -25.5149 3.3338 0.8964
-6.6048 -28.4182 3.5823 0.8891
-3.6467 -33.7171 4.1641 0.8723
38.2592 -42.1857 6.9927 0.7949
62.7429 -42.2759 9.2895 0.7372
64.7506 -23.7589 8.4687 0.7573
60.7595 15.6079 7.7025 0.7766
49.0170 19.1285 6.4606 0.8089
36.7035 19.7042 5.1150 0.8455
35.9933 25.3343 5.4044 0.8375
9.5631 8.6263 1.5813 0.9494
7.5195 8.6388 1.4063 0.9549
5.8616 8.6490 1.2829 0.9588
0.9860 8.6790 1.0725 0.9654
-0.0652 8.6854 1.0665 0.9656
-3.3589 8.6762 1.1423 0.9632
-4.6477 8.7136 1.2126 0.9610
-7.8351 8.7332 1.4406 0.9538
-57.4166 -14.4203 7.2688 0.7877
-22.8800 -33.3725 4.9682 0.8495
-6.8869 -28.2500 3.5702 0.8894
-4.0139 -33.7148 4.1689 0.8721
0.0334 -15.7246 1.9307 0.9386
23.4071 -44.4582 6.1691 0.8167
37.4357 -42.1809 6.9247 0.7967
61.2376 -42.2268 9.1333 0.7410
64.6642 -24.5197 8.4914 0.7568
64.7168 -15.9616 8.1843 0.7644
64.7129 -7.8810 8.0044 0.7690
60.7552 14.9118 7.6812 0.7772
52.9361 20.0043 6.9483 0.7961
37.6594 19.6984 5.2183 0.8426
12.5138 8.6081 1.8649 0.9406
7.6835 8.6378 1.4195 0.9545
5.9978 8.6482 1.2922 0.9585
1.0806 8.6784 1.0738 0.9654
-1.0248 8.6913 1.0746 0.9653
-2.1101 8.6980 1.0990 0.9646
-4.5276 8.7128 1.2056 0.9612
-7.6662 8.7321 1.4267 0.9543
-12.5619 8.7622 1.8806 0.9401
-65.0947 -33.6040 8.9948 0.7444
-23.2377 -33.1245 4.9682 0.8495
-17.1564 -32.0776 4.4666 0.8636
-13.0799 -33.6725 4.4354 0.8645
-8.5974 -33.6867 4.2688 0.8693
-0.7273 -84.2305 10.3426 0.7122
27.8875 -41.2494 6.1137 0.8182
25.4650 -29.3223 4.7685 0.8551
46.6216 -42.1498 7.7171 0.7762
60.2169 -32.4149 8.3969 0.7591
64.8051 7.1114 8.0048 0.7689
60.6508 14.1960 7.6483 0.7780
12.7984 8.6025 1.8934 0.9397
9.9841 8.6237 1.6199 0.9482
7.8507 8.6368 1.4331 0.9541
6.1360 8.6473 1.3019 0.9582
4.6897 8.6562 1.2088 0.9611
2.2628 8.6711 1.1003 0.9645
0.1217 8.6843 1.0664 0.9656
-2.0111 8.6974 1.0961 0.9647
-5.8278 8.7208 1.2879 0.9586
-7.5002 8.7308 1.4132 0.9547
-9.5675 8.7438 1.5914 0.9491
-79.3093 43.2443 11.0915 0.6949
-34.9255 -7.9768 4.3987 0.8656
-49.7334 -24.9999 6.8346 0.7991
-79.3544 -52.7211 11.6979 0.6812
-59.7932 -65.0736 10.8508 0.7004
-8.4065 -31.5192 4.0054 0.8768
-4.7308 -33.5660 4.1621 0.8723
28.0296 -78.6188 10.2483 0.7144
26.5363 -40.1760 5.9119 0.8236
34.7250 -40.8652 6.5845 0.8056
46.3265 -42.7978 7.7440 0.7756
60.8586 -24.5872 8.0593 0.7676
64.9322 -1.4343 7.9746 0.7697
60.8370 13.5509 7.6529 0.7779
55.4153 19.5891 7.2167 0.7891
39.6926 19.6859 5.4401 0.8365
13.0995 8.6017 1.9242 0.9388
4.8105 8.6555 1.2159 0.9609
2.3625 8.6705 1.1034 0.9644
0.2152 8.6837 1.0666 0.9656
-0.8355 8.6902 1.0719 0.9654
-4.2914 8.7114 1.1924 0.9616
-7.3170 8.7053 1.3963 0.9552
-11.9982 8.7588 1.8240 0.9419
-65.8198 -32.2038 8.9971 0.7443
-79.8404 -51.8145 11.6866 0.6814
-23.9452 -32.6167 4.9682 0.8495
-1.2200 -40.4442 4.9682 0.8495
27.8211 -80.7708 10.4892 0.7087
23.5162 -48.3930 6.6063 0.8051
25.2703 -39.1693 5.7234 0.8287
34.0126 -40.9108 6.5325 0.8070
60.2563 -34.1285 8.5028 0.7565
64.6496 -18.1775 8.2458 0.7629
67.3229 5.9248 8.2982 0.7616
57.6253 19.6754 7.4766 0.7824
41.7984 20.1729 5.6987 0.8294
35.4774 22.7536 5.1750 0.8438
6.4189 8.6456 1.3221 0.9575
4.9327 8.6547 1.2231 0.9606
3.6361 8.6627 1.1535 0.9628
1.3661 8.6766 1.0785 0.9652
0.3087 8.6831 1.0668 0.9656
-2.9454 8.7031 1.1281 0.9636
-5.5590 8.7192 1.2697 0.9592
-7.1782 8.7291 1.3877 0.9555
-11.7288 8.7571 1.7972 0.9427
-79.4129 45.5445 11.2405 0.6915
-64.6521 -30.7749 8.7917 0.7493
-24.2948 -32.3572 4.9682 0.8495
29.2411 -87.9563 11.3808 0.6883
23.4454 -49.5980 6.7360 0.8016
33.2926 -40.9329 6.4784 0.8085
60.3045 -25.8863 8.0578 0.7676
68.4173 -20.0336 8.7533 0.7503
67.2348 13.4641 8.4193 0.7586
59.3825 19.5646 7.6768 0.7773
5.0564 8.6540 1.2307 0.9604
3.7459 8.6620 1.1588 0.9627
0.4019 8.6742 1.0662 0.9656
-0.6470 8.6890 1.0698 0.9655
-1.7170 8.6956 1.0883 0.9649
-7.0214 8.7282 1.3754 0.9559
-78.2748 46.0180 11.1488 0.6936
-66.3539 -30.7137 8.9777 0.7448
-14.7727 -33.6622 4.5137 0.8623
-2.0899 -40.4086 4.9682 0.8495
28.1990 -87.9722 11.3430 0.6891
22.9606 -49.9565 6.7507 0.8013
42.9897 -42.3674 7.4110 0.7841
67.3140 4.4667 8.2833 0.7619
64.8367 12.2599 8.1020 0.7665
60.6141 19.2499 7.8088 0.7739
44.1720 20.1583 5.9617 0.8223
35.4708 21.6865 5.1048 0.8457
8.5534 8.6325 1.4921 0.9522
6.7109 8.6438 1.3436 0.9569
1.5579 8.6755 1.0822 0.9651
-0.5531 8.6884 1.0690 0.9655
-1.6199 8.6950 1.0860 0.9650
-5.2977 8.7176 1.2525 0.9597
-20.3896 -33.6378 4.8297 0.8534
-15.2055 -33.6595 4.5350 0.8617
-6.2392 -33.7012 4.2083 0.8710
27.2803 -88.3660 11.3553 0.6889
22.6621 -50.7386 6.8231 0.7994
42.0689 -42.3617 7.3305 0.7862
53.5366 -42.2618 8.3748 0.7597
60.2950 -27.4336 8.1336 0.7657
79.1526 -25.0383 10.1934 0.7156
67.2088 -12.6295 8.3966 0.7591
64.9535 3.6086 7.9876 0.7694
65.0121 11.5700 8.1079 0.7663
11.1342 8.6166 1.7287 0.9448
8.7383 8.6313 1.5081 0.9517
3.5083 5.7182 0.8237 0.9733
3.9686 8.6606 1.1697 0.9623
1.1210 5.8784 0.7348 0.9762
0.5894 8.6784 1.0680 0.9656
-1.5232 8.6944 1.0838 0.9651
-2.6350 8.7012 1.1163 0.9640
-5.1696 8.7168 1.2444 0.9600
-8.5846 8.7378 1.5040 0.9518
-80.0134 -13.7959 9.9694 0.7209
-58.2823 -17.4790 7.4710 0.7825
-20.8858 -33.6347 4.8613 0.8525
-15.6426 -33.6568 4.5571 0.8611
-10.2817 -31.6136 4.0818 0.8746
-2.9591 -40.3543 4.9682 0.8495
24.1712 -41.2610 5.8715 0.8247
29.8321 -39.1976 6.0482 0.8199
41.3557 -42.5496 7.2855 0.7873
52.3753 -42.2677 8.2638 0.7624
60.2348 -37.6282 8.7204 0.7511
64.6844 -21.2302 8.3591 0.7601
64.6821 -12.8767 8.0978 0.7666
67.3050 3.0130 8.2723 0.7622
67.3556 11.2408 8.3846 0.7594
60.5730 17.8112 7.7523 0.7753
45.4580 19.5746 6.0770 0.8192
11.3832 8.6151 1.7528 0.9441
1.7511 8.6743 1.0866 0.9650
-0.3655 8.6873 1.0676 0.9656
-1.4268 8.6938 1.0817 0.9651
-2.5330 8.7006 1.1127 0.9641
-5.0432 8.7160 1.2364 0.9602
-6.5668 8.7254 1.3409 0.9569
-8.4006 8.7367 1.4882 0.9523
-78.7498 -33.4091 10.5034 0.7084
-56.8163 -42.5215 8.7135 0.7513
-21.3887 -33.6317 4.8938 0.8516
-3.1784 -37.7693 4.6539 0.8583
22.0913 -52.4641 6.9896 0.7950
23.8712 -41.7730 5.9075 0.8237
29.3855 -39.4855 6.0435 0.8201
40.1396 -42.1974 7.1509 0.7908
51.2350 -42.2657 8.1552 0.7652
60.2853 -29.0107 8.2146 0.7637
64.8054 -22.0450 8.4049 0.7589
67.2506 -5.8415 8.2884 0.7618
64.7749 2.2017 7.9579 0.7701
64.9765 10.1264 8.0744 0.7672
11.6392 8.6135 1.7779 0.9433
9.1204 8.6290 1.5416 0.9507
7.1674 8.6410 1.3785 0.9558
24.0090 -88.5069 8.0232 0.6920
23.3509 -42.1267 4.2139 0.8242
29.3943 -40.5904 4.3846 0.8177
64.2376 -42.2853 6.7284 0.7343
60.3815 -30.0317 5.9000 0.7628
64.6723 -14.4818 5.7982 0.7664
64.7215 -6.4721 5.6906 0.7701
47.5241 19.1376 4.4823 0.8141
15.5943 8.5892 1.5576 0.9310
11.9592 8.6115 1.2893 0.9425
3.1007 8.6660 0.8052 0.9637
1.9666 8.6729 0.7780 0.9649
0.8915 8.6796 0.7634 0.9656
-0.1587 8.6860 0.7601 0.9657
-1.2151 8.6925 0.7679 0.9654
-2.3096 8.6992 0.7875 0.9645
-6.2460 8.7234 0.9387 0.9578
-8.0073 8.7342 1.0367 0.9535
-10.2153 8.7478 1.1766 0.9474
-13.1620 8.7659 1.3835 0.9385
-64.8783 -35.2807 6.4611 0.7434
-22.5249 -33.6247 3.5409 0.8500
-17.0021 -33.5035 3.2870 0.8600
27.9157 -39.4349 4.2271 0.8237
38.2592 -42.1857 4.9826 0.7956
47.8095 -41.3893 5.5325 0.7758
60.7255 -31.0223 5.9659 0.7605
64.6155 -23.7093 6.0217 0.7585
64.7654 0.6603 5.6665 0.7710
59.7576 7.8623 5.2732 0.7850
60.5592 15.5564 5.4703 0.7780
15.9947 8.5867 1.5883 0.9297
5.8616 8.6490 0.9141 0.9589
33.3370 64.8255 6.3775 0.7463
3.2060 8.6653 0.8083 0.9636
-2.2096 8.6986 0.7852 0.9646
-9.9940 8.7465 1.1619 0.9481
-12.8571 8.7640 1.3613 0.9394
-16.9789 8.7894 1.6727 0.9261
-57.3005 -14.3912 5.1688 0.7888
-23.0507 -33.6215 3.5664 0.8490
-17.1616 -32.9348 3.2491 0.8615
-9.5128 -25.2925 2.3641 0.8972
-6.8867 -28.2491 2.5439 0.8898
-3.7727 -31.6884 2.7920 0.8797
23.9571 -96.4869 8.6978 0.6709
23.1932 -44.0519 4.3556 0.8188
37.4196 -42.1628 4.9320 0.7974
47.4591 -41.9878 5.5439 0.7754
61.2960 -42.2671 6.5141 0.7416
60.7204 -31.8481 5.9987 0.7593
64.6632 -15.9484 5.8268 0.7654
64.7129 -7.8810 5.7035 0.7697
50.5927 19.1188 4.7318 0.8048
37.8484 19.7972 3.7369 0.8424
12.5138 8.6081 1.3288 0.9408
4.5703 8.6569 0.8565 0.9615
2.1635 8.6717 0.7819 0.9647
0.0283 8.6848 0.7598 0.9657
-1.0248 8.6913 0.7657 0.9655
-2.1101 8.6980 0.7830 0.9647
-3.2629 8.7051 0.8133 0.9634
-4.5276 8.7128 0.8591 0.9613
-5.9651 8.7217 0.9244 0.9585
-12.5619 8.7622 1.3400 0.9404
-16.5354 8.7866 1.6382 0.9276
-67.6603 -16.2211 6.0873 0.7563
-23.5842 -33.6182 3.5928 0.8480
-12.2909 -31.6414 2.9698 0.8726
-8.0806 -31.6620 2.8589 0.8770
26.6864 -39.4729 4.1686 0.8259
25.4626 -29.3196 3.3971 0.8556
59.8802 -42.2486 6.4116 0.7451
64.6587 -16.6874 5.8423 0.7648
64.7568 -0.7333 5.6659 0.7710
64.8051 7.1114 5.7037 0.7697
60.5507 14.1726 5.4407 0.7790
38.8488 19.7911 3.8145 0.8394
9.9841 8.6237 1.1542 0.9484
7.8507 8.6368 1.0211 0.9542
2.2628 8.6711 0.7840 0.9647
1.1755 8.6778 0.7661 0.9654
-0.9300 8.6907 0.7647 0.9655
-2.0111 8.6974 0.7810 0.9648
-3.1562 8.7044 0.8101 0.9635
-12.2758 8.7605 1.3194 0.9412
-16.1098 8.7840 1.6053 0.9290
-49.6505 -24.9583 4.8618 0.8000
-59.7153 -64.9888 7.7216 0.7016
-24.1257 -33.6149 3.6200 0.8469
-17.3273 -31.5756 3.1511 0.8654
-12.6834 -31.6390 2.9822 0.8721
-8.4297 -31.6062 2.8618 0.8769
44.3378 -40.9606 5.2810 0.7848
58.4927 -42.2195 6.3113 0.7485
64.6541 -17.4303 5.8585 0.7642
64.7042 -9.2970 5.7190 0.7691
64.8007 6.4062 5.6970 0.7699
60.8370 13.5509 5.4530 0.7786
54.0251 19.0976 5.0132 0.7945
13.1037 8.6045 1.3715 0.9390
10.2024 8.6223 1.1687 0.9478
8.0211 8.6357 1.0312 0.9538
4.8105 8.6555 0.8664 0.9610
2.3625 8.6705 0.7862 0.9646
0.2152 8.6837 0.7600 0.9657
-1.9126 8.6968 0.7791 0.9649
-5.6925 8.7200 0.9111 0.9590
-11.9982 8.7588 1.2996 0.9421
-15.7008 8.7815 1.5739 0.9303
-4.2198 -15.1644 1.3772 0.9388
-3.6846 -24.2516 2.1461 0.9062
24.7361 -50.9034 4.9514 0.7967
25.7561 -39.9222 4.1565 0.8263
34.1322 -41.0547 4.6710 0.8070
60.3560 -34.1850 6.0688 0.7569
64.6998 -10.0081 5.7278 0.7688
64.7483 -2.1274 5.6678 0.7710
64.7964 5.7025 5.6909 0.7701
57.3377 19.5772 5.3007 0.7841
41.7984 20.1729 4.0605 0.8300
13.4132 8.6026 1.3941 0.9380
10.4263 8.6209 1.1836 0.9471
8.1949 8.6347 1.0415 0.9533
3.6361 8.6627 0.8219 0.9630
2.4629 8.6699 0.7885 0.9645
1.3661 8.6766 0.7685 0.9653
0.3087 8.6831 0.7602 0.9657
-2.9454 8.7031 0.8038 0.9638
-7.1782 8.7291 0.9888 0.9556
-9.1609 8.7413 1.1078 0.9504
-18.2189 -31.5701 3.1890 0.8638
-13.4787 -31.6341 3.0084 0.8710
-5.1625 -31.6799 2.8082 0.8791
-1.2979 -31.7035 2.7760 0.8804
28.6157 -86.0752 7.9359 0.6947
25.4597 -40.4107 4.1786 0.8255
33.2926 -40.9329 4.6161 0.8091
43.0476 -41.5206 5.2326 0.7865
60.3507 -35.0451 6.1057 0.7556
62.8551 -18.4049 5.7300 0.7688
64.6954 -10.7215 5.7373 0.7685
64.7440 -2.8249 5.6698 0.7709
64.7921 5.0001 5.6854 0.7703
6.5637 8.6447 0.9496 0.9574
2.5638 8.6693 0.7909 0.9644
1.4618 8.6760 0.7698 0.9653
-0.6471 8.6890 0.7623 0.9656
-5.4275 8.7184 0.8985 0.9596
-7.0214 8.7282 0.9800 0.9560
-8.9645 8.7401 1.0954 0.9510
-11.4182 8.7181 1.2569 0.9439
-14.9290 8.7768 1.5151 0.9328
-19.8996 -33.6408 3.4196 0.8548
-13.8816 -31.6317 3.0222 0.8705
-5.5128 -31.6777 2.8131 0.8789
23.6331 -51.4198 4.9511 0.7967
33.0939 -41.5950 4.6504 0.8078
42.5701 -41.9538 5.2291 0.7866
60.6941 -36.1232 6.1794 0.7531
64.7397 -3.5232 5.6724 0.7708
64.8367 12.2599 5.7730 0.7672
60.6141 19.2499 5.5640 0.7746
44.1720 20.1583 4.2480 0.8229
14.0640 8.5986 1.4422 0.9360
3.4601 5.7782 0.5892 0.9733
3.7131 65.0078 5.6967 0.7699
-1.6199 8.6950 0.7738 0.9651
-5.2977 8.7176 0.8925 0.9599
-11.2129 8.7539 1.2446 0.9445
-19.6332 8.8057 1.8825 0.9172
-14.2725 -31.5943 3.0331 0.8701
-9.9185 -31.6507 2.9019 0.8753
-5.8642 -31.6756 2.8183 0.8787
-1.9817 -31.6993 2.7787 0.8803
26.7885 -86.7727 7.9452 0.6944
24.6878 -41.1219 4.1963 0.8248
32.6749 -41.9878 4.6547 0.8076
53.5593 -42.2798 5.9699 0.7603
27.5647 -16.8099 2.8247 0.8784
64.6866 -12.1556 5.7584 0.7678
64.7354 -4.2219 5.6756 0.7707
64.7835 3.5992 5.6766 0.7706
64.8323 11.5380 5.7612 0.7677
60.5774 18.5229 5.5421 0.7754
45.2611 20.0698 4.3316 0.8197
14.4066 8.5965 1.4678 0.9349
11.1342 8.6166 1.2317 0.9450
8.7383 8.6313 1.0746 0.9519
6.8605 8.6429 0.9654 0.9567
3.5083 5.7181 0.5869 0.9734
3.9686 8.6606 0.8335 0.9625
2.7677 8.6680 0.7961 0.9641
-1.5232 8.6944 0.7722 0.9652
-2.6350 8.7012 0.7954 0.9642
-3.8335 8.7086 0.8325 0.9625
-20.8858 -33.6347 3.4638 0.8530
-14.6828 -31.5918 3.0479 0.8695
-10.2817 -31.6136 2.9084 0.8750
-6.2101 -31.6386 2.8208 0.8786
25.6728 -86.4493 7.8898 0.6962
24.7799 -42.3001 4.2890 0.8213
40.9839 -42.1670 5.1446 0.7897
64.6821 -12.8767 5.7700 0.7673
64.7311 -4.9216 5.6796 0.7705
60.9887 2.7303 5.3412 0.7826
45.4580 19.5746 4.3301 0.8198
14.7616 8.5943 1.4944 0.9337
11.3832 8.6151 1.2490 0.9443
8.9272 8.6302 1.0863 0.9514
3.5929 5.7171 0.5908 0.9733
2.8706 8.6674 0.7988 0.9640
0.6835 8.6808 0.7618 0.9656
-0.3655 8.6873 0.7607 0.9657
-5.0432 8.7160 0.8810 0.9604
-8.4006 8.7367 1.0604 0.9525
-10.7251 8.7509 1.2110 0.9459
-18.5390 8.7990 1.7954 0.9209
-21.3887 -33.6317 3.4870 0.8521
-15.0970 -31.5892 3.0631 0.8689
-6.5712 -31.6712 2.8299 0.8782
23.0607 -54.7662 5.1989 0.7877
40.1396 -42.1974 5.0953 0.7915
51.2349 -42.2655 5.8108 0.7659
59.8913 -20.3733 5.5347 0.7757
64.6777 -13.6009 5.7823 0.7669
60.9604 2.0721 5.3364 0.7828
59.7676 9.3147 5.2921 0.7844
45.8191 19.1481 4.3446 0.8192
11.6392 8.6135 1.2668 0.9435
5.5673 8.6508 0.9000 0.9595
24.0393 -88.6185 4.8121 0.6923
22.8031 -56.1897 3.1780 0.7844
23.5748 -42.5306 2.5484 0.8230
39.0995 -42.1910 3.0146 0.7942
48.3422 -40.9488 3.3203 0.7759
60.3815 -30.0317 3.5343 0.7633
53.8343 -19.0986 2.9936 0.7955
69.6550 1.4599 3.6513 0.7565
47.5242 19.1376 2.6850 0.8145
15.5943 8.5892 0.9330 0.9312
11.9592 8.6115 0.7723 0.9427
7.3584 8.6398 0.5948 0.9556
32.9617 65.8279 3.8582 0.7446
1.9630 8.6572 0.4652 0.9651
-0.1586 8.6804 0.4550 0.9658
-10.4810 26.2306 1.4804 0.8930
-4.7693 8.7143 0.5206 0.9610
-13.1620 8.7659 0.8288 0.9386
-24.4863 8.8355 1.3643 0.9010
-21.1379 -31.5541 1.9904 0.8589
-15.5213 -30.5854 1.7975 0.8716
-9.2225 -25.3450 1.4135 0.8976
-7.7604 -33.3901 1.7965 0.8717
29.4989 -41.6715 2.6757 0.8151
38.2592 -42.1857 2.9846 0.7960
62.7429 -42.2759 3.9650 0.7386
60.7255 -31.0223 3.5737 0.7610
69.6599 0.7103 3.6509 0.7565
54.2973 7.1439 2.8701 0.8030
33.0197 8.4821 1.7867 0.8724
49.0170 19.1285 2.7575 0.8100
9.5631 8.6263 0.6750 0.9497
7.5195 8.6388 0.6002 0.9552
5.8616 8.6490 0.5476 0.9590
3.2050 8.6625 0.4841 0.9637
2.0608 8.6555 0.4663 0.9650
-0.0652 8.6800 0.4549 0.9658
-1.1186 8.6825 0.4588 0.9655
-2.2051 8.6811 0.4694 0.9648
-3.3589 8.6762 0.4876 0.9634
-6.1045 8.7225 0.5580 0.9583
-21.0664 2.4506 1.1115 0.9186
-57.1802 -14.3610 3.0898 0.7897
-15.9361 -30.5829 1.8073 0.8710
-9.5238 -25.3217 1.4178 0.8973
-6.8916 -28.2693 1.5249 0.8900
-3.9780 -33.4133 1.7635 0.8739
0.0343 -16.1492 0.8463 0.9374
30.3398 -79.6377 4.4663 0.7108
26.3441 -50.0367 2.9636 0.7973
37.4355 -42.1807 2.9556 0.7978
47.4979 -42.0221 3.3236 0.7757
35.2256 -24.2901 2.2424 0.8425
60.7204 -31.8481 3.5934 0.7598
54.0344 -20.4891 3.0286 0.7934
67.1736 -16.5676 3.6259 0.7580
69.6648 -0.0393 3.6510 0.7565
68.6885 8.2866 3.6259 0.7580
34.5210 8.4729 1.8629 0.8673
37.6594 19.6984 2.2273 0.8435
9.7711 8.6250 0.6830 0.9491
7.6835 8.6378 0.6059 0.9547
5.9978 8.6482 0.5516 0.9587
1.0795 8.6700 0.4579 0.9656
-1.0238 8.6826 0.4582 0.9656
-2.1055 8.6794 0.4681 0.9649
-3.2629 8.7051 0.4872 0.9634
-4.5276 8.7128 0.5146 0.9614
-5.9651 8.7217 0.5538 0.9586
-9.7781 8.7451 0.6875 0.9488
-22.9031 8.8258 1.2863 0.9064
-20.9035 2.6599 1.1043 0.9191
-12.4614 -23.2993 1.3847 0.8996
-11.8894 -30.6076 1.7208 0.8768
25.8076 -50.3239 2.9639 0.7973
25.4602 -29.3168 2.0353 0.8560
34.8658 -24.5997 2.2363 0.8429
69.6698 -0.7890 3.6515 0.7565
60.6508 14.1960 3.2645 0.7792
52.2593 19.1085 2.9161 0.8002
9.9841 8.6237 0.6914 0.9485
6.1360 8.6473 0.5557 0.9584
3.4192 8.6640 0.4881 0.9634
2.2580 8.6529 0.4687 0.9648
-0.9292 8.6825 0.4576 0.9656
-2.0070 8.6799 0.4669 0.9649
-12.2758 8.7605 0.7904 0.9414
-16.1098 8.7840 0.9616 0.9291
-22.1774 8.8213 1.2508 0.9088
-49.5634 -24.9145 2.9072 0.8008
-59.6320 -64.8981 4.6188 0.7026
-22.6401 -31.5449 2.0349 0.8560
-16.7797 -30.5777 1.8279 0.8696
-1.6337 -84.2250 4.4149 0.7136
25.7311 -51.5328 3.0187 0.7940
34.7250 -40.8652 2.8104 0.8067
34.8734 -25.1713 2.2540 0.8418
60.5427 -33.4355 3.6246 0.7580
61.0122 -24.6493 3.4486 0.7683
68.9250 -9.9034 3.6493 0.7566
69.2951 6.8504 3.6493 0.7566
60.8370 13.5509 3.2665 0.7791
35.1254 12.4167 1.9525 0.8614
10.2024 8.6223 0.7001 0.9479
6.2764 8.6465 0.5599 0.9581
4.8105 8.6555 0.5190 0.9611
3.5272 8.6633 0.4902 0.9632
1.2692 8.6676 0.4591 0.9655
-1.9090 8.6804 0.4658 0.9650
-5.6925 8.7200 0.5458 0.9591
-7.3170 8.7053 0.5960 0.9555
-11.9982 8.7588 0.7785 0.9422
-15.7008 8.7815 0.9428 0.9305
-17.7705 -31.5729 1.8987 0.8649
-12.6520 -30.6030 1.7355 0.8758
-4.2191 -15.1621 0.8248 0.9389
-5.0755 -33.4066 1.7709 0.8734
24.9916 -51.4290 2.9967 0.7953
57.2988 -42.3030 3.7326 0.7518
60.3560 -34.1850 3.6353 0.7574
60.4090 -25.1650 3.4296 0.7694
68.8145 -10.6445 3.6493 0.7566
69.3648 6.1045 3.6493 0.7566
57.6255 19.6755 3.1912 0.7836
13.4132 8.6026 0.8351 0.9382
10.4263 8.6209 0.7090 0.9473
4.9327 8.6547 0.5221 0.9609
1.3644 8.6663 0.4598 0.9655
-0.7406 8.6823 0.4567 0.9657
-1.8114 8.6809 0.4647 0.9651
-2.9435 8.6975 0.4812 0.9639
-4.1751 8.7107 0.5062 0.9620
-7.1782 8.7291 0.5923 0.9557
-9.1609 8.7413 0.6636 0.9505
-11.7288 8.7571 0.7671 0.9431
-13.0383 -30.6006 1.7432 0.8753
-9.7218 -33.5354 1.8299 0.8695
-4.1065 -25.1997 1.3381 0.9028
-1.5131 -36.9625 1.9387 0.8623
24.0558 -50.8893 2.9499 0.7981
42.9416 -41.4184 3.1267 0.7874
60.3507 -35.0451 3.6574 0.7561
66.8269 -19.5679 3.6493 0.7566
68.6959 -11.3845 3.6493 0.7566
69.5667 -3.0353 3.6493 0.7566
59.6688 19.6589 3.2925 0.7775
13.7330 8.6006 0.8492 0.9372
10.6560 8.6195 0.7183 0.9466
3.7459 8.6620 0.4946 0.9629
0.4019 8.6742 0.4551 0.9658
-0.6465 8.6822 0.4563 0.9657
-2.8388 8.6950 0.4794 0.9640
-4.0601 8.7100 0.5036 0.9622
-7.0214 8.7282 0.5871 0.9561
-8.9645 8.7401 0.6561 0.9511
-14.9290 8.7768 0.9076 0.9330
-24.2112 -31.5334 2.0835 0.8528
-18.8344 -31.8400 1.9387 0.8623
-10.0758 -33.4079 1.8287 0.8696
26.9559 -84.0942 4.6281 0.7021
24.8907 -54.1559 3.1236 0.7876
42.6069 -41.9901 3.1351 0.7869
60.6144 -36.0758 3.6967 0.7539
60.7486 -26.8549 3.4809 0.7664
60.6155 -18.4595 3.3208 0.7758
69.5300 -3.7838 3.6493 0.7566
68.4204 12.9375 3.6493 0.7566
60.6140 19.2499 3.3329 0.7751
44.1720 20.1583 2.5446 0.8233
10.8919 8.6181 0.7279 0.9459
8.5534 8.6325 0.6369 0.9525
6.7109 8.6438 0.5735 0.9571
3.4601 5.7782 0.3530 0.9734
1.5557 8.6636 0.4613 0.9654
-0.5527 8.6819 0.4559 0.9658
-3.9463 8.7093 0.5011 0.9624
-5.2977 8.7176 0.5346 0.9600
-14.5640 8.7745 0.8911 0.9342
-19.6332 8.8057 1.1277 0.9174
-10.9207 -24.1746 1.3902 0.8992
-10.0679 -32.1274 1.7645 0.8738
26.5998 -86.1615 4.7258 0.6968
32.6749 -41.9878 2.7883 0.8081
41.9166 -42.2083 3.1175 0.7880
60.5881 -19.1658 3.3304 0.7753
69.4853 -4.5317 3.6493 0.7566
54.0803 9.6245 2.8788 0.8025
27.8439 8.5139 1.5259 0.8899
11.1342 8.6166 0.7378 0.9452
8.7383 8.6313 0.6437 0.9520
6.8605 8.6429 0.5783 0.9568
3.5082 5.7181 0.3516 0.9735
3.9686 8.6606 0.4993 0.9626
2.7643 8.6574 0.4763 0.9643
-0.4589 8.6817 0.4556 0.9658
-2.6317 8.6902 0.4759 0.9643
-3.8335 8.7086 0.4987 0.9626
-5.1696 8.7168 0.5311 0.9602
-6.7157 8.7263 0.5771 0.9569
-8.5846 8.7378 0.6420 0.9521
-10.9657 8.7524 0.7353 0.9454
-14.2122 8.7724 0.8753 0.9353
-19.0733 8.8023 1.1009 0.9193
-58.0494 -17.4092 3.1761 0.7845
-25.3026 -31.5267 2.1186 0.8505
-19.5997 -31.5635 1.9471 0.8617
-14.2188 -30.5934 1.7680 0.8736
-10.2817 -31.6136 1.7422 0.8753
-6.5554 -33.3975 1.7837 0.8726
41.0185 -42.2027 3.0843 0.7900
52.3592 -42.2546 3.5261 0.7638
60.6920 -28.4063 3.5119 0.7646
68.2927 -13.5955 3.6493 0.7566
14.7616 8.5943 0.8952 0.9339
11.3832 8.6151 0.7482 0.9444
7.0126 8.6419 0.5833 0.9564
3.5928 5.7170 0.3539 0.9733
4.0816 8.6599 0.5017 0.9624
2.8676 8.6585 0.4780 0.9641
1.7484 8.6607 0.4630 0.9652
0.6830 8.6743 0.4560 0.9657
-0.3653 8.6813 0.4554 0.9658
-3.7219 8.7079 0.4963 0.9628
-6.5668 8.7254 0.5723 0.9572
-10.7251 8.7509 0.7254 0.9461
-26.4761 8.8477 1.4630 0.8942
-58.3649 -16.8215 3.1832 0.7840
-20.0716 -31.5606 1.9602 0.8609
-10.6585 -31.6113 1.7483 0.8749
25.2331 -88.4448 4.8201 0.6918
22.9954 -54.6112 3.1054 0.7887
23.7826 -41.6179 2.5121 0.8253
31.2959 -42.0526 2.7472 0.8106
40.1395 -42.1973 3.0522 0.7919
60.3067 -38.5816 3.7521 0.7507
54.1686 -18.4267 2.9986 0.7952
68.1425 -14.3295 3.6493 0.7566
69.5927 2.3655 3.6493 0.7566
30.1001 8.5000 1.6392 0.8822
15.1298 8.5920 0.9119 0.9327
9.1204 8.6290 0.6580 0.9510
30.8730 -55.6971 1.1116 0.7751
30.7444 -42.4547 0.9149 0.8108
49.9701 20.1226 0.9403 0.8061
11.9592 8.6115 0.2572 0.9427
7.3432 8.6219 0.1977 0.9557
3.1007 8.6660 0.1607 0.9638
1.9666 8.6729 0.1552 0.9650
-2.2985 8.6572 0.1563 0.9648
-10.4810 26.2306 0.4930 0.8931
-4.7693 8.7143 0.1734 0.9610
-6.2460 8.7234 0.1873 0.9580
-8.0073 8.7342 0.2068 0.9537
-13.1425 8.7530 0.2756 0.9388
-62.0377 -33.7361 1.2326 0.7539
-17.1671 -33.8285 0.6622 0.8592
-9.2174 -25.3311 0.4705 0.8978
-7.2556 -31.2181 0.5594 0.8797
-3.6311 -33.5727 0.5894 0.8736
30.7385 -43.4226 0.9286 0.8083
33.0197 8.4821 0.5951 0.8725
14.8700 10.4664 0.3174 0.9298
7.5040 8.6210 0.1995 0.9553
33.8497 65.8224 1.2919 0.7437
3.2060 8.6653 0.1613 0.9637
-2.1989 8.6565 0.1559 0.9649
-4.6477 8.7136 0.1724 0.9613
-6.1045 8.7225 0.1858 0.9583
-7.8351 8.7332 0.2048 0.9541
-23.6714 8.8305 0.4410 0.9039
-19.0209 2.2127 0.3342 0.9263
-55.1076 -13.8404 0.9918 0.7967
-61.6273 -32.6587 1.2174 0.7565
-21.3843 -31.1908 0.6601 0.8596
-9.5479 -25.3859 0.4734 0.8972
-6.9125 -28.3549 0.5094 0.8898
-3.7193 -31.2397 0.5491 0.8817
0.0343 -16.1491 0.2819 0.9374
31.8880 -83.7017 1.5634 0.6988
46.0844 -87.5302 1.7267 0.6732
30.8890 -44.6461 0.9476 0.8048
34.7813 -39.1901 0.9146 0.8109
35.2488 -24.3061 0.7474 0.8426
46.4725 -24.3750 0.9160 0.8106
34.5210 8.4729 0.6204 0.8674
52.9361 20.0043 0.9878 0.7974
37.6595 19.6984 0.7418 0.8436
9.7711 8.6250 0.2275 0.9492
7.6678 8.6201 0.2014 0.9549
4.5492 8.6170 0.1701 0.9618
3.3122 8.6647 0.1619 0.9636
2.1635 8.6717 0.1560 0.9649
1.0806 8.6784 0.1527 0.9656
0.0282 8.6668 0.1513 0.9659
-1.0223 8.6703 0.1524 0.9657
-2.0998 8.6558 0.1555 0.9650
-3.2474 8.6637 0.1615 0.9637
-4.5276 8.7128 0.1714 0.9615
-5.9651 8.7217 0.1844 0.9586
-7.6662 8.7321 0.2028 0.9546
-9.7781 8.7451 0.2290 0.9489
-12.5425 8.7487 0.2669 0.9407
-16.5174 8.7771 0.3265 0.9279
-22.9031 8.8258 0.4284 0.9065
-20.9082 2.6605 0.3679 0.9191
-55.0742 -13.2037 0.9886 0.7973
-62.1477 -32.0828 1.2208 0.7559
-0.5755 -66.6461 1.1633 0.7660
25.4569 -29.3131 0.6777 0.8561
34.8388 -31.4972 0.8198 0.8287
50.6677 -19.8385 0.9498 0.8044
38.6548 19.6923 0.7572 0.8407
12.8041 8.6063 0.2693 0.9401
3.4192 8.6640 0.1626 0.9634
2.2628 8.6711 0.1564 0.9648
1.1755 8.6778 0.1529 0.9656
-2.0013 8.6552 0.1551 0.9651
-9.5675 8.7438 0.2262 0.9495
-16.0914 8.7740 0.3199 0.9293
-20.9694 2.8979 0.3695 0.9188
-34.9154 -7.9745 0.6251 0.8665
-79.9499 -53.1167 1.6754 0.6811
-59.5457 -64.8042 1.5360 0.7032
-22.3816 -31.1847 0.6700 0.8576
-17.3273 -31.5756 0.6287 0.8658
-14.1435 -35.2812 0.6635 0.8589
-8.3244 -31.2115 0.5638 0.8788
32.0295 -89.8380 1.6648 0.6828
41.8440 -83.8028 1.6350 0.6875
30.7195 -46.5093 0.9729 0.8001
33.2898 -39.1763 0.8974 0.8141
34.8346 -32.1813 0.8278 0.8272
51.2002 -20.6852 0.9639 0.8018
90.9049 8.9868 1.5945 0.6939
35.1254 12.4167 0.6503 0.8615
13.1037 8.6045 0.2736 0.9392
10.2024 8.6223 0.2332 0.9480
8.0092 8.6228 0.2054 0.9540
6.2579 8.6210 0.1859 0.9583
-0.8335 8.6691 0.1520 0.9658
-4.2914 8.7114 0.1695 0.9619
-5.6925 8.7200 0.1818 0.9592
-7.3170 8.7053 0.1985 0.9555
-11.9789 8.7447 0.2589 0.9424
-62.6268 -30.6416 1.2170 0.7566
-14.6213 -35.3662 0.6680 0.8580
-4.2183 -15.1590 0.2747 0.9390
-1.2216 -40.4964 0.7072 0.8504
32.5649 -39.1695 0.8891 0.8156
34.8303 -32.8789 0.8360 0.8256
34.8741 -25.7471 0.7567 0.8408
60.3092 -25.1234 1.1404 0.7700
41.7984 20.1729 0.8101 0.8305
10.4263 8.6209 0.2361 0.9473
8.1919 8.6314 0.2077 0.9535
3.6361 8.6627 0.1640 0.9631
2.4629 8.6699 0.1573 0.9646
0.3086 8.6799 0.1516 0.9658
-0.7394 8.6685 0.1519 0.9658
-2.9313 8.6615 0.1596 0.9641
-9.1609 8.7413 0.2210 0.9506
-20.8394 8.8131 0.3949 0.9135
-62.6386 -29.8165 1.2109 0.7576
-15.0677 -35.3635 0.6710 0.8575
-9.0469 -31.2071 0.5671 0.8781
34.8706 -26.3288 0.7627 0.8396
96.7232 7.4643 1.6933 0.6783
67.4770 13.5126 1.2012 0.7593
42.9065 20.1413 0.8274 0.8273
13.7330 8.6006 0.2828 0.9372
6.5496 8.6262 0.1891 0.9576
5.0334 8.6145 0.1742 0.9609
3.7459 8.6620 0.1647 0.9629
1.4618 8.6760 0.1536 0.9654
0.4019 8.6742 0.1516 0.9659
-1.7107 8.6634 0.1541 0.9653
-2.8276 8.6608 0.1590 0.9642
-4.0601 8.7100 0.1677 0.9623
-7.0214 8.7282 0.1955 0.9562
-11.4182 8.7181 0.2508 0.9441
-14.8904 8.7541 0.3015 0.9332
-20.2211 8.8093 0.3850 0.9155
-23.9361 -31.1752 0.6861 0.8545
-19.8138 -33.4957 0.6793 0.8558
-15.5181 -35.3607 0.6740 0.8569
-5.4347 -31.2292 0.5533 0.8809
26.8386 -43.6332 0.8942 0.8147
33.5408 -42.1566 0.9403 0.8061
34.8669 -26.9200 0.7689 0.8384
81.1469 -24.7120 1.4806 0.7122
51.3024 9.7007 0.9113 0.8115
14.0640 8.5986 0.2877 0.9362
3.4600 5.7781 0.1176 0.9734
3.8568 8.6613 0.1655 0.9628
2.6654 8.6686 0.1583 0.9644
1.5579 8.6755 0.1539 0.9654
3.7131 65.0078 1.1366 0.7707
-5.2977 8.7176 0.1781 0.9600
-8.7725 8.7389 0.2161 0.9517
-11.2129 8.7539 0.2483 0.9447
-14.5252 8.7511 0.2960 0.9344
-19.6332 8.8057 0.3756 0.9175
-56.5893 -17.6371 1.0346 0.7889
-24.4712 -31.1719 0.6917 0.8534
-5.7811 -31.2271 0.5543 0.8807
27.3177 -88.4871 1.6165 0.6904
30.6910 -51.1213 1.0408 0.7878
34.8169 -35.0593 0.8625 0.8206
27.5586 -16.8062 0.5634 0.8789
77.8998 -24.6420 1.4261 0.7212
27.8439 8.5139 0.5082 0.8900
45.2594 20.0690 0.8642 0.8203
8.7383 8.6313 0.2144 0.9521
6.8459 8.6246 0.1922 0.9569
3.5082 5.7180 0.1171 0.9735
2.7677 8.6680 0.1588 0.9643
1.1204 5.8755 0.1044 0.9764
0.5894 8.6784 0.1518 0.9658
-2.6224 8.6594 0.1579 0.9645
-5.1696 8.7168 0.1769 0.9603
-6.7157 8.7263 0.1922 0.9569
-8.5846 8.7378 0.2138 0.9522
-14.1732 8.7483 0.2907 0.9355
-56.6194 -16.9803 1.0318 0.7894
-56.4736 -43.2206 1.2413 0.7524
-25.0152 -31.1686 0.6976 0.8522
-19.3759 -31.2032 0.6411 0.8633
-16.4319 -35.3551 0.6805 0.8556
-2.9687 -40.4857 0.7086 0.8501
34.5865 -79.7293 1.5170 0.7063
52.1535 -24.4100 1.0051 0.7942
75.1814 -24.6754 1.3812 0.7287
92.9195 -18.4981 1.6537 0.6845
46.7764 20.1423 0.8890 0.8157
14.7616 8.5943 0.2982 0.9339
11.3832 8.6151 0.2492 0.9445
8.9272 8.6302 0.2167 0.9515
6.9978 8.6237 0.1939 0.9565
4.0816 8.6599 0.1671 0.9624
2.8706 8.6674 0.1594 0.9641
1.7511 8.6743 0.1545 0.9652
-0.3646 8.6661 0.1514 0.9659
-1.4234 8.6728 0.1534 0.9655
-5.0432 8.7160 0.1758 0.9605
-6.5668 8.7254 0.1906 0.9573
-8.4006 8.7367 0.2116 0.9527
-18.5073 8.7839 0.3576 0.9213
-79.8853 -12.8904 1.4124 0.7234
-56.6493 -16.3271 1.0291 0.7899
-19.8424 -31.2003 0.6454 0.8625
-10.6585 -31.6113 0.5823 0.8751
-3.1289 -37.1812 0.6513 0.8613
36.8074 -87.4131 1.6556 0.6842
34.8480 -28.7474 0.7885 0.8347
38.0085 -24.3162 0.7876 0.8348
50.7062 -24.4011 0.9822 0.7984
90.7450 -19.0825 1.6186 0.6901
47.9416 20.0352 0.9070 0.8123
15.8040 8.9749 0.3172 0.9299
5.5423 8.6120 0.1788 0.9599
29.9665 -41.3805 -0.8918 0.8151
51.8047 7.3839 -0.9134 0.8111
31.6363 8.4906 -0.5718 0.8772
45.0159 18.1276 -0.8471 0.8235
7.3208 8.5957 -0.1971 0.9558
5.6737 8.5689 -0.1794 0.9597
3.1007 8.6660 -0.1607 0.9638
0.8915 8.6796 -0.1523 0.9657
-0.1582 8.6580 -0.1512 0.9660
-1.2093 8.6511 -0.1525 0.9657
-2.2874 8.6153 -0.1556 0.9650
-4.7693 8.7143 -0.1734 0.9610
-17.3334 8.7377 -0.3388 0.9253
-54.0633 5.7002 -0.9489 0.8045
-86.7541 -11.8895 -1.5284 0.7045
-63.0393 -34.2807 -1.2525 0.7505
-60.5509 -43.1085 -1.2974 0.7428
-14.1854 -21.1757 -0.4449 0.9031
-10.1774 -20.0550 -0.3926 0.9140
-7.0765 -19.4476 -0.3612 0.9205
-4.6062 -19.8188 -0.3552 0.9218
-2.2561 -20.8595 -0.3662 0.9195
30.6566 -56.7380 -1.1257 0.7726
36.0809 -24.3112 -0.7594 0.8403
47.7288 -24.3828 -0.9355 0.8070
50.1349 -18.3959 -0.9322 0.8076
33.0197 8.4821 -0.5951 0.8725
46.1946 18.0271 -0.8655 0.8201
15.3082 10.7749 -0.3268 0.9278
7.4841 8.5982 -0.1990 0.9554
5.8117 8.5754 -0.1808 0.9594
2.0648 8.6723 -0.1556 0.9650
-3.3375 8.6208 -0.1614 0.9637
-4.6477 8.7136 -0.1724 0.9613
-9.9940 8.7465 -0.2318 0.9483
-16.8746 8.7354 -0.3317 0.9268
-86.6819 -0.4175 -1.5130 0.7070
-62.4098 -33.0733 -1.2329 0.7538
-4.7831 -19.6201 -0.3525 0.9224
-3.9967 -33.5705 -0.5901 0.8735
32.0557 -84.1418 -1.5717 0.6975
41.7675 -79.3309 -1.5649 0.6986
34.5899 -38.9744 -0.9096 0.8118
46.4725 -24.3750 -0.9160 0.8106
52.2645 -19.8179 -0.9757 0.7996
34.5210 8.4729 -0.6204 0.8674
12.5138 8.6081 -0.2651 0.9410
7.6554 8.6062 -0.2011 0.9550
3.3122 8.6647 -0.1619 0.9636
2.1635 8.6717 -0.1560 0.9649
1.0806 8.6784 -0.1527 0.9656
0.0282 8.6668 -0.1513 0.9659
-1.0199 8.6499 -0.1520 0.9658
-5.9651 8.7217 -0.1844 0.9586
-9.7781 8.7451 -0.2290 0.9489
-16.4379 8.7348 -0.3249 0.9282
-22.9031 8.8258 -0.4284 0.9065
-86.5419 21.8392 -1.5579 0.6997
-55.4870 -13.3026 -0.9960 0.7959
-72.6589 -27.0116 -1.3531 0.7334
-60.3805 -41.0584 -1.2745 0.7467
-15.1575 -21.6063 -0.4607 0.8998
-10.7462 -20.0925 -0.3977 0.9129
-7.7122 -19.8541 -0.3718 0.9183
-5.0014 -19.5967 -0.3530 0.9223
-2.6964 -20.7446 -0.3651 0.9197
25.4520 -29.3074 -0.6775 0.8562
34.8388 -31.4972 -0.8198 0.8287
50.1865 -12.9523 -0.9047 0.8127
54.3752 19.8822 -1.0106 0.7932
12.8041 8.6063 -0.2693 0.9401
9.9841 8.6237 -0.2303 0.9486
7.8304 8.6145 -0.2032 0.9545
6.0944 8.5886 -0.1838 0.9587
3.4192 8.6640 -0.1626 0.9634
0.1215 8.6712 -0.1514 0.9659
-1.9953 8.6293 -0.1546 0.9652
-3.1255 8.6197 -0.1600 0.9640
-4.4088 8.7121 -0.1704 0.9617
-5.8278 8.7208 -0.1831 0.9589
-7.5002 8.7308 -0.2009 0.9550
-9.5675 8.7438 -0.2262 0.9495
-22.1774 8.8213 -0.4166 0.9089
-20.9931 2.9012 -0.3699 0.9187
-86.6702 1.4480 -1.5130 0.7070
-75.2926 -7.8526 -1.3214 0.7387
-34.9093 -7.9731 -0.6250 0.8665
-72.7378 -26.1537 -1.3492 0.7340
-49.3909 -24.8278 -0.9649 0.8016
-59.4598 -64.7107 -1.5339 0.7036
-14.1435 -35.2812 -0.6634 0.8589
-5.1653 -19.3669 -0.3499 0.9229
-2.9214 -20.7280 -0.3654 0.9197
40.0650 -80.2399 -1.5655 0.6985
34.8777 -25.1744 -0.7508 0.8419
51.5432 -20.8238 -0.9703 0.8006
98.0241 9.6906 -1.7193 0.6743
60.8370 13.5509 -1.0880 0.7793
35.1254 12.4167 -0.6503 0.8615
39.6926 19.6859 -0.7734 0.8376
13.1037 8.6045 -0.2736 0.9392
10.2024 8.6223 -0.2332 0.9480
8.0092 8.6228 -0.2054 0.9540
0.2150 8.6755 -0.1515 0.9659
-1.8987 8.6339 -0.1543 0.9653
-3.0208 8.6191 -0.1594 0.9641
-4.2914 8.7114 -0.1695 0.9619
-11.9588 8.7300 -0.2584 0.9425
-15.6808 8.7704 -0.3136 0.9306
-72.7583 -6.7979 -1.2755 0.7465
-37.7809 -8.2023 -0.6748 0.8567
-72.7802 -25.2879 -1.3449 0.7347
-8.1546 -19.7245 -0.3726 0.9182
-4.2174 -15.1559 -0.2746 0.9390
-0.6604 -21.8934 -0.3823 0.9161
2.5540 -28.1533 -0.4934 0.8931
30.1274 -46.6978 -0.9700 0.8007
32.3856 -38.9538 -0.8842 0.8166
34.8303 -32.8789 -0.8360 0.8256
42.9982 -24.3537 -0.8626 0.8206
64.5475 13.6500 -1.1516 0.7680
41.7984 20.1729 -0.8101 0.8305
8.1919 8.6314 -0.2077 0.9535
6.3866 8.6021 -0.1870 0.9580
1.3661 8.6766 -0.1533 0.9655
0.3086 8.6799 -0.1516 0.9658
-2.9168 8.6185 -0.1588 0.9643
-5.5590 8.7192 -0.1805 0.9595
-9.1609 8.7413 -0.2210 0.9506
-11.7083 8.7418 -0.2550 0.9432
-15.1242 8.6740 -0.3043 0.9326
-20.8394 8.8131 -0.3949 0.9135
-49.9334 14.3302 -0.9068 0.8123
-52.8232 8.4622 -0.9338 0.8073
-46.7539 -9.6247 -0.8332 0.8262
-72.6893 -24.3829 -1.3383 0.7359
-63.0212 -29.9986 -1.2183 0.7564
-17.1806 -22.8821 -0.4995 0.8918
-11.5767 -20.0604 -0.4043 0.9115
-5.6220 -19.3932 -0.3524 0.9224
-3.3232 -20.3933 -0.3607 0.9207
-0.8862 -21.6482 -0.3782 0.9170
2.1743 -27.2205 -0.4766 0.8965
31.0184 -93.3024 -1.7162 0.6748
31.6776 -38.9472 -0.8763 0.8180
34.8706 -26.3288 -0.7627 0.8396
41.9279 -24.3471 -0.8463 0.8237
56.9336 -24.4393 -1.0815 0.7805
84.6019 -24.7727 -1.5387 0.7028
89.5086 -14.8336 -1.5837 0.6956
98.0110 7.5636 -1.7159 0.6748
67.3707 13.4913 -1.1993 0.7597
59.3828 19.5647 -1.0913 0.7787
42.9065 20.1413 -0.8273 0.8273
10.6560 8.6195 -0.2392 0.9466
34.6365 35.7173 -0.8684 0.8195
6.5306 8.6011 -0.1885 0.9577
3.7459 8.6620 -0.1647 0.9629
2.5638 8.6693 -0.1578 0.9645
-0.6440 8.6477 -0.1514 0.9659
-1.7067 8.6430 -0.1538 0.9654
-4.0601 8.7100 -0.1677 0.9623
-7.0214 8.7282 -0.1955 0.9562
-14.7515 8.6724 -0.2987 0.9338
-20.2211 8.8093 -0.3850 0.9155
-52.8195 9.0455 -0.9354 0.8070
-86.6526 4.2481 -1.5143 0.7067
-65.0840 -4.6704 -1.1390 0.7702
-46.5207 -9.0561 -0.8273 0.8273
-57.6276 -18.6432 -1.0572 0.7848
-59.4268 -36.7738 -1.2198 0.7561
-17.7907 -23.1712 -0.5099 0.8897
1.7816 -25.7986 -0.4514 0.9017
40.2155 -87.4988 -1.6809 0.6803
26.8474 -43.6475 -0.8945 0.8146
30.9600 -38.9129 -0.8680 0.8196
34.8215 -34.3174 -0.8534 0.8223
34.8669 -26.9200 -0.7689 0.8384
55.2610 -24.4291 -1.0546 0.7853
83.2358 -25.3481 -1.5188 0.7060
52.0994 9.8513 -0.9254 0.8089
60.6139 19.2499 -1.1101 0.7754
14.0640 8.5986 -0.2877 0.9362
8.5534 8.6325 -0.2121 0.9525
3.4600 5.7780 -0.1176 0.9734
2.6654 8.6686 -0.1583 0.9644
1.5579 8.6755 -0.1539 0.9654
3.2914 57.6247 -1.0075 0.7938
-0.5504 8.6471 -0.1512 0.9659
-1.6111 8.6475 -0.1535 0.9654
-2.7112 8.6174 -0.1577 0.9645
-3.9463 8.7093 -0.1669 0.9625
-5.2977 8.7176 -0.1781 0.9600
-6.8672 8.7272 -0.1938 0.9565
-8.7725 8.7389 -0.2161 0.9517
-11.2129 8.7539 -0.2483 0.9447
-14.3921 8.6710 -0.2933 0.9350
-19.6332 8.8057 -0.3756 0.9175
-54.0378 9.8537 -0.9588 0.8027
-61.0639 3.6526 -1.0678 0.7829
-86.7126 -5.2854 -1.5164 0.7064
-56.9898 -17.7618 -1.0419 0.7876
-72.5386 -43.8153 -1.4792 0.7125
-12.4242 -20.4969 -0.4184 0.9086
-8.9772 -19.8725 -0.3806 0.9165
-6.0322 -19.2492 -0.3521 0.9225
-2.5311 -40.4884 -0.7081 0.8502
1.4008 -24.0463 -0.4204 0.9081
27.2214 -88.1752 -1.6108 0.6913
30.3253 -50.5121 -1.0284 0.7900
34.8169 -35.0593 -0.8625 0.8206
53.5805 -24.3786 -1.0275 0.7902
78.1854 -24.7324 -1.4314 0.7203
71.6310 3.9796 -1.2522 0.7505
14.4066 8.5965 -0.2928 0.9351
8.7383 8.6313 -0.2144 0.9521
3.5082 5.7180 -0.1171 0.9735
-2.6095 8.6169 -0.1572 0.9646
-3.8335 8.7086 -0.1661 0.9626
-8.5845 8.7378 -0.2138 0.9522
-10.9657 8.7524 -0.2449 0.9454
-86.5739 16.7514 -1.5392 0.7027
-54.0748 3.8188 -0.9462 0.8050
-86.7067 -4.3493 -1.5154 0.7066
-72.6780 -12.5311 -1.2873 0.7445
-72.5938 -31.7234 -1.3828 0.7284
-56.3661 -43.1384 -1.2389 0.7528
-19.4760 -24.2669 -0.5431 0.8830
-9.3075 -20.0261 -0.3855 0.9154
-6.3137 -19.4131 -0.3563 0.9216
1.0781 -22.7144 -0.3969 0.9130
30.1807 -51.5194 -1.0422 0.7875
26.3345 -34.6019 -0.7590 0.8403
38.9453 -24.3288 -0.8015 0.8322
52.1535 -24.4100 -1.0051 0.7942
14.7616 8.5943 -0.2982 0.9339
11.3832 8.6151 -0.2492 0.9445
3.5927 5.7168 -0.1179 0.9733
2.8706 8.6674 -0.1594 0.9641
1.7511 8.6743 -0.1545 0.9652
0.6835 8.6808 -0.1520 0.9658
-0.3639 8.6484 -0.1511 0.9660
-2.5084 8.6163 -0.1566 0.9647
-3.7219 8.7079 -0.1653 0.9628
-6.5668 8.7254 -0.1906 0.9573
-8.4006 8.7367 -0.2116 0.9527
-13.7530 8.6947 -0.2840 0.9370
-54.0304 11.0588 -0.9627 0.8020
-54.0712 4.4039 -0.9469 0.8049
-72.5196 -11.7018 -1.2822 0.7454
-56.4210 -16.2612 -1.0249 0.7906
-72.6104 -30.8045 -1.3768 0.7294
-20.6564 -25.1776 -0.5685 0.8778
-13.0800 -20.5670 -0.4254 0.9071
-6.5586 -19.4518 -0.3583 0.9212
-1.7885 -21.2529 -0.3723 0.9182
0.8388 -22.8641 -0.3994 0.9125
36.7968 -87.3878 -1.6551 0.6843
30.6753 -53.6796 -1.0792 0.7809
37.0139 -38.9114 -0.9374 0.8067
38.0192 -24.3231 -0.7878 0.8348
