ply
format ascii 1.0
element vertex 1571
property float32 x
property float32 y
property float32 z
property float32 I
end_header
-7.5898 -33.6929 4.2406 0.8701
21.9707 -40.0210 5.6057 0.8319
28.6417 -39.8945 6.0301 0.8204
39.0030 -42.4361 7.0770 0.7927
49.6951 -42.4493 8.0248 0.7684
57.8889 -29.0943 7.9551 0.7702
64.8489 -6.7624 8.0056 0.7689
58.6627 15.4743 7.4493 0.7831
12.0687 8.6108 1.8204 0.9420
9.4420 8.6270 1.5704 0.9498
5.7821 8.6495 1.2775 0.9589
4.3834 8.6581 1.1916 0.9616
0.9309 8.6793 1.0718 0.9654
-7.9329 8.7338 1.4487 0.9536
-10.1192 8.7472 1.6423 0.9475
-13.0288 8.7651 1.9281 0.9387
-23.3384 2.5727 2.8830 0.9097
-68.1001 -36.6072 9.4932 0.7323
-27.4037 -31.5138 5.1278 0.8451
-12.3851 -33.5191 4.3876 0.8659
28.1056 -40.1364 6.0163 0.8208
37.8648 -42.1834 6.9600 0.7958
57.8861 -29.9513 8.0026 0.7690
64.7946 -15.6008 8.1831 0.7645
62.5353 -7.2659 7.7300 0.7759
64.9409 8.1955 8.0370 0.7681
58.3577 14.6615 7.3881 0.7847
37.1732 19.7014 5.1657 0.8440
9.6664 8.6256 1.5907 0.9491
33.7444 49.2151 7.3269 0.7862
4.5118 8.6573 1.1987 0.9614
1.0343 8.6787 1.0731 0.9654
-0.0173 8.6851 1.0664 0.9656
-2.1581 8.6983 1.1004 0.9645
-3.3146 8.7054 1.1437 0.9632
-4.5851 8.7132 1.2089 0.9611
-7.7463 8.7326 1.4333 0.9540
-60.4763 53.5335 9.9169 0.7222
-23.2599 2.8414 2.8772 0.9099
-61.2372 -15.0024 7.7413 0.7756
-65.3217 -34.1289 9.0492 0.7430
-28.0891 -31.5447 5.1862 0.8435
-23.0773 -33.2364 4.9682 0.8495
-12.4664 -32.5554 4.2803 0.8689
-5.0244 -40.1494 4.9682 0.8495
19.7979 -52.9313 6.9389 0.7963
21.6835 -41.8005 5.7819 0.8271
27.0139 -39.5598 5.8818 0.8244
47.0584 -42.1525 7.7572 0.7752
60.4863 -42.2620 9.0600 0.7428
57.8808 -30.8172 8.0514 0.7678
63.6923 -24.6047 8.3837 0.7594
62.3163 -7.9849 7.7140 0.7763
62.4092 7.1311 7.7127 0.7764
58.2531 13.9087 7.3536 0.7856
52.9550 19.6295 6.9344 0.7964
12.6845 8.6071 1.8822 0.9401
33.6218 29.2982 5.4757 0.8355
7.7826 8.6372 1.4275 0.9542
3.3764 8.6643 1.1418 0.9632
2.2233 8.6714 1.0991 0.9646
1.1379 8.6780 1.0746 0.9653
0.0849 8.6845 1.0664 0.9656
-0.9672 8.6910 1.0737 0.9654
-3.1976 8.7047 1.1386 0.9633
-4.4546 8.7124 1.2015 0.9613
-7.5636 8.7315 1.4184 0.9545
-9.6472 8.7443 1.5987 0.9489
-12.3833 8.7611 1.8625 0.9407
-67.4333 -34.2284 9.2853 0.7373
-28.7262 -31.5057 5.2350 0.8421
-23.4667 -32.9626 4.9682 0.8495
-12.5289 -31.5998 4.1738 0.8720
-8.8482 -33.6851 4.2763 0.8690
-5.4966 -40.0875 4.9682 0.8495
46.1526 -42.3302 7.6894 0.7769
57.8754 -31.6941 8.1020 0.7665
61.4944 -24.5912 8.1319 0.7657
64.7846 -17.2209 8.2308 0.7633
64.9314 6.6462 8.0142 0.7687
12.9854 8.5899 1.9117 0.9392
6.2328 8.6467 1.3088 0.9580
4.7732 8.6557 1.2137 0.9609
3.4941 8.6636 1.1470 0.9631
2.3321 8.6707 1.1025 0.9645
1.2419 8.6774 1.0763 0.9653
0.1871 8.6839 1.0665 0.9656
-11.5532 51.7458 6.5100 0.8076
-3.0816 8.7040 1.1337 0.9635
-4.3256 8.7116 1.1943 0.9616
-5.7291 8.7163 1.2807 0.9588
-7.3846 8.7304 1.4040 0.9550
-9.4205 8.7429 1.5781 0.9495
-39.8910 -8.7833 5.0153 0.8482
-67.4962 -33.2672 9.2394 0.7384
-81.9163 -53.4979 12.0130 0.6742
-23.8530 -32.6842 4.9682 0.8495
-18.8085 -33.6374 4.7320 0.8561
-9.2724 -33.6825 4.2895 0.8687
-2.3383 -15.6806 1.9466 0.9381
27.4541 -79.0197 10.2713 0.7138
21.9006 -44.7658 6.1191 0.8180
25.9978 -40.0651 5.8643 0.8249
35.8026 -14.8081 4.7572 0.8554
62.3939 -17.3741 7.9525 0.7703
62.3607 -9.4870 7.7450 0.7755
64.8784 -1.9709 7.9697 0.7698
62.5675 5.6612 7.7137 0.7763
63.2576 13.5385 7.9430 0.7705
33.0727 21.3225 4.8316 0.8534
10.3767 8.6213 1.6565 0.9471
8.1568 8.6349 1.4585 0.9533
6.3880 8.6458 1.3199 0.9576
3.6129 8.6628 1.1525 0.9629
2.4417 8.6700 1.1060 0.9644
1.3461 8.6767 1.0781 0.9652
0.2893 8.6832 1.0668 0.9656
-1.2435 5.8950 0.7397 0.9760
-4.1982 8.7108 1.1873 0.9618
-11.7800 8.7574 1.8023 0.9426
-80.6763 46.0497 11.4059 0.6877
-83.1177 -52.8977 12.0971 0.6723
-62.1907 -65.0645 11.0513 0.6958
-19.2465 -33.4897 4.7427 0.8558
-13.3955 -31.5945 4.2136 0.8708
-3.3023 -84.2147 10.3482 0.7120
20.4365 -43.0493 5.8512 0.8253
56.0832 -42.2078 8.6184 0.7536
57.8145 -33.4529 8.2014 0.7640
57.9155 -24.7563 7.7336 0.7758
28.6979 5.7897 3.5947 0.8887
8.3501 8.6337 1.4748 0.9527
6.5459 8.6448 1.3314 0.9572
5.0415 8.6540 1.2297 0.9604
3.7328 8.6621 1.1581 0.9627
55.2075 -41.8028 6.0585 0.7573
58.0140 -24.9999 5.5268 0.7760
62.2527 -18.3249 5.6775 0.7706
62.3013 -10.4171 5.5263 0.7760
62.3944 4.7220 5.4744 0.7778
62.4417 12.4068 5.5697 0.7744
58.1848 19.0718 5.3570 0.7820
42.8650 20.0413 4.1398 0.8270
33.1689 20.7007 3.4207 0.8547
10.6903 8.6193 1.2014 0.9464
8.3990 8.6334 1.0538 0.9528
5.0754 8.6538 0.8777 0.9605
3.7629 8.6619 0.8262 0.9628
1.4769 8.6759 0.7700 0.9653
-0.6319 8.6889 0.7622 0.9656
-1.7012 8.6955 0.7752 0.9650
-2.8241 8.7024 0.8004 0.9639
-4.0411 8.7099 0.8400 0.9622
-6.9949 8.7280 0.9786 0.9561
-8.9312 8.7399 1.0933 0.9511
-11.4225 8.7552 1.2591 0.9439
-25.9144 -33.6039 3.7126 0.8433
-19.5573 -32.9012 3.3486 0.8575
-6.6806 -15.1340 1.4468 0.9357
-9.6217 -31.6525 2.8944 0.8756
-5.5844 -31.6772 2.8141 0.8788
-4.5364 -84.0906 7.3677 0.7131
25.6121 -80.5326 7.3934 0.7123
20.2365 -44.2973 4.2608 0.8224
24.4634 -39.9791 4.1006 0.8285
54.5006 -42.2857 6.0351 0.7581
58.3083 -25.9445 5.5835 0.7739
62.2967 -11.1714 5.5372 0.7756
62.3899 3.9839 5.4695 0.7780
62.4370 11.6439 5.5567 0.7749
58.1802 18.3150 5.3364 0.7828
33.0651 20.0992 3.3853 0.8561
10.9495 8.6177 1.2191 0.9456
3.8844 8.6612 0.8305 0.9626
0.5196 8.6818 0.7609 0.9657
-0.5291 8.6883 0.7615 0.9657
-2.7112 8.7017 0.7974 0.9641
-6.8270 8.7270 0.9694 0.9565
-11.1461 8.7535 1.2399 0.9447
-14.4681 8.7739 1.4804 0.9343
-19.4787 8.8047 1.8702 0.9177
-19.5520 -32.0281 3.2830 0.8601
-11.6220 -25.5111 2.4526 0.8935
-10.0292 -31.6500 2.9047 0.8752
26.2883 -86.1559 7.8807 0.6965
22.1636 -50.0661 4.7902 0.8026
23.8674 -40.0562 4.0794 0.8293
53.1860 -42.2775 5.9442 0.7612
62.2920 -11.9288 5.5489 0.7752
62.3853 3.2470 5.4654 0.7782
57.4881 10.0225 5.1054 0.7911
58.1755 17.5639 5.3166 0.7835
43.6311 19.1616 4.1691 0.8259
33.3267 19.7250 3.3881 0.8560
11.2165 8.6161 1.2374 0.9448
4.0071 8.6604 0.8349 0.9624
-1.4894 8.6942 0.7717 0.9652
-2.5990 8.7010 0.7945 0.9642
-6.6622 8.7260 0.9605 0.9569
-8.5180 8.7374 1.0676 0.9522
-14.0877 8.7716 1.4519 0.9355
-18.8756 8.8010 1.8221 0.9198
-27.1927 -33.5961 3.7814 0.8407
-11.8800 -25.2845 2.4441 0.8939
-3.6966 -47.6479 4.1812 0.8254
25.2903 -86.5194 7.8862 0.6963
21.5395 -50.2455 4.7828 0.8029
58.2941 -36.7743 6.0301 0.7582
58.3479 -27.6248 5.6480 0.7717
57.1273 -19.0315 5.2680 0.7852
58.4746 -11.9128 5.2209 0.7869
62.3345 -5.0206 5.4712 0.7779
62.3808 2.5113 5.4620 0.7783
56.9775 9.2440 5.0501 0.7931
11.4918 8.6144 1.2565 0.9440
9.0097 8.6296 1.0915 0.9511
5.4932 8.6513 0.8966 0.9597
1.1843 5.7270 0.5116 0.9768
0.7249 8.6806 0.7621 0.9656
-0.3241 8.6870 0.7605 0.9657
-3.6723 8.7076 0.8268 0.9628
-8.3186 8.7362 1.0554 0.9527
-10.6178 8.7503 1.2037 0.9463
-13.6688 8.7357 1.4192 0.9369
-81.8340 27.7984 7.5614 0.7068
-82.4640 -12.8816 7.3022 0.7152
-10.8312 -31.5798 2.9209 0.8745
58.2481 -28.4213 5.6703 0.7709
56.7096 -19.6366 5.2505 0.7859
62.2826 -13.4537 5.5747 0.7743
62.3299 -5.7592 5.4764 0.7778
56.5906 8.4991 5.0066 0.7947
46.5353 19.1437 4.4024 0.8171
35.3469 19.8126 3.5451 0.8498
9.2231 8.6283 1.1050 0.9506
7.2497 8.6405 0.9868 0.9557
3.0295 8.6664 0.8032 0.9638
0.8278 8.6799 0.7628 0.9656
-0.2218 8.6864 0.7602 0.9657
-1.2794 8.6929 0.7687 0.9653
-3.5519 8.7069 0.8227 0.9629
-6.3414 8.7240 0.9436 0.9576
-8.1236 8.7350 1.0436 0.9532
-10.3649 8.7487 1.1867 0.9470
-13.3688 8.7672 1.3987 0.9378
-59.3461 -16.0286 5.3782 0.7813
-59.0157 -42.6332 6.3695 0.7465
-20.8260 -31.5541 3.3077 0.8592
-4.1008 -40.4787 3.5596 0.8493
23.3208 -87.3662 7.9112 0.6955
20.4852 -51.0725 4.8143 0.8018
30.2024 -42.0684 4.5308 0.8123
49.4673 -42.2547 5.6918 0.7701
57.9886 -29.1444 5.6781 0.7706
57.3925 -20.6326 5.3358 0.7828
62.3718 1.0417 5.4576 0.7784
58.1619 15.3422 5.2626 0.7854
48.1131 19.1340 4.5300 0.8123
36.3319 19.8066 3.6203 0.8469
9.4420 8.6270 1.1190 0.9499
15.0304 64.9382 5.8315 0.7652
-0.1195 8.6858 0.7600 0.9657
-1.1750 8.6923 0.7674 0.9654
-3.4327 8.7061 0.8188 0.9631
-10.1192 8.7472 1.1702 0.9477
-17.2378 8.7910 1.6929 0.9252
-23.3110 2.5696 2.0518 0.9101
-17.2841 -33.6467 3.3094 0.8591
-3.5912 -31.7216 2.7930 0.8797
22.0301 -86.6077 7.8185 0.6985
21.9131 -41.0542 4.0714 0.8296
29.6600 -42.3562 4.5239 0.8125
62.2732 -14.9937 5.6039 0.7732
62.3208 -7.2410 5.4890 0.7773
62.3673 0.3077 5.4565 0.7785
57.4014 7.2440 5.0618 0.7927
58.1574 14.6112 5.2462 0.7860
37.3037 19.7705 3.6936 0.8441
12.3714 8.6090 1.3186 0.9413
9.6664 8.6256 1.1334 0.9493
7.6014 8.6383 1.0067 0.9548
32.7353 47.7434 5.0645 0.7926
4.5118 8.6573 0.8541 0.9616
3.2598 8.6650 0.8100 0.9635
1.0343 8.6787 0.7647 0.9655
-0.0173 8.6851 0.7599 0.9657
-2.1581 8.6983 0.7841 0.9647
-3.3146 8.7054 0.8150 0.9633
-7.7463 8.7326 1.0213 0.9542
-60.4763 53.5334 7.0661 0.7230
-12.7004 8.7631 1.3500 0.9399
-16.7422 8.7879 1.6543 0.9269
-23.2652 2.8420 2.0505 0.9102
-67.2714 -35.1476 6.6404 0.7373
-17.7860 -33.6437 3.3294 0.8583
-12.1149 -31.6372 2.9639 0.8728
-7.9198 -31.6629 2.8555 0.8772
37.1432 -42.3722 4.9298 0.7975
45.7195 -40.9531 5.3700 0.7816
58.3293 -31.0560 5.7814 0.7669
62.2684 -15.7701 5.6198 0.7727
51.5610 19.1128 4.8110 0.8019
39.2012 20.1889 3.8578 0.8377
12.6845 8.6071 1.3411 0.9403
32.6164 28.4221 3.7850 0.8405
6.0801 8.6477 0.9249 0.9584
4.6417 8.6565 0.8594 0.9613
3.3764 8.6643 0.8135 0.9634
1.1379 8.6780 0.7657 0.9655
-0.9672 8.6910 0.7651 0.9655
-7.5636 8.7315 1.0107 0.9547
-9.6472 8.7443 1.1391 0.9491
-12.3833 8.7611 1.3271 0.9409
-34.1057 -37.4057 4.4287 0.8161
-23.9319 -33.6160 3.6102 0.8473
-4.3444 -31.6848 2.7980 0.8795
21.3909 -42.4515 4.1589 0.8262
26.3727 -39.6140 4.1636 0.8261
36.0997 -42.1725 4.8568 0.8002
58.9822 -42.2527 6.3477 0.7473
62.2636 -16.5508 5.6365 0.7721
62.4046 6.3875 5.4882 0.7773
54.8271 19.5927 5.0938 0.7915
40.3467 20.1818 3.9469 0.8343
10.1336 8.6228 1.1641 0.9480
6.2328 8.6467 0.9325 0.9581
4.7732 8.6557 0.8648 0.9611
2.3321 8.6707 0.7855 0.9646
-0.8637 8.6903 0.7641 0.9655
-10.6386 47.6494 4.2714 0.8220
-5.7291 8.7163 0.9126 0.9590
-7.3846 8.7304 1.0004 0.9551
-12.0767 8.7592 1.3052 0.9419
-15.8153 8.7822 1.5827 0.9299
-24.5304 -33.6124 3.6405 0.8461
-18.8085 -33.6374 3.3717 0.8566
-8.7151 -31.6580 2.8728 0.8765
-2.4079 -16.1477 1.4284 0.9365
25.7504 -39.6840 4.1388 0.8270
35.2438 -42.1674 4.8081 0.8020
44.9663 -42.2272 5.3968 0.7806
62.2588 -17.3365 5.6542 0.7714
62.3537 -1.8942 5.4578 0.7784
62.4476 13.3652 5.5872 0.7738
13.3439 8.6030 1.3890 0.9382
10.3767 8.6213 1.1803 0.9473
3.6129 8.6628 0.8212 0.9630
1.3461 8.6767 0.7682 0.9654
-1.2433 5.8940 0.5270 0.9761
-9.1995 8.7416 1.1103 0.9503
-62.1083 -64.9784 7.8641 0.6970
-25.1389 -33.6086 3.6719 0.8449
-13.3955 -31.5946 3.0023 0.8713
-9.1165 -31.6556 2.8821 0.8761
26.6837 -79.8203 7.3633 0.7132
20.8964 -44.0182 4.2630 0.8223
25.1538 -39.7817 4.1178 0.8278
55.3108 -41.6265 6.0564 0.7573
58.0169 -33.5700 5.8643 0.7640
57.9155 -24.7563 5.5104 0.7765
62.3025 -10.2295 5.5237 0.7761
62.3492 -2.6288 5.4597 0.7784
28.6945 5.7890 2.5610 0.8891
58.1860 19.2614 5.3623 0.7818
42.8054 20.1667 4.1398 0.8270
13.6632 8.5830 1.4117 0.9373
8.3501 8.6337 1.0508 0.9529
57.8630 -33.7078 3.5095 0.7647
66.7988 -19.6631 3.6493 0.7566
67.3419 -11.2600 3.5782 0.7607
67.2874 -3.0346 3.5300 0.7635
28.7436 5.7112 1.5369 0.8892
26.0089 8.5252 1.4344 0.8962
10.6903 8.6193 0.7197 0.9465
8.3990 8.6334 0.6312 0.9529
6.5857 8.6446 0.5695 0.9574
5.0754 8.6538 0.5258 0.9606
3.7629 8.6619 0.4949 0.9629
0.4169 8.6767 0.4552 0.9658
-0.6314 8.6821 0.4562 0.9657
-2.8216 8.6946 0.4791 0.9640
-4.0411 8.7099 0.5032 0.9623
-5.4055 8.7183 0.5376 0.9597
-6.9949 8.7280 0.5862 0.9562
-8.9312 8.7399 0.6549 0.9512
-11.4225 8.7552 0.7542 0.9440
-20.1147 8.8087 1.1508 0.9158
-29.4774 8.8658 1.6132 0.8840
-14.4216 -24.2613 1.4792 0.8931
-10.1454 -33.3755 1.8282 0.8696
-5.8884 -33.4015 1.7775 0.8730
-4.5364 -84.0906 4.4134 0.7137
23.1410 -50.6551 2.9186 0.8001
41.3624 -40.9560 3.0506 0.7920
57.8574 -34.6227 3.5336 0.7633
58.3581 -25.9666 3.3475 0.7743
66.5629 -20.4477 3.6493 0.7566
67.2927 -3.8288 3.5324 0.7634
51.4684 9.5983 2.7438 0.8108
27.0609 8.5187 1.4868 0.8926
43.0618 19.5191 2.4778 0.8275
10.9495 8.6177 0.7303 0.9457
8.5978 8.6322 0.6385 0.9524
2.6872 8.6567 0.4750 0.9643
1.0602 5.8136 0.3097 0.9766
-0.5287 8.6819 0.4558 0.9658
-2.7081 8.6919 0.4771 0.9642
-5.2640 8.7174 0.5337 0.9600
-19.4787 8.8047 1.1203 0.9179
-24.9114 -31.5291 2.1059 0.8513
-10.5752 -33.3728 1.8347 0.8692
-6.2941 -33.3990 1.7812 0.8727
24.6436 -41.3590 2.5231 0.8246
31.5312 -40.7988 2.7023 0.8134
40.6561 -41.2153 3.0340 0.7930
32.4778 -25.8166 2.1743 0.8469
58.3530 -26.7913 3.3651 0.7732
67.2445 3.4999 3.5289 0.7636
28.1928 8.5118 1.5434 0.8887
43.6311 19.1616 2.4974 0.8262
33.3267 19.7250 2.0296 0.8563
11.2165 8.6161 0.7412 0.9449
4.0071 8.6604 0.5001 0.9625
-0.4263 8.6816 0.4555 0.9658
-2.5956 8.6894 0.4753 0.9643
-5.1245 8.7165 0.5299 0.9603
-6.6622 8.7260 0.5754 0.9570
-8.5180 8.7374 0.6395 0.9523
-14.0877 8.7716 0.8697 0.9357
-27.1006 8.8516 1.4941 0.8921
-19.1549 -30.5631 1.8903 0.8655
-4.8647 -24.2433 1.2959 0.9057
24.5813 -84.0939 4.5916 0.7040
23.8627 -41.1418 2.4926 0.8265
30.8562 -40.9115 2.6855 0.8144
32.4739 -26.4430 2.1947 0.8456
58.2443 -36.7429 3.6091 0.7589
58.2360 -19.4008 3.2169 0.7820
67.3583 -13.7226 3.6026 0.7593
67.3032 -5.4208 3.5386 0.7630
67.2497 2.7073 3.5273 0.7637
51.0542 8.2830 2.7106 0.8129
29.4145 8.5043 1.6047 0.8846
45.0438 19.1529 2.5652 0.8220
11.4918 8.6144 0.7527 0.9441
9.0097 8.6296 0.6538 0.9513
7.0790 8.6415 0.5854 0.9562
5.4932 8.6513 0.5371 0.9598
2.9130 8.6591 0.4788 0.9641
1.1843 5.7269 0.3065 0.9768
-0.3239 8.6812 0.4553 0.9658
-4.9869 8.7157 0.5263 0.9606
-6.5004 8.7250 0.5702 0.9574
-8.3186 8.7362 0.6322 0.9528
-13.6688 8.7357 0.8501 0.9371
-26.0384 8.8450 1.4412 0.8957
-82.3321 -12.8609 4.3672 0.7162
-60.4379 -17.0889 3.2916 0.7776
-14.9508 -23.2428 1.4483 0.8952
-10.2404 -29.8573 1.6542 0.8812
-7.1107 -33.3940 1.7893 0.8722
-3.6089 -40.3541 2.1233 0.8502
24.1089 -86.2337 4.6926 0.6986
21.2963 -51.3381 2.9128 0.8004
23.9096 -42.3634 2.5494 0.8230
30.5175 -41.4685 2.6983 0.8136
32.4700 -27.0814 2.2159 0.8442
58.2481 -28.4213 3.3967 0.7714
67.3639 -14.5513 3.6118 0.7588
67.3085 -6.2192 3.5425 0.7628
51.4331 7.7245 2.7257 0.8119
30.7374 8.4961 1.6713 0.8801
9.2231 8.6283 0.6619 0.9507
7.2497 8.6405 0.5911 0.9558
5.6366 8.6504 0.5411 0.9595
4.2566 8.6589 0.5057 0.9621
-0.2216 8.6808 0.4551 0.9658
-3.5519 8.7069 0.4928 0.9630
-6.3414 8.7240 0.5652 0.9577
-10.3649 8.7487 0.7108 0.9471
-13.3688 8.7672 0.8379 0.9380
-59.3000 -16.0161 3.2191 0.7819
-15.2601 -30.5870 1.7914 0.8720
-11.9398 -33.5218 1.8649 0.8672
-3.7286 -36.8050 1.9387 0.8623
23.2284 -87.0201 4.7202 0.6971
21.8061 -54.3658 3.0698 0.7909
30.1668 -42.0189 2.7109 0.8129
58.0332 -38.5481 3.6512 0.7565
51.5662 -18.5381 2.8718 0.8029
67.3695 -15.3844 3.6216 0.7582
67.3138 -7.0194 3.5469 0.7626
32.1751 8.4873 1.7439 0.8752
48.1131 19.1340 2.7136 0.8127
36.1505 19.7077 2.1578 0.8480
12.0687 8.6108 0.7770 0.9423
7.4238 8.6394 0.5970 0.9554
3.1427 8.6617 0.4829 0.9638
0.9301 8.6717 0.4571 0.9657
-0.1194 8.6802 0.4550 0.9658
-3.4327 8.7061 0.4905 0.9632
-6.1851 8.7230 0.5604 0.9581
-7.9329 8.7338 0.6183 0.9538
-10.1192 8.7472 0.7010 0.9478
-13.0288 8.7651 0.8229 0.9390
-17.2378 8.7910 1.0141 0.9254
-23.3162 2.5702 1.2293 0.9103
-21.3623 -31.5527 1.9969 0.8585
-10.7045 -28.9706 1.6186 0.8836
29.4678 -42.0817 2.6924 0.8140
37.8647 -42.1833 2.9707 0.7969
46.8585 -40.9897 3.2627 0.7793
57.8280 -39.4000 3.6672 0.7556
57.9858 -30.0029 3.4216 0.7699
67.3751 -16.2221 3.6319 0.7576
67.3191 -7.8217 3.5518 0.7623
67.2653 0.3319 3.5253 0.7638
67.2121 8.4821 3.5504 0.7623
58.3577 14.6615 3.1534 0.7858
49.7854 19.1237 2.7950 0.8077
9.6664 8.6256 0.6790 0.9494
7.6014 8.6383 0.6030 0.9550
3.2591 8.6632 0.4851 0.9636
1.0333 8.6705 0.4576 0.9656
-2.1536 8.6801 0.4687 0.9648
-3.3146 8.7054 0.4882 0.9634
-56.0820 49.6436 3.9252 0.7408
-16.7422 8.7879 0.9909 0.9271
-23.2704 2.8427 1.2286 0.9104
-65.4174 -34.1790 3.8681 0.7441
-28.0891 -31.5447 2.2136 0.8444
-12.4665 -32.5555 1.8270 0.8697
-4.5936 -36.7071 1.9387 0.8623
20.8581 -86.2358 4.6497 0.7009
20.3277 -54.3478 3.0410 0.7926
22.1163 -42.6349 2.5171 0.8250
28.7329 -42.0773 2.6703 0.8154
36.9727 -42.1778 2.9395 0.7988
58.3293 -31.0560 3.4632 0.7674
50.9065 -19.6654 2.8601 0.8037
67.3807 -17.0649 3.6428 0.7570
67.3244 -8.6266 3.5572 0.7620
67.2173 7.6805 3.5456 0.7626
51.5610 19.1128 2.8819 0.8023
39.2012 20.1889 2.3109 0.8381
12.6845 8.6071 0.8034 0.9404
13.1662 11.4731 0.9152 0.9324
7.7826 8.6372 0.6093 0.9545
6.0801 8.6477 0.5540 0.9585
2.2185 8.6527 0.4681 0.9649
-3.1972 8.7037 0.4859 0.9635
-4.4546 8.7124 0.5128 0.9616
-7.5636 8.7315 0.6054 0.9548
-12.3833 8.7611 0.7950 0.9410
-59.8163 -13.9104 3.2185 0.7819
-28.7263 -31.5057 2.2345 0.8430
-22.4581 -31.5460 2.0294 0.8563
-16.6288 -30.5786 1.8242 0.8699
-12.5289 -31.5998 1.7815 0.8727
20.1129 -87.6551 4.7132 0.6975
21.1489 -41.9711 2.4631 0.8284
45.3839 -41.6251 3.2274 0.7814
58.3239 -31.9397 3.4849 0.7662
51.5424 -20.6114 2.9092 0.8006
67.3298 -9.4336 3.5631 0.7616
67.2757 -1.2514 3.5264 0.7637
67.2225 6.8807 3.5414 0.7629
61.8262 13.9948 3.3221 0.7758
13.0083 8.6051 0.8174 0.9394
7.9678 8.6361 0.6158 0.9540
3.4941 8.6636 0.4896 0.9633
2.3275 8.6535 0.4696 0.9647
1.2405 8.6679 0.4589 0.9655
0.1870 8.6784 0.4549 0.9658
-0.8629 8.6825 0.4573 0.9657
-10.6386 47.6494 2.5587 0.8224
-3.0804 8.7008 0.4837 0.9637
-5.7291 8.7163 0.5466 0.9591
-9.4205 8.7429 0.6736 0.9498
-12.0767 8.7592 0.7819 0.9420
-21.5995 8.7853 1.2220 0.9108
-23.0184 -31.5407 2.0464 0.8552
-17.0965 -30.5757 1.8359 0.8691
44.9663 -42.2272 3.2328 0.7811
58.3184 -32.8344 3.5075 0.7649
67.0807 -18.6792 3.6493 0.7566
67.2277 6.0829 3.5376 0.7631
10.3767 8.6213 0.7070 0.9474
8.1568 8.6349 0.6225 0.9535
6.3880 8.6458 0.5634 0.9579
4.9065 8.6549 0.5214 0.9609
3.6129 8.6628 0.4919 0.9631
1.3445 8.6666 0.4596 0.9655
-1.2431 5.8929 0.3156 0.9762
-4.1982 8.7108 0.5068 0.9620
-5.5853 8.7194 0.5427 0.9594
-9.1995 8.7416 0.6651 0.9504
-11.7800 8.7574 0.7693 0.9429
-15.3813 8.7796 0.9282 0.9315
-40.0829 -8.3324 2.1456 0.8488
-17.5702 -30.5728 1.8480 0.8683
26.9819 -80.7124 4.4601 0.7111
24.1989 -50.9747 2.9572 0.7977
34.4050 -42.1620 2.8519 0.8041
58.0170 -33.5700 3.5129 0.7645
66.8563 -19.4671 3.6493 0.7566
67.2861 -2.8369 3.5294 0.7636
67.2329 5.2865 3.5344 0.7633
10.6269 8.6197 0.7171 0.9467
6.5459 8.6448 0.5683 0.9575
5.0415 8.6540 0.5249 0.9607
3.7328 8.6621 0.4943 0.9629
41.7930 -24.3463 0.8442 0.8241
48.9965 -21.1140 0.9313 0.8078
84.0107 -24.7297 1.5286 0.7044
88.5602 -14.8078 1.5674 0.6982
28.7253 5.7076 0.5112 0.8894
25.9800 8.5157 0.4772 0.8964
42.8641 20.0409 0.8259 0.8275
33.0684 20.6380 0.6804 0.8556
8.3990 8.6334 0.2102 0.9530
5.0640 8.6343 0.1747 0.9607
3.7486 8.6289 0.1642 0.9631
2.5672 8.6274 0.1571 0.9646
1.4769 8.6759 0.1536 0.9654
-1.7012 8.6955 0.1547 0.9652
-2.8174 8.6817 0.1593 0.9641
-4.0284 8.6827 0.1671 0.9624
-5.3812 8.6791 0.1782 0.9600
-8.9312 8.7399 0.2181 0.9512
-11.4225 8.7552 0.2512 0.9440
-29.4774 8.8658 0.5373 0.8841
-24.0410 -31.1745 0.6872 0.8543
-14.4216 -24.2614 0.4926 0.8932
-6.6781 -15.1283 0.2886 0.9360
-9.4855 -31.2044 0.5693 0.8777
-5.9161 -33.5587 0.5948 0.8726
-3.5902 -66.5516 1.1633 0.7660
29.6134 -93.1140 1.7055 0.6764
39.9701 -87.4938 1.6790 0.6806
28.3249 -46.2898 0.9473 0.8048
31.0096 -39.1626 0.8719 0.8189
32.4234 -32.1048 0.7965 0.8331
32.4815 -25.2016 0.7176 0.8483
40.6731 -24.3394 0.8274 0.8273
80.4298 -24.7076 1.4686 0.7142
48.3918 9.0246 0.8592 0.8212
27.0609 8.5187 0.4952 0.8927
44.4678 20.1565 0.8522 0.8226
10.9495 8.6177 0.2432 0.9458
1.0602 5.8134 0.1031 0.9766
-5.2402 8.6780 0.1769 0.9603
-6.8270 8.7270 0.1934 0.9566
-14.4489 8.7623 0.2950 0.9346
-59.4784 -18.3397 1.0864 0.7796
-19.2856 -31.5917 0.6461 0.8624
-11.5519 -25.3573 0.4864 0.8945
-9.8872 -31.2019 0.5713 0.8773
30.2613 -39.1556 0.8638 0.8204
32.4778 -25.8166 0.7242 0.8471
77.1187 -24.6873 1.4134 0.7233
48.3367 8.4270 0.8564 0.8218
45.8767 20.1478 0.8746 0.8184
33.3267 19.7250 0.6760 0.8565
11.2165 8.6161 0.2469 0.9450
8.8013 8.6309 0.2152 0.9519
6.9116 8.6426 0.1932 0.9567
5.3400 8.6328 0.1772 0.9602
3.9978 8.6403 0.1662 0.9626
-1.4894 8.6942 0.1540 0.9653
-2.5928 8.6803 0.1581 0.9644
-3.7851 8.6881 0.1654 0.9628
-5.1012 8.6770 0.1757 0.9605
-6.6622 8.7260 0.1916 0.9570
-14.0683 8.7596 0.2893 0.9358
-27.1006 8.8516 0.4976 0.8922
-3.6763 -47.3853 0.8296 0.8268
37.5009 -87.4790 1.6613 0.6833
28.3474 -48.8738 0.9862 0.7977
32.4272 -33.6563 0.8158 0.8295
51.5499 -24.4062 0.9956 0.7960
90.7331 -18.4846 1.6163 0.6904
48.6843 7.8985 0.8609 0.8209
29.4145 8.5043 0.5345 0.8847
47.3621 20.1386 0.8983 0.8139
34.2301 19.7195 0.6895 0.8538
5.4810 8.6320 0.1785 0.9599
4.1216 8.6396 0.1671 0.9624
1.1843 5.7269 0.1021 0.9769
-4.9642 8.6760 0.1745 0.9608
-6.5004 8.7250 0.1899 0.9574
-8.3186 8.7362 0.2106 0.9529
-13.6688 8.7357 0.2832 0.9372
-26.0167 8.8377 0.4796 0.8959
-59.0085 -16.6848 1.0704 0.7824
-20.2991 -31.5573 0.6549 0.8606
-17.1203 -35.3508 0.6856 0.8546
-6.6481 -31.2217 0.5572 0.8801
-3.2227 -36.0352 0.6315 0.8652
31.0125 -42.1411 0.9133 0.8111
37.5648 -24.3200 0.7811 0.8361
49.9999 -24.3967 0.9711 0.8005
71.0433 -24.5999 1.3123 0.7402
88.3364 -19.0816 1.5775 0.6966
48.9813 7.3563 0.8646 0.8202
30.7374 8.4961 0.5566 0.8802
35.1704 19.7137 0.7038 0.8510
11.7756 8.6126 0.2547 0.9433
5.6287 8.6383 0.1800 0.9596
4.2467 8.6389 0.1680 0.9622
0.8278 8.6799 0.1522 0.9657
-8.1236 8.7350 0.2082 0.9534
-25.0099 8.8253 0.4629 0.8993
-59.0422 -15.9465 1.0675 0.7830
-75.6262 -30.5923 1.4240 0.7215
-26.4584 -31.1597 0.7135 0.8491
-20.8260 -31.5541 0.6599 0.8596
-11.1109 -31.1944 0.5780 0.8759
-7.0326 -31.2194 0.5586 0.8798
28.2925 -51.5366 1.0262 0.7904
32.4196 -35.2733 0.8362 0.8256
32.4660 -27.7323 0.7453 0.8430
36.6048 -24.3144 0.7670 0.8388
48.5241 -24.3876 0.9479 0.8047
12.0687 8.6108 0.2588 0.9424
9.4420 8.6270 0.2232 0.9501
7.4238 8.6394 0.1988 0.9555
5.7793 8.6454 0.1815 0.9593
3.1291 8.6243 0.1601 0.9640
0.9309 8.6793 0.1524 0.9657
-0.1195 8.6858 0.1516 0.9658
-3.4246 8.6857 0.1630 0.9633
-4.6957 8.6741 0.1722 0.9613
-7.9329 8.7338 0.2059 0.9539
-17.2028 8.7731 0.3371 0.9257
-24.1243 8.8333 0.4484 0.9023
-23.3214 2.5708 0.4095 0.9104
-27.0924 -31.1558 0.7207 0.8477
-22.6659 -33.4781 0.7057 0.8507
-18.1562 -35.3445 0.6936 0.8530
-11.5253 -31.1919 0.5804 0.8754
-7.4192 -31.2170 0.5601 0.8795
33.8908 -87.4599 1.6372 0.6871
29.8967 -42.6942 0.9098 0.8118
32.4145 -36.1115 0.8470 0.8235
32.4619 -28.3962 0.7528 0.8415
35.6782 -24.3087 0.7536 0.8414
47.1166 -24.3790 0.9260 0.8088
48.9211 -18.2400 0.9113 0.8115
52.3477 20.1080 0.9788 0.7990
12.3714 8.6090 0.2631 0.9415
9.6664 8.6256 0.2261 0.9495
3.2442 8.6237 0.1608 0.9638
1.0343 8.6787 0.1526 0.9656
-1.0709 8.6916 0.1529 0.9656
-3.3068 8.6850 0.1622 0.9635
-6.0315 8.7221 0.1851 0.9585
-57.6527 51.0340 1.3440 0.7349
-16.7062 8.7690 0.3293 0.9273
-23.2582 8.8280 0.4342 0.9053
-57.4972 -14.0861 1.0333 0.7891
-73.1741 -50.2838 1.5498 0.7010
-18.6834 -35.3413 0.6978 0.8522
-12.4665 -32.5555 0.6085 0.8698
-7.8077 -31.2146 0.5616 0.8792
32.7099 -87.4527 1.6298 0.6883
28.2743 -54.5059 1.0718 0.7822
29.1770 -42.7275 0.9031 0.8130
32.4577 -29.0739 0.7606 0.8400
48.6188 -18.7817 0.9098 0.8118
52.9551 19.6295 0.9858 0.7978
39.2012 20.1889 0.7697 0.8383
13.3560 9.0627 0.2817 0.9375
12.4765 10.8721 0.2889 0.9359
7.7826 8.6372 0.2029 0.9546
6.0801 8.6477 0.1845 0.9586
2.2125 8.6294 0.1555 0.9650
1.1379 8.6780 0.1528 0.9656
0.0849 8.6845 0.1516 0.9659
-0.9672 8.6910 0.1526 0.9656
-2.0437 8.6724 0.1555 0.9650
-12.3833 8.7611 0.2648 0.9411
-16.2317 8.7651 0.3220 0.9289
-22.4455 8.8230 0.4210 0.9080
-57.4592 -13.3622 1.0297 0.7898
-64.0971 -32.5350 1.2547 0.7501
-73.7039 -49.3811 1.5486 0.7012
-22.2017 -31.1858 0.6682 0.8580
-19.1476 -35.2103 0.6996 0.8519
-12.5289 -31.5998 0.5933 0.8728
-5.5448 -40.4396 0.7125 0.8493
31.5392 -87.4455 1.6226 0.6894
28.2288 -56.0216 1.0950 0.7780
28.3477 -42.5806 0.8929 0.8149
33.9183 -24.2979 0.7283 0.8463
88.8347 9.0928 1.5587 0.6996
40.3467 20.1818 0.7874 0.8349
13.4663 8.9081 0.2818 0.9374
10.1336 8.6228 0.2323 0.9482
7.9678 8.6361 0.2051 0.9541
4.7624 8.6360 0.1721 0.9613
2.3209 8.6288 0.1560 0.9649
1.2419 8.6774 0.1530 0.9655
-0.8637 8.6903 0.1524 0.9657
-10.5801 47.3872 0.8475 0.8235
-7.3846 8.7304 0.1996 0.9553
-9.4205 8.7429 0.2243 0.9499
-12.0767 8.7592 0.2604 0.9421
-21.5996 8.7853 0.4070 0.9109
-39.9727 -8.8012 0.7144 0.8490
-22.7570 -31.1824 0.6738 0.8569
-8.5917 -31.2098 0.5650 0.8785
28.3410 -43.6764 0.9088 0.8120
32.7459 -39.1788 0.8913 0.8152
32.4492 -30.4725 0.7770 0.8369
33.0820 -24.2927 0.7164 0.8486
43.2583 -24.3553 0.8665 0.8199
88.8283 8.0374 1.5568 0.6999
24.8317 8.5455 0.4584 0.9003
13.5768 8.7532 0.2820 0.9374
10.3767 8.6213 0.2355 0.9475
8.1568 8.6349 0.2073 0.9536
6.3880 8.6458 0.1876 0.9579
3.5958 8.6219 0.1631 0.9633
-1.2428 5.8918 0.1051 0.9762
-5.5604 8.6804 0.1799 0.9596
-9.1995 8.7416 0.2215 0.9505
-20.9365 8.8041 0.3964 0.9131
-75.3570 -6.3717 1.3200 0.7389
-40.0647 -8.3286 0.7143 0.8490
-51.8947 -24.8228 1.0041 0.7944
-61.9295 -64.7913 1.5645 0.6987
-23.3215 -31.1789 0.6796 0.8558
-13.3955 -31.5945 0.5990 0.8717
32.4400 -31.1902 0.7855 0.8352
32.4862 -24.4488 0.7097 0.8499
42.0792 -24.3480 0.8486 0.8233
84.9496 -24.7355 1.5444 0.7019
94.6083 7.4389 1.6565 0.6841
42.8054 20.1667 0.8259 0.8275
5.0301 8.6345 0.1744 0.9608
3.7179 8.6275 0.1640 0.9631
32.4852 -24.5976 -0.7112 0.8496
58.0141 -24.9999 -1.1027 0.7767
33.0684 20.6380 -0.6804 0.8556
6.5857 8.6446 -0.1897 0.9575
1.4769 8.6759 -0.1536 0.9654
0.4172 8.6825 -0.1517 0.9658
-2.8106 8.6607 -0.1589 0.9642
-4.0183 8.6609 -0.1667 0.9625
-5.3514 8.6310 -0.1773 0.9602
-8.9312 8.7399 -0.2181 0.9512
-19.9564 8.7394 -0.3803 0.9165
-29.4774 8.8658 -0.5373 0.8841
-89.0467 4.5411 -1.5563 0.7000
-74.9777 -24.0886 -1.3746 0.7297
-16.0437 -20.8044 -0.4586 0.9002
-6.1620 -20.2711 -0.3698 0.9187
-3.7427 -21.2303 -0.3763 0.9174
-1.2863 -23.8432 -0.4168 0.9089
2.5861 -38.7092 -0.6772 0.8562
30.8389 -38.9470 -0.8671 0.8198
32.4815 -25.2016 -0.7176 0.8483
54.8880 -24.4226 -1.0486 0.7864
80.8164 -24.8264 -1.4757 0.7130
26.8614 8.4559 -0.4915 0.8935
40.5749 18.3919 -0.7776 0.8368
10.9495 8.6177 -0.2432 0.9458
6.7472 8.6436 -0.1914 0.9571
5.1915 8.6178 -0.1756 0.9606
3.8625 8.6123 -0.1648 0.9629
2.6648 8.5845 -0.1569 0.9647
1.0602 5.8133 -0.1031 0.9766
0.5196 8.6818 -0.1518 0.9658
-1.5950 8.6948 -0.1543 0.9653
-2.7000 8.6659 -0.1584 0.9643
-8.7221 8.7386 -0.2155 0.9518
-11.1461 8.7535 -0.2474 0.9449
-88.9715 16.4959 -1.5795 0.6963
-89.1077 -5.1637 -1.5580 0.6997
-49.4882 -8.9281 -0.8778 0.8178
-66.0161 -29.4570 -1.2618 0.7489
-16.6569 -21.0818 -0.4690 0.8981
-12.1157 -19.8467 -0.4059 0.9112
-6.3589 -20.0673 -0.3674 0.9192
28.4640 -93.2867 -1.7024 0.6769
23.9732 -54.1538 -1.0337 0.7890
28.3173 -47.5245 -0.9656 0.8015
30.0947 -38.9401 -0.8590 0.8213
32.4344 -32.8805 -0.8062 0.8313
32.4778 -25.8166 -0.7242 0.8471
77.2086 -24.7161 -1.4151 0.7230
69.2857 3.6062 -1.2110 0.7576
50.0438 8.7246 -0.8867 0.8161
28.1082 8.4862 -0.5125 0.8892
41.6547 18.2936 -0.7941 0.8336
33.3268 19.7250 -0.6760 0.8565
8.8013 8.6309 -0.2152 0.9519
6.9116 8.6426 -0.1932 0.9567
2.7757 8.5837 -0.1575 0.9646
1.1150 5.7309 -0.1019 0.9769
0.6222 8.6812 -0.1519 0.9658
-5.0734 8.6297 -0.1747 0.9607
-14.0663 8.7583 -0.2892 0.9359
-27.1006 8.8516 -0.4976 0.8922
-75.0694 -12.6330 -1.3288 0.7375
-59.4443 -17.5660 -1.0820 0.7804
-75.0021 -32.4139 -1.4262 0.7212
-61.2978 -35.7948 -1.2390 0.7528
-63.8256 -48.4338 -1.3985 0.7258
-17.2494 -21.3113 -0.4786 0.8961
27.5437 -47.4881 -0.9582 0.8028
38.5619 -24.3264 -0.7958 0.8333
51.5499 -24.4062 -0.9956 0.7960
50.0401 8.1185 -0.8849 0.8164
29.4145 8.5043 -0.5345 0.8847
42.8579 18.2235 -0.8129 0.8300
2.8874 8.5830 -0.1581 0.9644
1.1843 5.7268 -0.1021 0.9769
-0.3241 8.6870 -0.1517 0.9658
-1.3842 8.6935 -0.1537 0.9654
-6.5004 8.7250 -0.1899 0.9574
-8.3186 8.7362 -0.2106 0.9529
-10.6178 8.7503 -0.2402 0.9464
-18.2589 8.7765 -0.3536 0.9222
-58.7790 -16.6199 -1.0662 0.7832
-74.9681 -42.6028 -1.5051 0.7082
-18.3509 -22.1343 -0.5019 0.8913
-13.0184 -20.2387 -0.4200 0.9082
-2.0015 -22.3800 -0.3922 0.9140
36.2867 -87.4746 -1.6530 0.6846
28.6261 -38.8983 -0.8430 0.8243
32.4700 -27.0814 -0.7380 0.8444
37.5653 -24.3203 -0.7811 0.8361
49.9999 -24.3967 -0.9711 0.8005
71.0350 -24.5970 -1.3121 0.7403
58.8276 -12.7074 -1.0505 0.7860
30.7374 8.4961 -0.5566 0.8802
44.1186 18.1495 -0.8327 0.8263
35.1704 19.7137 -0.7038 0.8510
9.2231 8.6283 -0.2205 0.9507
5.6287 8.6383 -0.1800 0.9596
4.2358 8.6166 -0.1676 0.9623
1.8919 8.6354 -0.1543 0.9653
0.8278 8.6799 -0.1522 0.9657
-0.2218 8.6864 -0.1517 0.9658
-1.2794 8.6929 -0.1534 0.9655
-2.3721 8.6813 -0.1571 0.9646
-3.5347 8.6646 -0.1633 0.9633
-8.1236 8.7350 -0.2082 0.9534
-13.3688 8.7672 -0.2791 0.9380
-17.5344 8.6838 -0.3415 0.9247
-25.0488 8.8390 -0.4636 0.8992
-23.6861 2.3292 -0.4154 0.9092
-89.0879 -2.0123 -1.5554 0.7001
-74.9530 -10.8064 -1.3218 0.7386
-59.1522 -15.9762 -1.0695 0.7826
-64.0510 -35.4081 -1.2775 0.7462
-19.0022 -22.3787 -0.5124 0.8892
-13.2194 -20.0291 -0.4189 0.9085
-11.3849 -31.9636 -0.5922 0.8731
-4.6861 -20.8026 -0.3722 0.9182
24.1103 -43.9184 -0.8745 0.8184
32.4196 -35.2733 -0.8362 0.8256
48.5241 -24.3876 -0.9479 0.8047
68.5241 -24.6345 -1.2710 0.7473
32.1751 8.4873 -0.5808 0.8754
50.2616 19.9885 -0.9441 0.8054
12.0687 8.6108 -0.2588 0.9424
5.7793 8.6454 -0.1815 0.9593
-1.1750 8.6923 -0.1531 0.9655
-3.4161 8.6639 -0.1626 0.9634
-4.6716 8.6296 -0.1713 0.9615
-6.1851 8.7230 -0.1867 0.9581
-7.9329 8.7338 -0.2059 0.9539
-10.1192 8.7472 -0.2335 0.9479
-13.0288 8.7651 -0.2741 0.9391
-24.1243 8.8333 -0.4484 0.9023
-88.9440 20.8625 -1.5946 0.6939
-23.3266 2.5714 -0.4096 0.9104
-89.0361 -0.9629 -1.5542 0.7003
-58.1710 -14.9790 -1.0485 0.7864
-74.9638 -29.3027 -1.4049 0.7247
-63.1293 -44.4836 -1.3480 0.7342
-20.1339 -23.1537 -0.5356 0.8845
-10.0896 -19.6414 -0.3854 0.9155
-4.9041 -20.6346 -0.3702 0.9186
-2.4812 -21.9165 -0.3850 0.9155
0.2221 -28.2035 -0.4923 0.8933
33.8559 -87.3698 -1.6355 0.6874
28.2836 -52.9892 -1.0484 0.7864
23.3377 -33.3276 -0.7102 0.8498
32.4145 -36.1115 -0.8470 0.8235
32.4619 -28.3962 -0.7528 0.8415
35.6782 -24.3087 -0.7536 0.8414
47.1166 -24.3790 -0.9260 0.8088
49.2506 -18.3629 -0.9175 0.8104
51.8773 19.9273 -0.9700 0.8007
12.3714 8.6090 -0.2631 0.9415
4.4897 8.6149 -0.1696 0.9619
3.2288 8.5826 -0.1601 0.9640
2.1074 8.6409 -0.1552 0.9650
-0.0173 8.6851 -0.1516 0.9659
-1.0709 8.6916 -0.1529 0.9656
-3.2986 8.6633 -0.1618 0.9636
-6.0315 8.7221 -0.1851 0.9585
-29.4885 26.1031 -0.6874 0.8542
-23.2582 8.8280 -0.4342 0.9053
-53.3950 13.1890 -0.9600 0.8025
-89.0747 0.0846 -1.5548 0.7002
-75.2813 -9.0510 -1.3235 0.7383
-62.9549 -43.2615 -1.3333 0.7367
-20.7534 -23.3067 -0.5447 0.8826
-18.6834 -35.3413 -0.6978 0.8522
32.6762 -87.3625 -1.6281 0.6886
28.2743 -54.5059 -1.0718 0.7822
32.4577 -29.0739 -0.7606 0.8400
34.7833 -24.3032 -0.7407 0.8439
58.2531 13.9087 -1.0454 0.7869
39.2012 20.1889 -0.7697 0.8383
12.9440 11.2795 -0.2997 0.9336
6.0801 8.6477 -0.1845 0.9586
3.3467 8.5882 -0.1609 0.9638
2.2018 8.5876 -0.1547 0.9652
-0.9672 8.6910 -0.1526 0.9656
-15.4903 22.9736 -0.4836 0.8951
-7.5636 8.7315 -0.2016 0.9548
-16.1260 8.7081 -0.3199 0.9293
-22.4455 8.8230 -0.4210 0.9080
-56.4328 7.5688 -0.9939 0.7963
-62.6992 -42.0080 -1.3173 0.7394
-59.4170 -51.1643 -1.3686 0.7307
-10.6983 -19.6731 -0.3909 0.9143
-5.3886 -20.5147 -0.3702 0.9186
-2.9909 -21.8129 -0.3843 0.9157
-0.4232 -27.0195 -0.4717 0.8975
29.0752 -80.6137 -1.4958 0.7098
27.2789 -54.1364 -1.0581 0.7846
33.3587 -38.9705 -0.8954 0.8145
32.4535 -29.7657 -0.7687 0.8385
44.4881 -24.3628 -0.8854 0.8163
61.8262 13.9948 -1.1065 0.7760
54.8272 19.5927 -1.0163 0.7922
40.3467 20.1818 -0.7874 0.8349
7.9678 8.6361 -0.2051 0.9541
6.2328 8.6467 -0.1861 0.9583
4.7498 8.6132 -0.1717 0.9614
2.3096 8.5869 -0.1552 0.9651
0.1871 8.6839 -0.1516 0.9658
-0.8637 8.6903 -0.1524 0.9657
-9.6089 43.0374 -0.7697 0.8383
-4.2939 8.6477 -0.1685 0.9621
-5.6740 8.6326 -0.1803 0.9595
-9.4205 8.7429 -0.2243 0.9499
-15.7173 8.7279 -0.3138 0.9306
-55.2177 8.0682 -0.9741 0.7999
-74.9145 -7.2232 -1.3137 0.7400
-39.9998 -8.8072 -0.7149 0.8489
-64.1467 -31.6163 -1.2483 0.7512
-62.7970 -41.0114 -1.3092 0.7408
-0.7153 -26.0720 -0.4553 0.9009
43.2836 -88.4735 -1.7192 0.6743
23.7435 -36.5912 -0.7614 0.8399
32.4492 -30.4725 -0.7770 0.8369
33.0820 -24.2927 -0.7164 0.8486
63.2575 13.5385 -1.1292 0.7720
24.8317 8.5455 -0.4584 0.9003
38.6426 18.7642 -0.7498 0.8421
10.3767 8.6213 -0.2355 0.9475
6.3880 8.6458 -0.1876 0.9579
4.8823 8.6123 -0.1728 0.9612
3.5864 8.5994 -0.1626 0.9634
1.3461 8.6767 -0.1533 0.9655
-1.2426 5.8907 -0.1051 0.9762
-2.9522 8.6613 -0.1597 0.9641
-4.1706 8.6536 -0.1677 0.9623
-7.2092 8.7293 -0.1976 0.9557
-11.7800 8.7574 -0.2562 0.9430
-15.2896 8.7273 -0.3073 0.9320
-28.6266 8.1530 -0.5195 0.8877
-55.2134 8.7324 -0.9757 0.7996
-89.0549 3.2300 -1.5555 0.7001
-75.0124 -6.3425 -1.3140 0.7400
-40.0466 -8.3248 -0.7140 0.8491
-51.8043 -24.7796 -1.0024 0.7947
-61.8387 -64.6963 -1.5622 0.6990
-9.6580 -33.5357 -0.6092 0.8697
-3.4456 -21.3785 -0.3780 0.9170
23.1643 -36.6353 -0.7566 0.8408
31.7887 -38.9559 -0.8776 0.8178
32.4862 -24.4488 -0.7097 0.8499
57.9156 -24.7563 -1.0994 0.7773
85.6512 -24.9397 -1.5571 0.6999
28.6787 5.7858 -0.5107 0.8895
25.3847 8.4031 -0.4667 0.8985
8.3501 8.6337 -0.2097 0.9531
6.5459 8.6448 -0.1893 0.9575
3.7083 8.6051 -0.1636 0.9632
32.3809 -24.5186 -2.1286 0.8499
38.7310 -22.5626 -2.3491 0.8357
35.6861 -15.3781 -2.0363 0.8559
47.0743 -7.8711 -2.5013 0.8260
47.6794 -2.1503 -2.5013 0.8260
28.1346 9.2220 -1.5517 0.8882
27.5851 12.8973 -1.5959 0.8852
10.6903 8.6193 -0.7197 0.9465
8.3990 8.6334 -0.6312 0.9529
3.7292 8.5843 -0.4905 0.9632
1.4769 8.6759 -0.4612 0.9654
0.4172 8.6825 -0.4556 0.9658
-0.6319 8.6889 -0.4566 0.9657
-4.0082 8.6391 -0.4991 0.9626
-6.9949 8.7280 -0.5862 0.9562
-8.9312 8.7399 -0.6549 0.9512
-11.4225 8.7552 -0.7542 0.9440
-14.7767 8.7250 -0.8993 0.9336
-24.2743 7.3009 -1.3285 0.9035
-44.7547 7.7542 -2.3804 0.8337
-45.1284 2.3014 -2.3681 0.8344
-44.9195 -3.1338 -2.3599 0.8350
-39.7333 -7.6521 -2.1206 0.8504
-42.6753 -13.7106 -2.3491 0.8357
-43.3538 -19.9598 -2.5013 0.8260
-37.3308 -29.7382 -2.5013 0.8260
-6.0481 -19.8963 -1.0898 0.9201
-3.7001 -20.9889 -1.1169 0.9182
-1.2355 -22.9026 -1.2020 0.9122
14.4651 -45.4830 -2.5013 0.8260
23.1239 -29.2037 -1.9522 0.8614
31.8512 -31.5383 -2.3491 0.8357
32.3772 -25.1207 -2.1476 0.8486
38.4629 -23.0169 -2.3491 0.8357
40.9527 -18.2220 -2.3491 0.8357
46.9785 -8.4245 -2.5013 0.8260
47.6308 3.0415 -2.5013 0.8260
44.0640 8.2175 -2.3491 0.8357
26.3657 8.2999 -1.4486 0.8952
27.6541 12.5351 -1.5912 0.8855
5.1915 8.6178 -0.5273 0.9605
3.8524 8.5899 -0.4934 0.9630
2.6518 8.5426 -0.4688 0.9648
0.5196 8.6818 -0.4558 0.9658
-0.5291 8.6883 -0.4562 0.9657
-3.8878 8.6445 -0.4967 0.9627
-5.1829 8.5831 -0.5255 0.9606
-6.8270 8.7270 -0.5807 0.9566
-8.7221 8.7386 -0.6471 0.9517
-11.1461 8.7535 -0.7427 0.9448
-14.4153 8.7419 -0.8835 0.9347
-19.2655 8.7084 -1.1080 0.9188
-42.8337 -13.2075 -2.3491 0.8357
-43.5856 -19.4483 -2.5013 0.8260
-37.6781 -29.2969 -2.5013 0.8260
-16.3802 -20.7316 -1.3847 0.8996
-8.7010 -19.0994 -1.0999 0.9194
-1.4609 -22.2164 -1.1668 0.9147
2.4615 -44.7560 -2.3491 0.8357
8.3355 -46.9943 -2.5013 0.8260
19.3200 -43.6427 -2.5013 0.8260
27.4100 -35.4663 -2.3491 0.8357
30.0951 -30.5090 -2.2459 0.8423
39.3384 -12.5930 -2.1647 0.8475
47.6156 -3.2717 -2.5013 0.8260
47.6633 2.4808 -2.5013 0.8260
27.6454 8.3465 -1.5134 0.8908
28.5137 12.5224 -1.6321 0.8827
27.6455 16.3624 -1.6836 0.8793
8.8013 8.6309 -0.6460 0.9518
6.9116 8.6426 -0.5800 0.9566
5.3349 8.6245 -0.5315 0.9602
3.9771 8.5956 -0.4964 0.9628
2.7621 8.5417 -0.4705 0.9647
0.6222 8.6812 -0.4561 0.9657
-1.4894 8.6942 -0.4623 0.9653
-2.5901 8.6711 -0.4743 0.9644
-5.0490 8.5882 -0.5221 0.9609
-6.6622 8.7260 -0.5754 0.9570
-10.8780 8.7519 -0.7317 0.9456
-24.2704 7.9272 -1.3381 0.9028
-44.6089 8.8149 -2.3831 0.8335
-45.0178 -2.0776 -2.3618 0.8348
-43.8115 -18.9341 -2.5013 0.8260
-41.2153 -24.0676 -2.5013 0.8260
-34.2729 -33.2162 -2.5013 0.8260
-4.1955 -20.9083 -1.1176 0.9181
-1.7064 -21.9937 -1.1561 0.9154
13.3909 -45.8108 -2.5013 0.8260
18.8051 -43.8670 -2.5013 0.8260
26.9907 -35.7864 -2.3491 0.8357
31.1002 -32.2791 -2.3491 0.8357
40.5125 -19.1806 -2.3491 0.8357
39.3313 -13.1029 -2.1726 0.8470
47.5738 -3.8318 -2.5013 0.8260
44.2452 7.1783 -2.3491 0.8357
27.5663 11.7214 -1.5699 0.8869
27.7100 15.9634 -1.6760 0.8798
11.4918 8.6144 -0.7527 0.9441
9.0097 8.6296 -0.6538 0.9513
5.4805 8.6313 -0.5358 0.9599
0.7249 8.6806 -0.4565 0.9657
-0.3241 8.6870 -0.4556 0.9658
-2.4808 8.6762 -0.4729 0.9645
-6.5004 8.7250 -0.5702 0.9574
-8.3186 8.7362 -0.6322 0.9528
-44.5205 9.3431 -2.3840 0.8334
-45.0585 3.8962 -2.3702 0.8343
-45.0655 -1.5486 -2.3632 0.8348
-43.7832 -6.8393 -2.3224 0.8374
-38.3571 -28.4021 -2.5013 0.8260
-6.6631 -19.4274 -1.0764 0.9210
-1.9665 -21.9889 -1.1570 0.9154
1.4076 -44.8016 -2.3491 0.8357
7.2274 -47.1774 -2.5013 0.8260
12.8508 -45.9652 -2.5013 0.8260
32.3657 -26.9944 -2.2087 0.8447
37.4018 -24.2144 -2.3351 0.8366
40.2840 -19.6560 -2.3491 0.8357
47.7085 1.3584 -2.5013 0.8260
44.3266 6.6572 -2.3491 0.8357
30.7374 8.4961 -1.6713 0.8801
11.7756 8.6126 -0.7646 0.9432
7.2497 8.6405 -0.5911 0.9558
2.9888 8.5502 -0.4747 0.9644
1.8919 8.6354 -0.4633 0.9652
0.8278 8.6799 -0.4570 0.9657
-2.3721 8.6813 -0.4716 0.9646
-3.5258 8.6428 -0.4892 0.9633
-4.7878 8.6010 -0.5159 0.9613
-6.3414 8.7240 -0.5652 0.9577
-8.1236 8.7350 -0.6252 0.9533
-10.3649 8.7487 -0.7108 0.9471
-13.3688 8.7672 -0.8379 0.9380
-17.3674 8.6011 -1.0157 0.9253
-25.0488 8.8390 -1.3921 0.8991
-44.4256 9.8703 -2.3850 0.8334
-23.6254 2.3232 -1.2441 0.9093
-45.0843 -1.0184 -2.3634 0.8347
-43.1523 -6.2215 -2.2849 0.8398
-43.2732 -11.6875 -2.3491 0.8357
-18.7877 -22.1260 -1.5212 0.8902
-9.5925 -19.2270 -1.1261 0.9175
17.7677 -44.2974 -2.5013 0.8260
22.2723 -40.5703 -2.4255 0.8308
23.8976 -33.2866 -2.1475 0.8486
30.3321 -33.0020 -2.3491 0.8357
36.4454 -24.2086 -2.2930 0.8392
42.1808 -15.1640 -2.3491 0.8357
46.5300 -10.6255 -2.5013 0.8260
47.7212 0.7970 -2.5013 0.8260
44.4018 6.1352 -2.3491 0.8357
32.1751 8.4873 -1.7439 0.8752
27.6342 15.0650 -1.6495 0.8816
12.0687 8.6108 -0.7770 0.9423
7.4238 8.6394 -0.5970 0.9554
5.7793 8.6454 -0.5450 0.9592
3.1041 8.5555 -0.4770 0.9642
8.3506 36.0784 -1.9408 0.8621
-0.1195 8.6858 -0.4552 0.9658
-1.1750 8.6923 -0.4597 0.9655
-2.2640 8.6864 -0.4704 0.9647
-3.4075 8.6423 -0.4869 0.9635
-4.6595 8.6073 -0.5129 0.9616
-6.1851 8.7230 -0.5604 0.9581
-13.0288 8.7651 -0.8229 0.9390
-16.9136 8.6256 -0.9950 0.9268
-24.1243 8.8333 -1.3464 0.9022
-44.3241 10.3965 -2.3860 0.8333
-23.3317 2.5720 -1.2302 0.9103
-45.1085 -0.4879 -2.3642 0.8347
-42.6699 -5.6401 -2.2557 0.8416
-42.0390 -22.5981 -2.5013 0.8260
-35.4239 -31.9859 -2.5013 0.8260
-19.6717 -22.6221 -1.5711 0.8868
-4.8542 -20.4245 -1.1002 0.9193
0.2203 -27.9762 -1.4662 0.8940
6.1152 -47.3345 -2.5013 0.8260
17.2451 -44.5034 -2.5013 0.8260
25.7109 -36.7166 -2.3491 0.8357
29.5277 -25.8295 -2.0560 0.8546
35.5229 -24.2029 -2.2527 0.8418
39.8103 -20.5986 -2.3491 0.8357
47.4089 -5.5084 -2.5013 0.8260
22.3043 8.5676 -1.2522 0.9087
27.6145 14.6354 -1.6379 0.8823
12.3714 8.6090 -0.7899 0.9414
9.6664 8.6256 -0.6790 0.9494
7.6014 8.6383 -0.6030 0.9550
3.2206 8.5609 -0.4794 0.9640
2.1074 8.6409 -0.4661 0.9650
1.0343 8.6787 -0.4580 0.9656
-1.0709 8.6916 -0.4590 0.9655
-3.2903 8.6417 -0.4846 0.9636
-4.5326 8.6135 -0.5101 0.9618
-6.0315 8.7221 -0.5558 0.9584
-29.4828 26.0981 -2.0635 0.8541
-21.7132 8.2416 -1.2172 0.9112
-29.2546 7.2261 -1.5792 0.8863
-23.3324 2.8502 -1.2319 0.9101
-42.0582 -5.0566 -2.2200 0.8439
-40.1939 -9.8470 -2.1688 0.8473
-44.4740 -16.7839 -2.4912 0.8266
-39.3356 -27.0307 -2.5013 0.8260
-35.7977 -31.5669 -2.5013 0.8260
-13.7036 -19.7363 -1.2592 0.9082
-10.1787 -19.2539 -1.1414 0.9165
-2.7025 -21.5957 -1.1406 0.9165
3.0266 -25.8150 -1.3622 0.9011
16.7203 -44.7032 -2.5013 0.8260
21.9535 -42.3211 -2.4986 0.8262
29.5470 -33.7064 -2.3491 0.8357
32.3535 -28.9805 -2.2763 0.8403
41.8123 -16.1523 -2.3491 0.8357
47.3408 -6.0660 -2.5013 0.8260
47.7267 -0.3262 -2.5013 0.8260
44.5339 5.0886 -2.3491 0.8357
43.5982 10.4097 -2.3491 0.8357
27.5435 10.2099 -1.5395 0.8890
27.6073 14.2179 -1.6274 0.8830
13.3560 9.0627 -0.8459 0.9374
12.9440 11.2795 -0.8998 0.9335
4.6068 8.5914 -0.5109 0.9617
3.3382 8.5663 -0.4818 0.9638
2.1912 8.5463 -0.4624 0.9653
1.1379 8.6780 -0.4587 0.9656
0.0849 8.6845 -0.4552 0.9658
-0.9672 8.6910 -0.4583 0.9656
-3.1751 8.6436 -0.4826 0.9638
-4.4072 8.6197 -0.5074 0.9620
-15.1930 22.5327 -1.4242 0.8969
-12.3833 8.7611 -0.7950 0.9410
-16.0536 8.6690 -0.9562 0.9295
-21.5250 8.4611 -1.2121 0.9115
-27.8092 7.2172 -1.5057 0.8913
-45.1374 0.5742 -2.3657 0.8346
-43.8910 -15.9765 -2.4479 0.8294
-39.6510 -26.5659 -2.5013 0.8260
-36.1668 -31.1434 -2.5013 0.8260
-21.9628 -24.0879 -1.7084 0.8776
-10.5995 -19.4915 -1.1628 0.9150
-7.5554 -19.0560 -1.0743 0.9212
-5.3550 -20.3866 -1.1047 0.9190
-2.9167 -21.2721 -1.1253 0.9176
16.1931 -44.8969 -2.5013 0.8260
21.4771 -42.6225 -2.5013 0.8260
24.8398 -37.3115 -2.3491 0.8357
29.1484 -34.0519 -2.3491 0.8357
33.7707 -24.1921 -2.1771 0.8467
41.6193 -16.6433 -2.3491 0.8357
47.2662 -6.6225 -2.5013 0.8260
47.7196 -0.8877 -2.5013 0.8260
44.6675 4.5720 -2.3532 0.8354
43.7177 9.8958 -2.3491 0.8357
27.5382 9.8409 -1.5326 0.8895
27.6003 13.8059 -1.6173 0.8837
10.1336 8.6228 -0.6973 0.9481
2.2984 8.5454 -0.4638 0.9652
0.1871 8.6839 -0.4552 0.9658
-0.8637 8.6903 -0.4577 0.9656
-6.5796 29.4695 -1.5825 0.8861
-3.0621 8.6489 -0.4808 0.9639
-4.2830 8.6257 -0.5047 0.9622
-5.6422 8.5842 -0.5384 0.9597
-9.4205 8.7429 -0.6736 0.9498
-12.0767 8.7592 -0.7819 0.9420
-15.6444 8.6874 -0.9378 0.9308
-26.4917 7.2092 -1.4389 0.8959
-44.8810 6.5578 -2.3771 0.8339
-44.7850 -4.3181 -2.3580 0.8351
-38.8467 -8.5533 -2.0846 0.8527
-43.2897 -15.1831 -2.4042 0.8321
-30.5881 -32.7648 -2.3491 0.8357
-10.8338 -19.3754 -1.1634 0.9149
-5.5586 -20.1920 -1.0976 0.9195
-2.4076 -16.1457 -0.8555 0.9367
-0.6865 -25.0241 -1.3119 0.9046
10.1258 -46.6413 -2.5013 0.8260
20.9742 -42.8722 -2.5013 0.8260
24.3990 -37.6012 -2.3491 0.8357
32.2007 -30.2392 -2.3150 0.8378
32.9380 -24.1870 -2.1416 0.8490
47.7058 -1.4492 -2.5013 0.8260
47.4687 4.2951 -2.4979 0.8262
43.8311 9.3809 -2.3491 0.8357
24.8317 8.5455 -1.3763 0.9002
13.5768 8.7532 -0.8466 0.9373
10.3767 8.6213 -0.7070 0.9474
8.1568 8.6349 -0.6225 0.9535
3.5772 8.5773 -0.4870 0.9635
-0.7605 8.6897 -0.4571 0.9657
-2.9498 8.6542 -0.4792 0.9640
-4.1601 8.6317 -0.5022 0.9623
-7.2092 8.7293 -0.5933 0.9557
-9.1995 8.7416 -0.6651 0.9504
-25.1155 7.1530 -1.3686 0.9007
-44.8288 7.0900 -2.3786 0.8338
-39.3289 1.4264 -2.0625 0.8542
-42.6784 -14.4071 -2.3607 0.8349
-43.0557 -20.5949 -2.5013 0.8260
-36.8896 -30.2837 -2.5013 0.8260
-30.9714 -32.4027 -2.3491 0.8357
-0.9461 -24.1284 -1.2655 0.9078
3.8813 -47.5698 -2.5013 0.8260
32.3114 -31.0666 -2.3491 0.8357
32.3818 -24.3703 -2.1240 0.8502
41.8005 -12.1714 -2.2816 0.8400
47.0972 -7.7329 -2.5013 0.8260
47.6855 -2.0105 -2.5013 0.8260
47.5810 3.7412 -2.5013 0.8260
28.6734 5.7847 -1.5330 0.8894
27.5868 12.9968 -1.5982 0.8850
10.6269 8.6197 -0.7171 0.9467
6.5459 8.6448 -0.5683 0.9575
5.0155 8.6095 -0.5222 0.9609
2.5150 8.5437 -0.4668 0.9650
24.7040 -14.3912 -2.5013 0.8915
26.2560 -11.3144 -2.5013 0.8915
27.4265 -8.0734 -2.5013 0.8915
28.1986 -4.7150 -2.5013 0.8915
28.5610 -1.2881 -2.5013 0.8915
8.3990 8.6334 -1.0538 0.9528
6.5857 8.6446 -0.9508 0.9573
3.7195 8.5620 -0.8167 0.9632
2.5318 8.5084 -0.7766 0.9650
1.4769 8.6759 -0.7700 0.9653
0.4172 8.6825 -0.7605 0.9657
-1.7012 8.6955 -0.7752 0.9650
-2.8106 8.6607 -0.7966 0.9641
-3.9982 8.6174 -0.8311 0.9626
-24.2743 7.3009 -2.2177 0.9032
-26.4562 4.5838 -2.3491 0.8978
-27.7706 -1.9374 -2.4355 0.8942
-18.8359 -19.1351 -2.3491 0.8978
-6.0509 -19.9057 -1.8202 0.9199
-3.6619 -20.7716 -1.8453 0.9188
5.3241 -28.0900 -2.5013 0.8915
14.9224 -24.3868 -2.5013 0.8915
17.7480 -22.4143 -2.5013 0.8915
20.3158 -20.1162 -2.5013 0.8915
22.5885 -17.5258 -2.5013 0.8915
24.5329 -14.6809 -2.5013 0.8915
27.3296 -8.3955 -2.5013 0.8915
28.1412 -5.0465 -2.5013 0.8915
28.5439 -1.6241 -2.5013 0.8915
25.6114 8.0624 -2.3491 0.8978
24.4694 11.0916 -2.3505 0.8977
10.9495 8.6177 -1.2191 0.9456
8.5978 8.6322 -1.0659 0.9523
2.6427 8.5134 -0.7799 0.9648
0.5196 8.6818 -0.7609 0.9657
-0.5291 8.6883 -0.7615 0.9657
-1.5950 8.6948 -0.7734 0.9651
-5.1683 8.5590 -0.8747 0.9606
-6.8270 8.7270 -0.9694 0.9565
-8.7221 8.7386 -1.0802 0.9516
-18.9948 8.5860 -1.8237 0.9197
-24.2724 7.6129 -2.2256 0.9029
-23.8232 1.4962 -2.0884 0.9086
-28.1359 -5.0760 -2.5013 0.8915
-27.3208 -8.4242 -2.5013 0.8915
-26.1088 -11.6500 -2.5013 0.8915
-24.5175 -14.7066 -2.5013 0.8915
-19.0598 -18.9122 -2.3491 0.8978
-16.5685 -20.9698 -2.3382 0.8982
1.4745 -26.8099 -2.3491 0.8978
4.9932 -28.1507 -2.5013 0.8915
14.6344 -24.5607 -2.5013 0.8915
28.0798 -5.3772 -2.5013 0.8915
28.5228 -1.9598 -2.5013 0.8915
25.7045 7.7605 -2.3491 0.8978
3.9667 8.5731 -0.8264 0.9628
0.6222 8.6812 -0.7615 0.9657
-5.0358 8.5657 -0.8693 0.9609
-8.5180 8.7374 -1.0676 0.9522
-10.8780 8.7519 -1.2215 0.9455
-14.0238 8.7318 -1.4453 0.9358
-17.5337 8.1754 -1.6926 0.9253
-23.1939 1.7309 -2.0348 0.9108
-28.1936 -4.7446 -2.5013 0.8915
-27.4180 -8.1022 -2.5013 0.8915
-26.2441 -11.3420 -2.5013 0.8915
-24.6889 -14.4171 -2.5013 0.8915
-22.7750 -17.2827 -2.5013 0.8915
-12.1994 -19.4651 -2.0098 0.9119
-1.6925 -21.8161 -1.9144 0.9159
1.1589 -26.8254 -2.3491 0.8978
4.6616 -28.2075 -2.5013 0.8915
8.0214 -27.4417 -2.5013 0.8915
14.3444 -24.7312 -2.5013 0.8915
17.2156 -22.8258 -2.5013 0.8915
22.1698 -18.0525 -2.5013 0.8915
24.1807 -15.2541 -2.5013 0.8915
28.0146 -5.7073 -2.5013 0.8915
28.4978 -2.2953 -2.5013 0.8915
28.0145 4.5450 -2.4830 0.8923
25.7940 7.4575 -2.3491 0.8978
11.4918 8.6144 -1.2565 0.9440
7.0790 8.6415 -0.9773 0.9561
4.0899 8.5732 -0.8310 0.9626
2.8675 8.5236 -0.7868 0.9645
1.1843 5.7267 -0.5116 0.9768
-1.3842 8.6935 -0.7702 0.9653
-6.5004 8.7250 -0.9519 0.9573
-8.3186 8.7362 -1.0554 0.9527
-17.2140 8.2743 -1.6710 0.9262
-26.2780 5.5147 -2.3491 0.8978
-20.7180 -19.6119 -2.4959 0.8918
-17.1372 -20.6704 -2.3491 0.8978
-12.5492 -19.5092 -2.0295 0.9111
-9.2465 -19.0928 -1.8560 0.9183
-1.9394 -21.6852 -1.9048 0.9163
16.9458 -23.0268 -2.5013 0.8915
21.9558 -18.3121 -2.5013 0.8915
25.6945 -12.5373 -2.5013 0.8915
28.4688 -2.6305 -2.5013 0.8915
28.5785 0.8137 -2.5013 0.8915
25.8800 7.1534 -2.3491 0.8978
7.2497 8.6405 -0.9868 0.9557
5.6287 8.6383 -0.9020 0.9594
4.2139 8.5721 -0.8357 0.9624
2.9813 8.5287 -0.7904 0.9644
1.8919 8.6354 -0.7734 0.9651
-1.2794 8.6929 -0.7687 0.9653
-2.3721 8.6813 -0.7874 0.9645
-3.5195 8.6274 -0.8152 0.9633
-4.7754 8.5787 -0.8590 0.9613
-8.1236 8.7350 -1.0436 0.9532
-10.3649 8.7487 -1.1867 0.9470
-13.3688 8.7672 -1.3987 0.9378
-16.9022 8.3707 -1.6502 0.9271
-21.4390 2.1083 -1.8847 0.9171
-27.6011 -7.4547 -2.5013 0.8915
-20.9928 -19.4087 -2.5013 0.8915
-17.3792 -20.4673 -2.3491 0.8978
-12.9059 -19.5542 -2.0498 0.9102
-9.5442 -19.1303 -1.8704 0.9177
-6.8775 -19.3089 -1.7933 0.9210
0.5273 -26.8452 -2.3491 0.8978
3.9965 -28.3094 -2.5013 0.8915
7.3734 -27.6229 -2.5013 0.8915
10.6432 -26.5352 -2.5013 0.8915
13.7585 -25.0619 -2.5013 0.8915
21.7388 -18.5692 -2.5013 0.8915
26.9043 -9.6721 -2.5013 0.8915
27.8726 -6.3650 -2.5013 0.8915
28.4359 -2.9653 -2.5013 0.8915
28.5861 0.4774 -2.5013 0.8915
25.9624 6.8485 -2.3491 0.8978
24.9498 9.9222 -2.3491 0.8978
23.6557 12.8961 -2.3572 0.8975
7.4238 8.6394 -0.9966 0.9553
4.3428 8.5779 -0.8412 0.9621
3.0963 8.5340 -0.7942 0.9642
6.2094 26.8276 -2.4092 0.8953
0.9309 8.6793 -0.7637 0.9656
-1.1750 8.6923 -0.7674 0.9654
-3.4038 8.6329 -0.8119 0.9634
-4.6475 8.5851 -0.8541 0.9616
-6.1851 8.7230 -0.9355 0.9580
-7.9329 8.7338 -1.0323 0.9537
-10.1192 8.7472 -1.1702 0.9477
-13.0288 8.7651 -1.3738 0.9389
-22.3540 8.1851 -2.0827 0.9088
-21.2997 2.3479 -1.8748 0.9176
-26.8488 -0.2904 -2.3491 0.8978
-27.6869 -7.1294 -2.5013 0.8915
-25.1823 -13.5368 -2.5013 0.8915
-23.3708 -16.4681 -2.5013 0.8915
-13.2699 -19.6001 -2.0708 0.9093
-9.8466 -19.1684 -1.8853 0.9171
-7.1709 -19.4074 -1.8101 0.9203
-4.7961 -20.1801 -1.8147 0.9201
