ply
format ascii 1.0
element vertex 1559
property float32 x
property float32 y
property float32 z
property float32 I
end_header
-14.5765 -23.2678 1.4389 0.8959
-14.3665 -30.5924 1.7713 0.8734
-9.8461 -29.8683 1.6482 0.8816
-6.6942 -33.3966 1.7851 0.8725
24.1106 -41.5462 2.5174 0.8250
31.0447 -41.1405 2.7011 0.8135
32.8088 -26.7017 2.2169 0.8441
58.5719 -19.4951 3.2352 0.7809
67.6399 -5.4288 3.5563 0.7620
67.5861 2.7401 3.5449 0.7627
51.3781 8.3510 2.7279 0.8118
45.0065 19.1531 2.5634 0.8221
34.2059 19.7196 2.0692 0.8537
11.4844 8.6145 0.7524 0.9441
9.0039 8.6297 0.6536 0.9513
-0.9399 5.8894 0.3126 0.9764
-4.9913 8.7157 0.5264 0.9606
-6.5056 8.7250 0.5704 0.9573
-8.3250 8.7362 0.6324 0.9528
-10.6263 8.7503 0.7214 0.9464
-13.7337 8.7694 0.8540 0.9368
-26.0739 8.8453 1.4430 0.8956
-20.2785 -31.5574 1.9659 0.8605
-14.7969 -30.5898 1.7808 0.8727
-11.4266 -33.3676 1.8484 0.8683
-3.2769 -36.8417 1.9384 0.8623
24.2414 -86.5395 4.7099 0.6977
24.7013 -43.7139 2.6314 0.8178
32.7889 -27.3181 2.2366 0.8429
58.5439 -37.8579 3.6538 0.7563
58.5673 -20.2444 3.2476 0.7802
67.7007 -14.5851 3.6294 0.7578
67.5912 1.9625 3.5438 0.7627
51.7515 7.8022 2.7428 0.8109
30.6710 8.4965 1.6679 0.8803
46.4604 19.1442 2.6335 0.8177
11.7613 8.6127 0.7640 0.9433
9.2123 8.6284 0.6615 0.9507
7.2410 8.6405 0.5908 0.9558
5.6292 8.6504 0.5409 0.9595
3.0215 8.6606 0.4807 0.9639
1.8913 8.6581 0.4644 0.9651
-3.5584 8.7069 0.4929 0.9630
-6.3501 8.7241 0.5655 0.9577
-8.1344 8.7350 0.6255 0.9533
-10.3790 8.7488 0.7114 0.9471
-17.7879 8.7944 1.0399 0.9236
-25.1042 8.8393 1.3948 0.8989
-58.9625 -15.9696 3.2014 0.7830
-26.7526 -31.5529 2.1680 0.8473
-20.7941 -31.5562 1.9806 0.8595
-15.2319 -30.5871 1.7908 0.8721
-5.4932 -24.4714 1.3144 0.9044
21.9708 -54.6531 3.0870 0.7898
30.2426 -42.0542 2.7147 0.8126
58.1695 -38.5711 3.6578 0.7561
58.3243 -29.2540 3.4196 0.7700
51.8908 -18.6070 2.8890 0.8019
52.0720 7.2393 2.7552 0.8101
47.9966 19.1347 2.7079 0.8130
36.0782 19.7081 2.1545 0.8482
9.4258 8.6271 0.6697 0.9501
7.4108 8.6395 0.5965 0.9554
4.3739 8.6582 0.5084 0.9619
1.9954 8.6563 0.4656 0.9650
0.9222 8.6715 0.4570 0.9657
-2.2715 8.6828 0.4704 0.9647
-3.4419 8.7062 0.4906 0.9632
-6.1973 8.7231 0.5608 0.9580
-10.1384 8.7473 0.7018 0.9478
-21.0380 2.2986 1.1091 0.9187
-27.3787 -31.5491 2.1892 0.8459
-21.3160 -31.5530 1.9956 0.8585
-15.6718 -30.5844 1.8010 0.8714
-7.8992 -33.3892 1.7982 0.8716
-4.1229 -36.7566 1.9384 0.8623
29.5343 -42.0816 2.6944 0.8139
37.9464 -42.1838 2.9736 0.7967
58.1636 -39.5373 3.6858 0.7545
67.6014 0.4082 3.5429 0.7628
58.1259 7.4011 3.0709 0.7908
58.9455 14.8792 3.1861 0.7839
49.6218 19.1247 2.7870 0.8081
12.3419 8.6092 0.7886 0.9415
9.6445 8.6258 0.6781 0.9495
7.5840 8.6384 0.6024 0.9550
4.4992 8.6574 0.5113 0.9617
1.4027 5.7803 0.3117 0.9765
-1.0801 8.6823 0.4585 0.9656
-2.1647 8.6807 0.4689 0.9648
-3.3265 8.7055 0.4884 0.9634
-7.7652 8.7328 0.6124 0.9543
-12.7337 8.7633 0.8101 0.9400
-22.9452 2.7742 1.2113 0.9116
-65.0705 -34.1023 3.8501 0.7451
-12.1253 -31.7874 1.7830 0.8726
21.6150 -88.8528 4.7924 0.6933
20.6382 -54.9566 3.0765 0.7905
37.0735 -42.1784 2.9430 0.7986
45.9838 -41.0784 3.2315 0.7812
58.6653 -31.1329 3.4806 0.7664
51.3145 -19.7429 2.8815 0.8023
67.7172 -17.0516 3.6597 0.7560
67.6607 -8.5753 3.5743 0.7610
58.5906 14.0751 3.1579 0.7856
33.0491 12.3030 1.8482 0.8683
12.6466 8.6073 0.8017 0.9406
9.8690 8.6244 0.6869 0.9489
7.7607 8.6373 0.6085 0.9546
6.0619 8.6478 0.5535 0.9586
3.3622 8.6644 0.4871 0.9635
1.4594 5.7258 0.3097 0.9766
1.1241 8.6691 0.4581 0.9656
0.0723 8.6788 0.4549 0.9658
-0.9789 8.6823 0.4579 0.9656
-3.2119 8.7045 0.4862 0.9635
-4.4708 8.7125 0.5132 0.9615
-5.8991 8.7213 0.5518 0.9587
-7.5863 8.7317 0.6062 0.9547
-9.6762 8.7445 0.6835 0.9491
-12.4228 8.7614 0.7967 0.9409
-16.3274 8.7854 0.9717 0.9284
-22.5461 8.8236 1.2689 0.9076
-13.0847 -24.1508 1.4395 0.8958
-12.4719 -31.6001 1.7804 0.8728
-6.0889 -23.3298 1.2636 0.9079
-4.9667 -36.6521 1.9384 0.8623
21.8548 -43.1996 2.5372 0.8237
27.7262 -41.5025 2.6158 0.8188
67.5582 7.0279 3.5597 0.7618
12.9616 8.6054 0.8154 0.9396
7.9410 8.6362 0.6149 0.9541
4.7542 8.6558 0.5176 0.9612
3.4770 8.6637 0.4892 0.9633
-3.0977 8.7016 0.4841 0.9637
-4.3446 8.7117 0.5102 0.9618
-5.7535 8.7204 0.5475 0.9590
-7.4110 8.7306 0.6002 0.9552
-12.1218 8.7595 0.7838 0.9419
-15.8820 8.7826 0.9511 0.9299
-39.6089 -8.7957 2.1264 0.8500
-17.0233 -30.5762 1.8340 0.8692
19.6628 -89.7641 4.8159 0.6921
26.3105 -40.3808 2.5258 0.8244
35.3795 -42.1680 2.8847 0.8021
32.4721 -30.3790 2.3304 0.8368
33.2147 -24.2936 2.1566 0.8480
58.6546 -32.8774 3.5239 0.7639
67.1102 -18.5494 3.6490 0.7566
67.6167 -1.9240 3.5451 0.7627
62.6713 13.5396 3.3602 0.7735
56.7442 19.6509 3.1471 0.7862
3.5929 8.6630 0.4915 0.9631
0.2719 8.6775 0.4550 0.9658
-0.7773 8.6821 0.4568 0.9657
-1.8492 8.6804 0.4651 0.9651
-2.9845 8.6988 0.4820 0.9638
-15.2769 23.7440 1.4797 0.8931
-9.2371 8.7418 0.6665 0.9503
87.6161 -24.7518 1.5892 0.6947
64.3982 13.5315 1.1486 0.7685
25.1885 8.5635 0.4644 0.8990
13.8417 8.8514 0.2868 0.9364
10.4548 8.6208 0.2365 0.9472
8.2172 8.6345 0.2081 0.9534
0.3213 8.6831 0.1517 0.9658
-1.8000 8.6903 0.1549 0.9651
-4.1396 8.6701 0.1677 0.9623
-7.1557 8.7290 0.1970 0.9558
-9.1324 8.7412 0.2207 0.9507
-15.2323 8.7679 0.3068 0.9321
-20.7221 8.8023 0.3930 0.9139
-74.8601 -6.0583 1.3110 0.7405
-51.7867 -24.5436 1.0003 0.7951
-23.4945 -31.1779 0.6814 0.8554
-13.5299 -31.5988 0.6000 0.8715
31.7338 -39.1683 0.8799 0.8174
32.8200 -24.8801 0.7189 0.8481
41.7390 -24.3459 0.8434 0.8242
43.1861 20.1644 0.8319 0.8264
13.9507 8.6968 0.2870 0.9363
6.5924 8.6445 0.1898 0.9574
3.7501 8.6211 0.1641 0.9631
1.4811 8.6759 0.1536 0.9654
0.4212 8.6824 0.1517 0.9658
-0.6278 8.6889 0.1521 0.9657
-2.8131 8.6817 0.1593 0.9641
-6.9886 8.7280 0.1952 0.9563
-8.9234 8.7399 0.2180 0.9513
-20.0651 8.7969 0.3824 0.9161
-24.0586 -31.1744 0.6873 0.8542
-11.2109 -25.3728 0.4842 0.8950
-9.4971 -31.2043 0.5693 0.8777
-3.6112 -66.5316 1.1630 0.7660
29.9429 -94.2531 1.7262 0.6732
28.6577 -46.8657 0.9589 0.8027
30.9895 -39.1613 0.8717 0.8189
32.7605 -32.4577 0.8050 0.8315
32.8163 -25.4766 0.7252 0.8469
80.3498 -24.7071 1.4673 0.7144
48.7717 9.0828 0.8659 0.8200
27.0838 8.5186 0.4956 0.8926
33.4028 20.2937 0.6822 0.8553
3.8683 8.6205 0.1649 0.9629
2.6799 8.6268 0.1577 0.9645
-0.5275 8.6883 0.1519 0.9658
-10.1929 55.6209 0.9870 0.7975
-2.7030 8.6810 0.1587 0.9643
-5.2382 8.6781 0.1769 0.9603
-6.8247 8.7270 0.1934 0.9566
-14.4440 8.7623 0.2949 0.9346
-19.4511 8.7956 0.3726 0.9181
-24.6328 -31.1709 0.6935 0.8530
-19.2719 -31.5636 0.6455 0.8625
-8.9805 -28.3335 0.5188 0.8879
-3.4880 -52.9973 0.9271 0.8086
32.7653 -33.2174 0.8144 0.8297
39.5847 -24.3258 0.8110 0.8304
76.9591 -24.6363 1.4105 0.7238
48.6505 8.4827 0.8620 0.8207
28.1903 8.5118 0.5140 0.8889
45.8471 20.1365 0.8740 0.8185
8.8005 8.6309 0.2152 0.9519
2.7888 8.6262 0.1582 0.9644
1.6870 8.6747 0.1543 0.9653
0.6215 8.6812 0.1519 0.9658
-0.4273 8.6877 0.1518 0.9658
-5.1025 8.6771 0.1757 0.9605
-8.5199 8.7374 0.2130 0.9524
-14.0723 8.7596 0.2893 0.9358
-18.8668 8.7940 0.3633 0.9201
-27.1132 8.8517 0.4978 0.8922
-19.7717 -31.5605 0.6501 0.8616
-16.6026 -35.3540 0.6818 0.8553
-9.8461 -29.8683 0.5489 0.8818
-6.2587 -31.2241 0.5559 0.8804
29.5411 -39.1479 0.8560 0.8218
32.7640 -33.9889 0.8240 0.8279
51.5143 -24.3726 0.9947 0.7961
48.9931 7.9633 0.8664 0.8199
29.3826 8.5045 0.5339 0.8848
47.3229 20.1389 0.8977 0.8140
9.0039 8.6297 0.2177 0.9513
7.0744 8.6416 0.1949 0.9563
2.8985 8.6256 0.1588 0.9643
-3.6652 8.6817 0.1645 0.9630
-4.9686 8.6761 0.1745 0.9608
-8.3250 8.7362 0.2106 0.9529
-10.6263 8.7503 0.2403 0.9464
-13.7143 8.7571 0.2840 0.9370
-18.3057 8.7900 0.3545 0.9220
-26.0550 8.8389 0.4802 0.8958
-58.6778 -16.6188 1.0645 0.7835
-25.8127 -31.1637 0.7063 0.8505
-20.2785 -31.5574 0.6548 0.8606
-17.0999 -35.3510 0.6854 0.8546
-10.6833 -31.1970 0.5756 0.8764
-3.6006 -40.4818 0.7094 0.8499
24.6954 -43.7036 0.8762 0.8181
31.0463 -42.1414 0.9136 0.8111
32.7592 -34.7752 0.8339 0.8260
32.8049 -27.3315 0.7453 0.8430
37.6076 -24.3193 0.7817 0.8360
50.0690 -24.3971 0.9722 0.8003
11.7613 8.6127 0.2545 0.9433
9.2123 8.6284 0.2203 0.9508
4.2380 8.6344 0.1679 0.9623
3.0091 8.6250 0.1594 0.9641
-0.2272 8.6864 0.1517 0.9658
-4.8364 8.6751 0.1734 0.9610
-10.3790 8.7488 0.2369 0.9471
-13.3342 8.7318 0.2782 0.9382
-17.7713 8.7861 0.3460 0.9238
-25.0618 8.8244 0.4638 0.8992
-58.7105 -15.9013 1.0617 0.7840
-75.2757 -30.5126 1.4178 0.7226
-22.0630 -33.4818 0.6999 0.8518
-17.6028 -35.3479 0.6893 0.8539
-11.0847 -31.1946 0.5779 0.8760
-7.0079 -31.2195 0.5585 0.8798
-4.0697 -40.4789 0.7101 0.8498
32.1518 -79.9786 1.5046 0.7083
28.6258 -52.0470 1.0368 0.7885
30.3022 -42.1371 0.9059 0.8125
36.6694 -24.3148 0.7680 0.8386
48.6234 -24.3883 0.9495 0.8044
51.4081 -18.4339 0.9533 0.8037
88.6662 -20.1712 1.5872 0.6950
32.0684 8.4879 0.5790 0.8757
12.0471 8.6110 0.2585 0.9425
9.4258 8.6271 0.2230 0.9502
7.4108 8.6395 0.1987 0.9555
4.3638 8.6383 0.1689 0.9620
1.9992 8.6727 0.1554 0.9650
0.9230 8.6794 0.1524 0.9657
-1.1830 8.6923 0.1531 0.9655
-3.4339 8.6858 0.1630 0.9633
-4.7061 8.6742 0.1723 0.9613
-7.9479 8.7339 0.2061 0.9539
-10.1384 8.7473 0.2337 0.9478
-13.0554 8.7653 0.2745 0.9390
-57.2001 -14.7885 1.0313 0.7895
-22.6168 -33.4784 0.7052 0.8508
-18.1110 -35.3448 0.6932 0.8531
-7.3854 -31.2172 0.5599 0.8796
-4.5401 -40.4761 0.7109 0.8496
28.7405 -53.7086 1.0633 0.7837
29.9911 -42.7325 0.9113 0.8115
32.7970 -28.6274 0.7599 0.8402
49.2358 -18.2964 0.9168 0.8105
52.1757 20.1090 0.9760 0.7996
37.0735 19.7020 0.7328 0.8454
9.6445 8.6258 0.2259 0.9496
7.5840 8.6384 0.2006 0.9551
5.9050 8.6334 0.1826 0.9590
-0.0275 8.6852 0.1516 0.9659
-1.0813 8.6917 0.1529 0.9656
-2.1639 8.6775 0.1561 0.9649
-4.5773 8.6733 0.1712 0.9615
-6.0470 8.7222 0.1853 0.9584
-7.7652 8.7328 0.2040 0.9543
-9.9042 8.7459 0.2306 0.9485
-16.7567 8.7695 0.3301 0.9271
-23.3460 8.8285 0.4357 0.9050
-22.9503 2.7748 0.4035 0.9117
-57.1630 -14.0802 1.0276 0.7902
-12.1253 -31.7874 0.5939 0.8727
-1.9987 -16.1418 0.2839 0.9370
28.6079 -54.9707 1.0817 0.7804
28.8503 -42.1283 0.8913 0.8152
34.4499 -39.1936 0.9108 0.8116
34.8844 -24.3038 0.7421 0.8436
45.9247 -24.3717 0.9075 0.8122
58.4904 14.0510 1.0500 0.7861
38.1124 19.6956 0.7488 0.8423
9.8690 8.6244 0.2288 0.9489
7.7607 8.6373 0.2027 0.9546
4.6154 8.6369 0.1709 0.9616
3.3462 8.6232 0.1615 0.9637
0.0724 8.6846 0.1516 0.9659
-2.0584 8.6782 0.1557 0.9649
-3.2045 8.6843 0.1616 0.9636
-4.4501 8.6723 0.1701 0.9618
-5.8991 8.7213 0.1838 0.9588
-9.6762 8.7445 0.2276 0.9492
-16.2907 8.7657 0.3229 0.9287
-22.5461 8.8236 0.4226 0.9077
-22.1293 -31.1862 0.6675 0.8581
-18.9466 -34.9703 0.6942 0.8529
-8.1462 -31.2126 0.5631 0.8789
-5.1955 -38.3410 0.6754 0.8566
30.3655 -83.7717 1.5553 0.7001
28.5984 -56.5295 1.1058 0.7761
32.7887 -29.9757 0.7754 0.8372
54.5458 19.5944 1.0117 0.7930
10.0783 8.6050 0.2313 0.9484
7.9410 8.6362 0.2048 0.9541
6.1863 8.6129 0.1851 0.9585
3.4605 8.6226 0.1622 0.9635
0.1722 8.6840 0.1516 0.9658
-0.8788 8.6904 0.1525 0.9657
-1.9544 8.6830 0.1554 0.9650
-3.0913 8.6836 0.1609 0.9638
-4.3245 8.6714 0.1691 0.9620
-7.4110 8.7306 0.1999 0.9552
-55.4686 51.2983 1.3188 0.7391
-12.1218 8.7595 0.2610 0.9419
-15.8446 8.7620 0.3160 0.9301
-21.7927 8.8190 0.4104 0.9102
-64.3669 -31.8696 1.2537 0.7503
-12.8925 -31.5976 0.5957 0.8724
-8.5300 -31.2102 0.5648 0.8786
-5.1760 -35.1549 0.6202 0.8675
28.6755 -44.0104 0.9169 0.8105
32.8715 -39.1789 0.8927 0.8150
89.5845 -24.7614 1.6223 0.6895
62.6713 13.5396 1.1192 0.7737
56.5456 19.5821 1.0445 0.7871
10.3359 8.6215 0.2349 0.9476
8.1251 8.6351 0.2070 0.9537
6.3445 8.6222 0.1869 0.9581
4.8730 8.6354 0.1731 0.9611
3.5759 8.6220 0.1629 0.9633
1.3285 8.6769 0.1532 0.9655
0.2721 8.6834 0.1516 0.9658
-2.9790 8.6828 0.1602 0.9639
-7.2391 8.7295 0.1979 0.9556
49.8272 -20.8284 -0.9427 0.8057
65.3126 13.7237 -1.1649 0.7657
25.1885 8.5635 -0.4644 0.8990
10.4548 8.6208 -0.2365 0.9472
8.2172 8.6345 -0.2081 0.9534
6.4373 8.6455 -0.1881 0.9578
4.9243 8.6120 -0.1732 0.9611
3.6167 8.5829 -0.1626 0.9634
0.3213 8.6831 -0.1517 0.9658
-2.9168 8.6611 -0.1595 0.9641
-15.1485 23.8398 -0.4930 0.8932
-11.6904 8.7569 -0.2550 0.9432
-15.1606 8.7266 -0.3053 0.9324
-20.4726 8.6964 -0.3883 0.9149
-54.8766 8.8822 -0.9703 0.8006
-88.7165 3.5379 -1.5498 0.7010
-74.6756 -6.0434 -1.3077 0.7410
-61.9258 -39.1002 -1.2784 0.7460
-15.6972 -20.8307 -0.4553 0.9009
-5.9271 -20.3097 -0.3693 0.9188
-3.4948 -21.2056 -0.3751 0.9176
29.8764 -90.4282 -1.6623 0.6832
22.9544 -36.5871 -0.7539 0.8413
31.5592 -38.9527 -0.8751 0.8183
41.7390 -24.3459 -0.8434 0.8242
48.1415 -20.7770 -0.9152 0.8108
83.9400 -24.7587 -1.5276 0.7046
87.5128 -14.6813 -1.5489 0.7012
29.0121 5.7487 -0.5163 0.8884
25.6744 8.4008 -0.4715 0.8976
13.9507 8.6968 -0.2870 0.9363
10.7013 8.6193 -0.2398 0.9465
6.5924 8.6445 -0.1898 0.9574
3.7359 8.5884 -0.1635 0.9632
2.5591 8.5853 -0.1564 0.9648
1.4811 8.6759 -0.1536 0.9654
-0.6278 8.6889 -0.1521 0.9657
-1.6892 8.6556 -0.1539 0.9653
-2.8062 8.6605 -0.1589 0.9642
-4.0056 8.6435 -0.1663 0.9626
-5.3462 8.6311 -0.1772 0.9602
-6.9886 8.7280 -0.1952 0.9563
-8.9234 8.7399 -0.2180 0.9513
-19.8992 8.7242 -0.3793 0.9167
-54.8725 9.5301 -0.9721 0.8003
-16.3105 -21.1347 -0.4660 0.8987
-11.8127 -19.8565 -0.4033 0.9117
-3.7509 -21.2348 -0.3764 0.9173
-1.2411 -22.8648 -0.3997 0.9125
30.8189 -38.9458 -0.8669 0.8198
32.7733 -32.4704 -0.8053 0.8315
32.8163 -25.4766 -0.7252 0.8469
40.6467 -24.3392 -0.8270 0.8273
50.3843 9.3831 -0.8946 0.8146
26.8476 8.4443 -0.4913 0.8935
40.5304 18.3599 -0.7767 0.8369
10.9547 8.6177 -0.2433 0.9458
8.6017 8.6322 -0.2127 0.9524
3.8565 8.5941 -0.1644 0.9630
2.6667 8.5845 -0.1569 0.9647
0.5213 8.6818 -0.1518 0.9658
-7.8793 42.9955 -0.7630 0.8396
-3.8881 8.6491 -0.1655 0.9628
-5.2094 8.6304 -0.1760 0.9605
-8.7193 8.7386 -0.2155 0.9518
-11.1425 8.7535 -0.2473 0.9449
-19.3457 8.7480 -0.3706 0.9186
-26.0108 8.1621 -0.4758 0.8967
-88.6353 16.4456 -1.5735 0.6972
-56.3417 3.5456 -0.9854 0.7978
-88.7711 -5.1334 -1.5521 0.7007
-59.7347 -18.4114 -1.0911 0.7787
-74.6070 -33.2808 -1.4260 0.7212
-61.5140 -36.8900 -1.2520 0.7505
-63.4975 -49.3631 -1.4039 0.7249
-12.2344 -20.0377 -0.4098 0.9104
-4.0142 -21.2936 -0.3782 0.9170
27.8844 -46.8013 -0.9509 0.8042
77.4033 -24.7784 -1.4186 0.7224
96.6554 -18.5090 -1.7178 0.6746
69.6126 3.6242 -1.2167 0.7566
50.3806 8.7844 -0.8927 0.8150
33.3996 19.7697 -0.6775 0.8562
8.8005 8.6309 -0.2152 0.9519
3.9784 8.5998 -0.1654 0.9628
1.6870 8.6747 -0.1543 0.9653
-1.4868 8.6745 -0.1536 0.9654
-3.7716 8.6547 -0.1648 0.9629
-6.6637 8.7260 -0.1916 0.9570
-8.5199 8.7374 -0.2130 0.9524
-10.8807 8.7519 -0.2437 0.9457
-14.0432 8.7415 -0.2887 0.9360
-25.2204 8.2337 -0.4631 0.8993
-56.0898 11.0754 -0.9979 0.7955
-74.6879 -12.5808 -1.3220 0.7386
-63.4371 -48.1565 -1.3902 0.7271
-12.7034 -20.2779 -0.4177 0.9087
-6.4970 -19.7086 -0.3622 0.9203
-1.7297 -22.3558 -0.3914 0.9142
37.5266 -87.4823 -1.6616 0.6833
32.8088 -26.7017 -0.7384 0.8443
51.5143 -24.3726 -0.9947 0.7961
76.1026 -25.3300 -1.4000 0.7255
95.7980 -19.4889 -1.7064 0.6763
75.2659 3.0515 -1.3148 0.7398
42.9565 18.2807 -0.8149 0.8296
34.2060 19.7196 -0.6892 0.8539
9.0039 8.6297 -0.2177 0.9513
5.4648 8.6127 -0.1780 0.9600
4.1018 8.6056 -0.1664 0.9626
-0.3272 8.6871 -0.1517 0.9658
-2.4792 8.6586 -0.1572 0.9646
-8.3250 8.7362 -0.2106 0.9529
-13.7141 8.7570 -0.2840 0.9370
-18.2421 8.7595 -0.3532 0.9222
-56.3337 4.8475 -0.9869 0.7976
-74.6578 -31.2662 -1.4128 0.7234
-60.4394 -34.3819 -1.2137 0.7572
-58.4899 -43.3504 -1.2708 0.7473
-18.6079 -22.4653 -0.5092 0.8899
-12.8784 -20.0415 -0.4158 0.9091
-10.9335 -31.9278 -0.5891 0.8737
-3.6006 -40.4818 -0.7094 0.8499
36.3388 -87.4750 -1.6534 0.6846
24.6650 -43.6497 -0.8751 0.8183
32.8049 -27.3315 -0.7453 0.8430
71.1618 -24.5978 -1.3142 0.7399
50.3733 7.5944 -0.8892 0.8156
35.1232 19.7140 -0.7030 0.8512
11.7613 8.6127 -0.2545 0.9433
7.2410 8.6405 -0.1968 0.9559
2.9942 8.5823 -0.1587 0.9643
0.8223 8.6800 -0.1522 0.9657
-0.2272 8.6864 -0.1517 0.9658
-0.8752 5.9203 -0.1045 0.9763
-4.8104 8.6284 -0.1724 0.9612
-13.3342 8.7318 -0.2782 0.9382
-17.7628 8.7820 -0.3459 0.9238
-56.1421 5.4817 -0.9846 0.7980
-88.7518 -2.0663 -1.5496 0.7011
-58.8525 -15.9397 -1.0643 0.7835
-59.8854 -33.1613 -1.1949 0.7604
-63.0045 -45.5838 -1.3574 0.7326
-19.2867 -22.7474 -0.5206 0.8875
-6.9437 -19.5410 -0.3620 0.9204
0.5878 -28.8021 -0.5028 0.8911
23.9698 -33.3315 -0.7166 0.8485
32.7542 -35.5805 -0.8441 0.8241
68.7032 -24.6356 -1.2740 0.7468
50.1400 19.9892 -0.9422 0.8058
12.0471 8.6110 -0.2585 0.9425
7.4108 8.6395 -0.1987 0.9555
4.3525 8.6158 -0.1685 0.9621
3.1050 8.5815 -0.1593 0.9641
1.9992 8.6727 -0.1554 0.9650
0.9230 8.6794 -0.1524 0.9657
-1.1830 8.6923 -0.1531 0.9655
-6.1973 8.7231 -0.1868 0.9581
-7.9479 8.7339 -0.2061 0.9539
-10.1384 8.7473 -0.2337 0.9478
-17.0638 8.6819 -0.3342 0.9263
-24.1967 8.8337 -0.4496 0.9021
-74.7368 -9.9527 -1.3160 0.7396
-57.0061 -14.7384 -1.0278 0.7901
-59.6255 -32.1277 -1.1822 0.7626
-62.6158 -44.2152 -1.3380 0.7359
-20.1951 -23.2714 -0.5378 0.8840
-13.6063 -20.1407 -0.4243 0.9073
-7.1727 -19.4730 -0.3622 0.9203
-4.8995 -20.7098 -0.3715 0.9184
-2.4379 -21.7343 -0.3818 0.9162
33.9619 -87.3704 -1.6362 0.6873
23.4043 -33.3473 -0.7111 0.8496
32.7970 -28.6274 -0.7599 0.8402
47.2433 -24.3798 -0.9280 0.8084
49.5345 -18.4074 -0.9224 0.8094
51.7124 19.9305 -0.9674 0.8011
37.0735 19.7020 -0.7328 0.8454
9.6445 8.6258 -0.2259 0.9496
5.9050 8.6334 -0.1826 0.9590
3.2167 8.5808 -0.1600 0.9640
1.0240 8.6787 -0.1525 0.9656
-0.0275 8.6852 -0.1516 0.9659
-2.1628 8.6733 -0.1560 0.9649
-7.7652 8.7328 -0.2040 0.9543
-9.9042 8.7459 -0.2306 0.9485
-12.7337 8.7633 -0.2698 0.9400
-23.3460 8.8285 -0.4357 0.9050
-22.9554 2.7754 -0.4035 0.9116
-56.9098 -14.0178 -1.0230 0.7910
-59.1614 -31.0054 -1.1659 0.7655
-62.5371 -43.0909 -1.3256 0.7380
-59.9398 -52.9912 -1.3965 0.7261
-14.0538 -20.2961 -0.4309 0.9060
-5.1034 -20.5160 -0.3690 0.9189
-0.0699 -27.0230 -0.4717 0.8975
32.8081 -87.3633 -1.6289 0.6884
32.7929 -29.2946 -0.7675 0.8387
45.9247 -24.3717 -0.9075 0.8122
50.2080 -19.3173 -0.9390 0.8064
58.5906 14.0751 -1.0518 0.7858
33.0491 12.3030 -0.6155 0.8684
9.8690 8.6244 -0.2288 0.9489
7.7607 8.6373 -0.2027 0.9546
6.0568 8.6405 -0.1842 0.9587
3.3294 8.5800 -0.1606 0.9639
-0.9799 8.6911 -0.1527 0.9656
-3.1965 8.6627 -0.1612 0.9637
-5.8991 8.7213 -0.1838 0.9588
-9.6762 8.7445 -0.2276 0.9492
-12.4228 8.7614 -0.2653 0.9410
-16.1482 8.6890 -0.3201 0.9293
-74.6764 -8.2026 -1.3113 0.7404
-74.7464 -27.3372 -1.3892 0.7273
-62.3980 -41.9454 -1.3124 0.7402
-59.2193 -51.1534 -1.3659 0.7312
-10.6575 -19.6710 -0.3905 0.9144
27.9305 -41.8082 -0.8776 0.8178
33.4676 -38.9704 -0.8966 0.8142
32.7887 -29.9757 -0.7754 0.8372
34.0359 -24.2986 -0.7300 0.8459
48.3303 -12.7624 -0.8725 0.8187
59.4450 13.5595 -1.0643 0.7835
13.6780 9.0810 -0.2866 0.9364
10.0783 8.6050 -0.2313 0.9484
7.9410 8.6362 -0.2048 0.9541
4.7308 8.6133 -0.1715 0.9614
1.2267 8.6775 -0.1530 0.9655
0.1722 8.6840 -0.1516 0.9658
-1.9544 8.6830 -0.1554 0.9650
-15.7477 8.7084 -0.3141 0.9305
-21.7927 8.8190 -0.4104 0.9102
-51.5535 13.9311 -0.9321 0.8076
-54.8827 7.9197 -0.9679 0.8010
-88.7261 2.0147 -1.5491 0.7011
-74.5556 -7.3229 -1.3076 0.7410
-39.6628 -8.8076 -0.7092 0.8500
-63.8195 -31.5985 -1.2430 0.7521
-62.2583 -40.8207 -1.2995 0.7424
-11.0556 -19.8574 -0.3967 0.9131
-7.8525 -19.2453 -0.3628 0.9202
-5.5252 -20.2159 -0.3658 0.9196
-3.1529 -21.4143 -0.3778 0.9170
23.8730 -36.6397 -0.7633 0.8395
32.4597 -30.3673 -0.7759 0.8371
43.4530 -24.3565 -0.8695 0.8193
50.1999 -20.6512 -0.9475 0.8048
62.6713 13.5396 -1.1192 0.7737
56.5456 19.5821 -1.0445 0.7871
13.7876 8.9272 -0.2867 0.9364
10.3359 8.6215 -0.2349 0.9476
8.1251 8.6351 -0.2070 0.9537
6.3445 8.6222 -0.1869 0.9581
4.8600 8.6124 -0.1726 0.9612
3.5585 8.5801 -0.1621 0.9635
2.4210 8.6620 -0.1570 0.9647
1.3285 8.6769 -0.1532 0.9655
-4.1830 8.6350 -0.1675 0.9623
-15.2769 23.7440 -0.4928 0.8932
-7.2391 8.7295 -0.1979 0.9556
-9.2371 8.7418 -0.2220 0.9504
-11.8304 8.7577 -0.2569 0.9428
-15.3619 8.7271 -0.3084 0.9318
36.0133 -15.0540 -2.0456 0.8553
43.2417 -12.2159 -2.3549 0.8353
47.1639 -7.3559 -2.5016 0.8260
47.7063 -1.6279 -2.5016 0.8260
47.5454 4.1230 -2.5011 0.8260
43.8719 9.2185 -2.3494 0.8356
8.2172 8.6345 -0.6247 0.9534
6.4373 8.6455 -0.5649 0.9577
4.9111 8.5890 -0.5185 0.9611
3.6074 8.5607 -0.4869 0.9635
0.3213 8.6831 -0.4554 0.9658
-0.7284 8.6895 -0.4570 0.9657
-1.8000 8.6903 -0.4651 0.9651
-2.9097 8.6398 -0.4778 0.9641
-4.1138 8.6160 -0.5004 0.9625
-14.8514 23.3722 -1.4513 0.8950
-7.1557 8.7290 -0.5915 0.9558
-9.1324 8.7412 -0.6625 0.9506
-11.6904 8.7569 -0.7655 0.9432
-15.1003 8.6919 -0.9131 0.9326
-44.8182 7.2542 -2.3794 0.8337
-45.1608 1.8009 -2.3687 0.8344
-39.0897 -7.9794 -2.0908 0.8523
-40.3618 -25.4846 -2.5016 0.8260
-37.0024 -30.1557 -2.5016 0.8260
-15.5760 -20.6699 -1.3564 0.9015
-11.4109 -19.6929 -1.1928 0.9129
-5.8196 -19.9414 -1.0887 0.9202
-3.4736 -21.0764 -1.1195 0.9180
-0.9695 -22.6747 -1.1894 0.9131
3.0103 -38.5756 -2.0278 0.8564
9.4126 -46.7969 -2.5016 0.8260
22.9544 -36.5871 -2.2636 0.8411
32.2070 -31.1840 -2.3494 0.8356
32.7156 -24.8010 -2.1515 0.8484
38.7239 -22.5873 -2.3494 0.8356
41.1602 -17.7640 -2.3494 0.8356
41.2031 -12.1531 -2.2513 0.8419
47.5999 3.5770 -2.5016 0.8260
29.0073 5.7478 -1.5498 0.8883
27.9311 13.0415 -1.6155 0.8838
10.7013 8.6193 -0.7201 0.9464
6.5924 8.6445 -0.5697 0.9574
5.0454 8.5931 -0.5222 0.9609
3.7262 8.5662 -0.4896 0.9633
2.5467 8.5435 -0.4672 0.9649
1.4811 8.6759 -0.4613 0.9654
0.4212 8.6824 -0.4556 0.9658
-0.6278 8.6889 -0.4566 0.9657
-1.6892 8.6556 -0.4622 0.9653
-3.9955 8.6218 -0.4980 0.9627
-5.3167 8.5835 -0.5291 0.9604
-6.9886 8.7280 -0.5860 0.9562
-11.4123 8.7552 -0.7538 0.9440
-23.8971 7.1982 -1.3080 0.9049
-44.9490 -3.1181 -2.3613 0.8349
-43.3670 -19.9460 -2.5016 0.8260
-40.6521 -25.0190 -2.5016 0.8260
-37.3466 -29.7284 -2.5016 0.8260
-33.4984 -34.0058 -2.5016 0.8260
-15.8723 -20.5669 -1.3615 0.9012
-11.8618 -19.9391 -1.2159 0.9113
-8.4293 -19.0776 -1.0931 0.9199
-6.0133 -19.7579 -1.0824 0.9206
-3.7030 -20.9637 -1.1157 0.9183
-1.2037 -22.1764 -1.1639 0.9149
2.9738 -44.7312 -2.3494 0.8356
19.8214 -43.4241 -2.5016 0.8260
23.3870 -38.2462 -2.3494 0.8356
32.7120 -25.3956 -2.1703 0.8471
37.4767 -22.4410 -2.2892 0.8395
47.6563 -2.7241 -2.5016 0.8260
26.3257 8.2801 -1.4463 0.8954
14.9344 9.0733 -0.9158 0.9324
6.7502 8.6436 -0.5748 0.9570
3.8464 8.5717 -0.4924 0.9631
2.6537 8.5426 -0.4688 0.9648
1.5839 8.6753 -0.4622 0.9653
0.5213 8.6818 -0.4558 0.9658
-0.5275 8.6883 -0.4562 0.9657
-5.4288 29.6239 -1.5784 0.8864
-11.1425 8.7535 -0.7426 0.9448
-19.2233 8.6927 -1.1057 0.9190
-23.9365 7.5112 -1.3148 0.9044
-42.8411 -13.2045 -2.3494 0.8356
-43.5934 -19.4462 -2.5016 0.8260
-37.6859 -29.2971 -2.5016 0.8260
-16.7592 -21.2074 -1.4166 0.8974
-12.0122 -19.6737 -1.2080 0.9118
-8.7282 -19.1554 -1.1032 0.9191
-6.2578 -19.7434 -1.0854 0.9204
-3.9161 -20.7731 -1.1078 0.9188
-1.4499 -22.0301 -1.1570 0.9154
13.9288 -45.6567 -2.5016 0.8260
19.3208 -43.6492 -2.5016 0.8260
32.7082 -26.0007 -2.1898 0.8459
47.6218 -3.2717 -2.5016 0.8260
28.5113 12.5224 -1.6320 0.8827
8.8005 8.6309 -0.6460 0.9518
6.9108 8.6426 -0.5799 0.9566
3.9680 8.5773 -0.4953 0.9629
-1.4868 8.6745 -0.4612 0.9654
-2.5857 8.6534 -0.4733 0.9645
-5.0470 8.5828 -0.5218 0.9609
-6.6637 8.7260 -0.5754 0.9570
-14.0432 8.7415 -0.8669 0.9359
-18.7146 8.7231 -1.0821 0.9206
-45.0380 -2.0853 -2.3629 0.8348
-43.6322 -7.3496 -2.3189 0.8376
-42.9901 -12.7112 -2.3494 0.8356
-43.8141 -18.9439 -2.5016 0.8260
-38.0201 -28.8620 -2.5016 0.8260
-17.1287 -21.1702 -1.4272 0.8967
-12.3112 -19.6519 -1.2153 0.9113
-8.9986 -19.1618 -1.1094 0.9187
-6.4251 -19.4906 -1.0755 0.9211
1.9448 -44.7877 -2.3494 0.8356
7.7935 -47.0935 -2.5016 0.8260
22.6344 -39.0025 -2.3633 0.8347
32.7044 -26.6168 -2.2099 0.8446
37.9221 -23.9089 -2.3494 0.8356
40.5233 -19.1725 -2.3494 0.8356
46.7759 -9.5159 -2.5016 0.8260
44.2492 7.1922 -2.3494 0.8356
29.3826 8.5045 -1.6031 0.8847
11.4844 8.6145 -0.7524 0.9441
4.0910 8.5829 -0.4983 0.9626
2.8700 8.5408 -0.4722 0.9646
0.7218 8.6806 -0.4565 0.9657
-2.4791 8.6584 -0.4720 0.9646
-3.6471 8.6388 -0.4914 0.9631
-4.9150 8.5825 -0.5183 0.9612
-6.5056 8.7250 -0.5704 0.9573
-10.6263 8.7503 -0.7214 0.9464
-13.7141 8.7570 -0.8528 0.9369
-18.2270 8.7522 -1.0597 0.9222
-45.0824 3.8793 -2.3714 0.8342
-43.4027 -6.7988 -2.3024 0.8386
-43.1333 -12.2163 -2.3494 0.8356
-41.4905 -23.6025 -2.5016 0.8260
-34.6510 -32.8307 -2.5016 0.8260
-18.1952 -21.9671 -1.4949 0.8920
-9.2671 -19.1581 -1.1153 0.9183
-6.6218 -19.3369 -1.0712 0.9214
-1.9246 -21.6376 -1.1385 0.9167
22.6167 -40.0248 -2.4093 0.8318
26.5902 -36.0927 -2.3494 0.8356
37.4459 -24.2147 -2.3370 0.8364
40.3002 -19.6371 -2.3494 0.8356
39.8361 -13.7698 -2.2089 0.8447
46.6635 -10.0530 -2.5016 0.8260
47.7140 1.3854 -2.5016 0.8260
44.3290 6.6832 -2.3494 0.8356
20.8373 8.5861 -1.1811 0.9137
11.7613 8.6127 -0.7640 0.9433
1.8947 8.6734 -0.4653 0.9651
-0.2272 8.6864 -0.4554 0.9658
-0.8749 5.9188 -0.3136 0.9763
-3.5323 8.6429 -0.4893 0.9633
-4.7852 8.5832 -0.5150 0.9614
-8.1344 8.7350 -0.6255 0.9533
-10.3790 8.7488 -0.7114 0.9471
-13.3342 8.7318 -0.8353 0.9382
-17.7591 8.7801 -1.0383 0.9237
-23.9309 8.4262 -1.3296 0.9034
-44.4497 9.8438 -2.3859 0.8333
-23.3903 2.2838 -1.2317 0.9102
-38.6736 -27.9803 -2.5016 0.8260
-19.1523 -22.5889 -1.5521 0.8881
0.5744 -28.1429 -1.4752 0.8934
22.5982 -41.0877 -2.4575 0.8288
32.6967 -27.8842 -2.2521 0.8419
36.5098 -24.2089 -2.2958 0.8391
40.0718 -20.0990 -2.3494 0.8356
42.1990 -15.1317 -2.3494 0.8356
46.5448 -10.5887 -2.5016 0.8260
47.7267 0.8367 -2.5016 0.8260
44.4029 6.1731 -2.3494 0.8356
32.0684 8.4879 -1.7385 0.8756
29.1907 15.9457 -1.7432 0.8753
12.0471 8.6110 -0.7761 0.9424
9.4258 8.6271 -0.6697 0.9501
5.7557 8.6264 -0.5435 0.9593
-0.1273 8.6858 -0.4553 0.9658
-2.2677 8.6683 -0.4696 0.9647
-4.6600 8.5894 -0.5121 0.9616
-7.9478 8.7339 -0.6189 0.9538
-13.0554 8.7653 -0.8241 0.9390
-16.9175 8.6075 -0.9948 0.9268
-21.0268 2.2974 -1.1085 0.9188
-42.3326 -5.6374 -2.2381 0.8428
-43.4028 -11.2214 -2.3494 0.8356
-44.3571 -17.3890 -2.4969 0.8263
-42.0221 -22.6425 -2.5016 0.8260
-38.9926 -27.5340 -2.5016 0.8260
-35.3965 -32.0255 -2.5016 0.8260
-7.0346 -19.0983 -1.0666 0.9217
-4.8218 -20.3814 -1.0976 0.9195
0.2457 -27.5760 -1.4453 0.8954
11.8155 -46.2486 -2.5016 0.8260
42.0222 -15.6158 -2.3494 0.8356
44.4709 5.6624 -2.3494 0.8356
43.4837 10.9762 -2.3504 0.8356
7.5840 8.6384 -0.6024 0.9550
5.9050 8.6334 -0.5482 0.9590
4.4654 8.5925 -0.5075 0.9620
1.0240 8.6787 -0.4580 0.9656
-0.0275 8.6852 -0.4552 0.9658
-1.0813 8.6917 -0.4590 0.9655
-2.1628 8.6733 -0.4685 0.9648
-4.5362 8.5954 -0.5093 0.9618
-6.0470 8.7222 -0.5562 0.9584
-7.7652 8.7328 -0.6124 0.9543
-16.4884 8.6291 -0.9753 0.9282
-29.4141 7.2271 -1.5874 0.8857
-22.9605 2.7760 -1.2121 0.9115
-45.1474 -0.0131 -2.3661 0.8346
-41.9122 -5.0919 -2.2127 0.8444
-42.2796 -22.1580 -2.5016 0.8260
-39.3065 -27.0840 -2.5016 0.8260
-35.7623 -31.6165 -2.5016 0.8260
-10.2627 -19.4734 -1.1536 0.9156
-7.2175 -18.9211 -1.0613 0.9221
-5.0729 -20.3933 -1.1013 0.9193
-1.9987 -16.1415 -0.8524 0.9369
5.6206 -47.4020 -2.5016 0.8260
11.2831 -46.3814 -2.5016 0.8260
22.0363 -42.3432 -2.5016 0.8260
34.7326 -24.1980 -2.2185 0.8440
46.2891 -11.6559 -2.5016 0.8260
47.3553 -6.0018 -2.5016 0.8260
44.5330 5.1508 -2.3494 0.8356
43.5898 10.4715 -2.3494 0.8356
23.0087 8.5653 -1.2867 0.9063
12.6466 8.6073 -0.8017 0.9406
4.5911 8.5915 -0.5105 0.9617
0.0724 8.6846 -0.4552 0.9658
-0.9799 8.6911 -0.4584 0.9656
-2.0584 8.6782 -0.4674 0.9649
-3.1886 8.6412 -0.4827 0.9638
-7.5863 8.7317 -0.6062 0.9547
-12.4228 8.7614 -0.7967 0.9409
-16.0756 8.6499 -0.9567 0.9295
-27.9859 7.2183 -1.5147 0.8907
-35.3747 4.6902 -1.8701 0.8668
-45.1590 0.5061 -2.3668 0.8345
-41.9249 -4.6050 -2.2104 0.8446
-39.1307 -9.1628 -2.1062 0.8513
-42.5316 -21.6705 -2.5016 0.8260
-36.1234 -31.2032 -2.5016 0.8260
-23.0059 -25.3104 -1.7925 0.8720
-14.2863 -20.1334 -1.2938 0.9058
-10.4992 -19.3788 -1.1551 0.9155
5.0755 -47.4635 -2.5016 0.8260
16.2669 -44.8768 -2.5016 0.8260
21.5482 -42.5936 -2.5016 0.8260
29.2073 -34.0096 -2.3494 0.8356
32.6844 -29.8804 -2.3208 0.8375
41.6522 -16.5776 -2.3494 0.8356
47.2831 -6.5458 -2.5016 0.8260
47.7272 -0.8093 -2.5016 0.8260
27.9477 14.0380 -1.6391 0.8823
13.6780 9.0810 -0.8604 0.9364
10.0783 8.6050 -0.6945 0.9483
6.1863 8.6129 -0.5557 0.9584
3.4325 8.5527 -0.4830 0.9638
1.2267 8.6775 -0.4593 0.9655
0.1722 8.6840 -0.4552 0.9658
-0.8788 8.6904 -0.4578 0.9656
-1.9544 8.6830 -0.4664 0.9650
-3.0760 8.6407 -0.4807 0.9639
-4.2925 8.6073 -0.5041 0.9622
-5.7535 8.7204 -0.5475 0.9590
-7.4110 8.7306 -0.6002 0.9552
-15.6782 8.6700 -0.9389 0.9308
-21.1114 8.5432 -1.1936 0.9128
-44.8950 6.4783 -2.3772 0.8339
-45.1644 1.0256 -2.3676 0.8345
-44.7973 -4.4000 -2.3590 0.8350
-42.9244 -15.1419 -2.3854 0.8333
-42.7778 -21.1803 -2.5016 0.8260
-39.9187 -26.1733 -2.5016 0.8260
-36.4796 -30.7861 -2.5016 0.8260
-30.5326 -32.8251 -2.3494 0.8356
-10.8753 -19.5336 -1.1717 0.9143
10.2140 -46.6285 -2.5016 0.8260
24.4730 -37.5605 -2.3494 0.8356
39.1056 -21.9197 -2.3494 0.8356
47.2048 -7.0889 -2.5016 0.8260
47.7148 -1.3577 -2.5016 0.8260
43.8190 9.4667 -2.3494 0.8356
13.7876 8.9272 -0.8608 0.9363
6.3445 8.6222 -0.5610 0.9580
4.8471 8.5895 -0.5169 0.9613
3.5494 8.5581 -0.4856 0.9636
0.2721 8.6834 -0.4553 0.9658
-0.7779 8.6898 -0.4572 0.9657
-2.9643 8.6401 -0.4787 0.9641
-4.1725 8.6132 -0.5016 0.9624
-14.8532 23.0854 -1.4386 0.8959
-9.2371 8.7418 -0.6665 0.9503
-11.8305 8.7577 -0.7714 0.9427
-15.2901 8.6863 -0.9216 0.9320
28.4869 2.4703 -2.5016 0.8915
26.2803 5.5221 -2.3494 0.8978
25.1885 8.5635 -2.3276 0.8987
13.8417 8.8514 -1.4374 0.9362
10.4548 8.6208 -1.1855 0.9470
4.9098 8.5867 -0.8654 0.9611
3.5981 8.5387 -0.8107 0.9635
2.4683 8.6424 -0.7863 0.9646
1.3788 8.6766 -0.7686 0.9653
-0.7284 8.6895 -0.7629 0.9656
-1.8000 8.6903 -0.7764 0.9650
-4.1034 8.5943 -0.8332 0.9625
-5.4242 8.5362 -0.8848 0.9602
-11.6904 8.7569 -1.2779 0.9430
-19.8777 8.4437 -1.8895 0.9169
-22.6516 3.6664 -2.0076 0.9120
-26.8328 1.0701 -2.3494 0.8978
-25.8388 -12.2460 -2.5016 0.8915
-22.1653 -18.0640 -2.5016 0.8915
-15.5344 -20.6147 -2.2583 0.9015
-11.2342 -19.3879 -1.9604 0.9140
-8.1658 -19.0713 -1.8150 0.9201
-5.8206 -19.9450 -1.8177 0.9200
-3.4158 -20.7258 -1.8377 0.9191
2.0892 -26.7728 -2.3494 0.8978
5.6384 -28.0324 -2.5016 0.8915
15.1963 -24.2214 -2.5016 0.8915
18.0002 -22.2171 -2.5016 0.8915
20.5425 -19.8900 -2.5016 0.8915
24.6992 -14.4068 -2.5016 0.8915
27.4257 -8.0894 -2.5016 0.8915
28.5641 -1.3035 -2.5016 0.8915
24.3574 11.3729 -2.3518 0.8977
13.9507 8.6968 -1.4383 0.9361
10.7013 8.6193 -1.2022 0.9463
5.0454 8.5931 -0.8718 0.9608
1.4811 8.6759 -0.7700 0.9653
0.4212 8.6824 -0.7605 0.9657
-8.9234 8.7399 -1.0928 0.9511
-11.4123 8.7552 -1.2584 0.9439
-14.5631 8.6071 -1.4800 0.9343
-19.3968 8.5039 -1.8529 0.9185
-23.9410 7.2114 -2.1875 0.9045
-26.8188 1.3784 -2.3494 0.8978
-25.9778 -11.9481 -2.5016 0.8915
-11.5582 -19.4288 -1.9778 0.9132
-8.4090 -19.0316 -1.8203 0.9199
-6.1958 -20.3575 -1.8617 0.9181
-3.6400 -20.6069 -1.8308 0.9194
-1.1891 -21.9067 -1.9194 0.9157
5.3158 -28.0953 -2.5016 0.8915
17.7436 -22.4226 -2.5016 0.8915
22.5863 -17.5346 -2.5016 0.8915
26.1212 -11.6314 -2.5016 0.8915
27.3309 -8.4041 -2.5016 0.8915
28.1435 -5.0547 -2.5016 0.8915
28.5472 -1.6318 -2.5016 0.8915
26.4003 4.9165 -2.3494 0.8978
25.6169 8.0572 -2.3494 0.8978
5.1830 8.5995 -0.8784 0.9605
3.8364 8.5493 -0.8198 0.9631
2.6408 8.5009 -0.7788 0.9649
1.5839 8.6753 -0.7715 0.9652
-0.5275 8.6883 -0.7615 0.9657
-2.6929 8.6484 -0.7925 0.9643
-5.1559 8.5417 -0.8729 0.9607
-18.8886 8.5413 -1.8136 0.9201
-23.9365 7.5112 -2.1949 0.9042
-26.4035 4.8990 -2.3494 0.8978
-23.5236 1.4803 -2.0621 0.9097
-26.8094 -1.5503 -2.3494 0.8978
-28.1401 -5.0733 -2.5016 0.8915
-27.3253 -8.4222 -2.5016 0.8915
-26.1135 -11.6487 -2.5016 0.8915
-22.5747 -17.5496 -2.5016 0.8915
-19.2022 -19.0500 -2.3664 0.8971
-11.8880 -19.4704 -1.9959 0.9125
-8.6879 -19.0668 -1.8331 0.9193
-3.8625 -20.4889 -1.8241 0.9197
1.4732 -26.8137 -2.3494 0.8978
8.3436 -27.3494 -2.5016 0.8915
11.5736 -26.1468 -2.5016 0.8915
17.4847 -22.6250 -2.5016 0.8915
22.3833 -17.7931 -2.5016 0.8915
24.3615 -14.9708 -2.5016 0.8915
25.9858 -11.9309 -2.5016 0.8915
28.0835 -5.3779 -2.5016 0.8915
28.5266 -1.9598 -2.5016 0.8915
26.4550 4.6127 -2.3494 0.8978
11.2156 8.6161 -1.2374 0.9448
2.7481 8.5003 -0.7816 0.9648
0.6215 8.6812 -0.7615 0.9657
-0.4273 8.6877 -0.7610 0.9657
-1.4868 8.6745 -0.7700 0.9653
-2.5857 8.6534 -0.7901 0.9644
-3.7528 8.6117 -0.8219 0.9630
-5.0267 8.5482 -0.8676 0.9610
-6.6637 8.7260 -0.9606 0.9569
-8.5199 8.7374 -1.0677 0.9522
-10.8807 8.7519 -1.2217 0.9455
-13.9470 8.6816 -1.4373 0.9362
-18.4851 8.6161 -1.7843 0.9214
-23.9347 7.8140 -2.2028 0.9038
-26.8254 -1.2421 -2.3494 0.8978
-28.1966 -4.7496 -2.5016 0.8915
-26.2456 -11.3478 -2.5016 0.8915
-20.4129 -19.7907 -2.4874 0.8921
-12.2240 -19.5127 -2.0145 0.9117
-8.9707 -19.1025 -1.8464 0.9188
-6.4136 -19.4557 -1.7923 0.9210
-4.0834 -20.3717 -1.8177 0.9200
1.1650 -26.8289 -2.3494 0.8978
17.2234 -22.8245 -2.5016 0.8915
24.1878 -15.2498 -2.5016 0.8915
25.8469 -12.2288 -2.5016 0.8915
24.7097 10.5156 -2.3494 0.8978
15.1480 8.7327 -1.5297 0.9322
11.4844 8.6145 -1.2560 0.9440
9.0039 8.6297 -1.0911 0.9512
7.0744 8.6416 -0.9771 0.9561
5.4648 8.6127 -0.8924 0.9599
4.0802 8.5602 -0.8296 0.9626
2.8581 8.5053 -0.7850 0.9646
-0.3272 8.6871 -0.7606 0.9657
-2.4791 8.6584 -0.7880 0.9645
-3.6380 8.6173 -0.8184 0.9631
-4.8990 8.5546 -0.8625 0.9612
-6.5056 8.7250 -0.9522 0.9572
-8.3250 8.7362 -1.0558 0.9527
-13.6751 8.7321 -1.4195 0.9369
-27.5117 -7.7919 -2.5016 0.8915
-24.8538 -14.1384 -2.5016 0.8915
-22.9721 -17.0261 -2.5016 0.8915
-20.7350 -19.6458 -2.4990 0.8916
-17.1301 -20.6811 -2.3494 0.8978
-12.5664 -19.5559 -2.0337 0.9109
-9.2577 -19.1387 -1.8600 0.9182
7.7128 -27.5340 -2.5016 0.8915
14.0670 -24.8943 -2.5016 0.8915
19.6066 -20.8132 -2.5016 0.8915
24.0109 -15.5268 -2.5016 0.8915
27.0249 -9.3414 -2.5016 0.8915
28.4740 -2.6150 -2.5016 0.8915
28.5818 0.8299 -2.5016 0.8915
28.2424 4.2579 -2.4988 0.8916
25.8795 7.1692 -2.3494 0.8978
23.5091 13.1953 -2.3586 0.8974
9.2123 8.6284 -1.1043 0.9506
7.2410 8.6405 -0.9863 0.9557
4.2043 8.5658 -0.8348 0.9624
1.8947 8.6734 -0.7767 0.9650
-2.3731 8.6634 -0.7859 0.9646
-6.3501 8.7241 -0.9440 0.9576
-8.1344 8.7350 -1.0443 0.9532
-10.3790 8.7488 -1.1876 0.9470
-27.5994 -7.4751 -2.5016 0.8915
-25.0147 -13.8518 -2.5016 0.8915
-12.9154 -19.5999 -2.0536 0.9101
-4.5438 -20.2422 -1.8150 0.9201
-2.1512 -21.3964 -1.8814 0.9173
10.6653 -26.5303 -2.5016 0.8915
16.6943 -23.2144 -2.5016 0.8915
21.7565 -18.5542 -2.5016 0.8915
23.8308 -15.8018 -2.5016 0.8915
25.5590 -12.8197 -2.5016 0.8915
28.5894 0.5012 -2.5016 0.8915
28.3214 3.9374 -2.5016 0.8915
7.4108 8.6395 -0.9958 0.9553
4.3299 8.5712 -0.8401 0.9622
0.9230 8.6794 -0.7636 0.9656
-4.6480 8.5672 -0.8527 0.9616
-6.1973 8.7231 -0.9362 0.9579
-7.9478 8.7339 -1.0331 0.9537
-10.1384 8.7473 -1.1715 0.9477
-22.8648 8.3475 -2.1296 0.9069
-26.1683 6.1116 -2.3510 0.8977
-20.9313 2.2869 -1.8421 0.9189
-26.8523 -0.3164 -2.3494 0.8978
-25.1722 -13.5634 -2.5016 0.8915
-23.3574 -16.4935 -2.5016 0.8915
-21.2033 -19.1840 -2.5016 0.8915
-17.6009 -20.2819 -2.3494 0.8978
-13.2712 -19.6448 -2.0741 0.9092
-4.7762 -20.1887 -1.8150 0.9201
-2.3860 -21.2719 -1.8727 0.9176
3.3627 -25.8174 -2.2781 0.9007
7.0778 -27.7040 -2.5016 0.8915
10.3596 -26.6512 -2.5016 0.8915
13.4909 -25.2111 -2.5016 0.8915
27.8067 -6.6630 -2.5016 0.8915
28.4063 -3.2690 -2.5016 0.8915
28.3648 3.6117 -2.5016 0.8915
12.3419 8.6092 -1.3165 0.9414
9.6445 8.6258 -1.1320 0.9494
4.4538 8.5701 -0.8450 0.9620
3.1942 8.5205 -0.7961 0.9641
1.0240 8.6787 -0.7646 0.9655
-1.0813 8.6917 -0.7663 0.9654
-2.1628 8.6733 -0.7820 0.9647
-6.0470 8.7222 -0.9285 0.9583
-9.9042 8.7459 -1.1560 0.9483
-12.7337 8.7633 -1.3524 0.9398
-22.2893 2.6949 -1.9643 0.9138
-26.8542 -0.0078 -2.3494 0.8978
-28.3851 -3.4485 -2.5016 0.8915
-25.3265 -13.2731 -2.5016 0.8915
-23.5455 -16.2239 -2.5016 0.8915
-10.1452 -19.2506 -1.9038 0.9163
-7.3185 -19.1862 -1.7965 0.9209
-5.0080 -20.1324 -1.8150 0.9201
-1.9987 -16.1414 -1.4230 0.9368
3.0482 -25.7068 -2.2648 0.9013
6.7588 -27.7835 -2.5016 0.8915
10.0525 -26.7685 -2.5016 0.8915
18.8774 -21.4767 -2.5016 0.8915
23.4613 -16.3454 -2.5016 0.8915
26.6868 -10.2676 -2.5016 0.8915
28.3669 -3.5952 -2.5016 0.8915
28.5934 -0.1561 -2.5016 0.8915
28.4044 3.2853 -2.5016 0.8915
26.1113 6.2727 -2.3494 0.8978
25.1669 9.3687 -2.3494 0.8978
23.9186 12.3606 -2.3555 0.8975
7.7607 8.6373 -1.0159 0.9544
6.0568 8.6405 -0.9232 0.9585
1.1252 8.6781 -0.7656 0.9655
-7.5863 8.7317 -1.0120 0.9546
-12.4228 8.7614 -1.3300 0.9408
-20.8229 8.1492 -1.9563 0.9141
-28.4229 -3.1220 -2.5016 0.8915
-27.8407 -6.5191 -2.5016 0.8915
-26.8542 -9.8214 -2.5016 0.8915
-21.6388 -18.6915 -2.5016 0.8915
-18.0626 -19.8718 -2.3494 0.8978
-14.1104 -19.8854 -2.1332 0.9067
-10.4506 -19.2891 -1.9193 0.9157
-7.5525 -19.1358 -1.7998 0.9207
-5.2840 -20.2458 -1.8306 0.9194
-0.3431 -24.3676 -2.1321 0.9068
9.7443 -26.8822 -2.5016 0.8915
18.6292 -21.6923 -2.5016 0.8915
25.1018 -13.6933 -2.5016 0.8915
27.6462 -7.3004 -2.5016 0.8915
28.3237 -3.9211 -2.5016 0.8915
28.5897 -0.4848 -2.5016 0.8915
28.4403 2.9586 -2.5016 0.8915
26.1817 5.9721 -2.3494 0.8978
25.2729 9.0788 -2.3494 0.8978
24.0484 12.0794 -2.3545 0.8976
6.1863 8.6129 -0.9278 0.9583
4.7111 8.5774 -0.8562 0.9615
1.2267 8.6775 -0.7667 0.9654
0.1722 8.6840 -0.7599 0.9657
-0.8788 8.6904 -0.7642 0.9655
-1.9544 8.6830 -0.7787 0.9649
-5.7535 8.7204 -0.9140 0.9589
-12.1218 8.7595 -1.3084 0.9417
-15.4573 8.5478 -1.5453 0.9315
-25.9705 7.0179 -2.3536 0.8976
-26.8472 0.6096 -2.3494 0.8978
-28.4165 -2.7911 -2.4981 0.8917
-27.9139 -6.1986 -2.5016 0.8915
-26.9653 -9.5122 -2.5016 0.8915
-10.7610 -19.3282 -1.9354 0.9150
-7.8251 -19.1784 -1.8122 0.9202
2.5482 -26.7330 -2.3494 0.8978
9.4346 -26.9925 -2.5016 0.8915
15.6096 -23.9572 -2.5016 0.8915
18.3786 -21.9051 -2.5016 0.8915
24.9427 -13.9810 -2.5016 0.8915
26.4436 -10.8784 -2.5016 0.8915
24.1749 11.7970 -2.3534 0.8976
10.3359 8.6215 -1.1776 0.9474
6.3445 8.6222 -0.9366 0.9579
-0.7779 8.6898 -0.7633 0.9656
-1.8508 8.6879 -0.7771 0.9650
-4.1619 8.5914 -0.8352 0.9624
-11.8304 8.7577 -1.2878 0.9426
-15.0893 8.5722 -1.5183 0.9327
19.6068 -5.5390 -2.5016 0.9212
20.1308 -3.1397 -2.5016 0.9212
20.3623 -0.6948 -2.5016 0.9212
19.6532 4.1296 -2.4658 0.9223
8.0196 2.7265 -1.0400 0.9664
17.2436 8.2941 -2.3494 0.9258
13.8417 8.8514 -2.0173 0.9359
3.5800 8.4956 -1.1320 0.9635
2.4683 8.6424 -1.1036 0.9644
1.3788 8.6766 -1.0787 0.9652
0.3213 8.6831 -1.0669 0.9656
-0.7284 8.6895 -1.0707 0.9655
-2.9017 8.6161 -1.1163 0.9640
-7.1557 8.7290 -1.3859 0.9555
-11.6904 8.7569 -1.7934 0.9428
-17.6116 7.4811 -2.3494 0.9258
-18.3837 5.3078 -2.3494 0.9258
-18.8888 3.0573 -2.3494 0.9258
-20.3580 0.8118 -2.5016 0.9212
-20.3078 -1.6435 -2.5016 0.9212
-19.9625 -4.0749 -2.5016 0.9212
-19.3272 -6.4471 -2.5016 0.9212
-17.2275 -10.8775 -2.5016 0.9212
-14.1303 -14.6780 -2.5016 0.9212
-11.9003 -15.7920 -2.4279 0.9234
-9.5933 -16.5560 -2.3494 0.9258
4.0175 -19.9741 -2.5016 0.9212
6.3916 -19.3457 -2.5016 0.9212
12.8258 -15.8305 -2.5016 0.9212
16.2362 -12.3083 -2.5016 0.9212
19.5418 -5.7640 -2.5016 0.9212
20.3530 -0.9288 -2.5016 0.9212
20.3169 1.5267 -2.5016 0.9212
8.0472 2.6331 -1.0396 0.9665
17.3378 8.0953 -2.3494 0.9258
13.9507 8.6968 -2.0185 0.9359
10.7013 8.6193 -1.6872 0.9461
8.4073 8.6334 -1.4796 0.9526
6.5924 8.6445 -1.3348 0.9571
3.6974 8.4998 -1.1381 0.9633
2.5159 8.4402 -1.0814 0.9651
0.4212 8.6824 -1.0673 0.9656
-0.6278 8.6889 -1.0696 0.9655
-1.6892 8.6556 -1.0828 0.9651
-5.2285 8.4411 -1.2191 0.9608
-6.9886 8.7280 -1.3729 0.9559
-8.9234 8.7399 -1.5336 0.9509
-14.5119 8.5768 -2.0698 0.9343
-18.3215 5.5187 -2.3494 0.9258
-20.3214 1.0444 -2.4985 0.9213
-20.0081 -3.8452 -2.5016 0.9212
-18.5102 -8.5135 -2.5016 0.9212
-15.9405 -12.6889 -2.5016 0.9212
-12.2658 -15.8936 -2.4651 0.9223
-7.7333 -17.5023 -2.3494 0.9258
-5.5713 -18.3056 -2.3494 0.9258
-3.3284 -18.8429 -2.3494 0.9258
-1.0370 -19.1065 -2.3494 0.9258
1.2693 -19.0925 -2.3494 0.9258
12.6430 -15.9769 -2.5016 0.9212
18.6124 -8.2878 -2.5016 0.9212
20.3410 -1.1627 -2.5016 0.9212
20.3331 1.2931 -2.5016 0.9212
8.1263 2.5559 -1.0460 0.9663
14.7428 8.9569 -2.1181 0.9328
10.9547 8.6177 -1.7114 0.9454
5.1529 8.5495 -1.2257 0.9606
3.8160 8.5041 -1.1445 0.9631
1.5839 8.6753 -1.0828 0.9651
-0.5275 8.6883 -1.0687 0.9655
-3.4950 19.0717 -2.3807 0.9248
-5.1150 8.4739 -1.2153 0.9609
-6.8247 8.7270 -1.3603 0.9563
-8.7193 8.7386 -1.5157 0.9515
-11.1425 8.7535 -1.7398 0.9445
-14.2258 8.6299 -2.0430 0.9351
-18.8135 3.4907 -2.3494 0.9258
-20.2800 1.2762 -2.4950 0.9214
-20.0509 -3.6150 -2.5016 0.9212
-19.4703 -6.0012 -2.5016 0.9212
-18.6068 -8.3002 -2.5016 0.9212
-17.4730 -10.4786 -2.5016 0.9212
-9.9714 -16.3311 -2.3494 0.9258
-7.9340 -17.4122 -2.3494 0.9258
-5.7814 -18.2403 -2.3494 0.9258
-3.5448 -18.8034 -2.3494 0.9258
1.0497 -19.1058 -2.3494 0.9258
3.5573 -20.0612 -2.5016 0.9212
8.2466 -18.6306 -2.5016 0.9212
10.4284 -17.5030 -2.5016 0.9212
19.4042 -6.2117 -2.5016 0.9212
20.0106 -3.8319 -2.5016 0.9212
20.3263 -1.3965 -2.5016 0.9212
20.3466 1.0593 -2.5016 0.9212
8.0048 3.5158 -1.0735 0.9654
14.7756 8.7459 -2.1082 0.9331
11.2156 8.6161 -1.7366 0.9446
6.9108 8.6426 -1.3587 0.9564
3.9361 8.5083 -1.1511 0.9629
1.6870 8.6747 -1.0851 0.9650
-0.4273 8.6877 -1.0680 0.9656
-1.4868 8.6745 -1.0806 0.9652
-4.9935 8.4918 -1.2096 0.9611
-6.6637 8.7260 -1.3481 0.9567
-8.5199 8.7374 -1.4984 0.9520
-10.8807 8.7519 -1.7145 0.9453
-18.1898 5.9384 -2.3494 0.9258
-18.7721 3.7067 -2.3494 0.9258
-20.3524 -0.9424 -2.5016 0.9212
-20.0912 -3.3843 -2.5016 0.9212
-18.7010 -8.0858 -2.5016 0.9212
-17.5923 -10.2771 -2.5016 0.9212
-12.7966 -15.8160 -2.4980 0.9213
-1.4760 -19.0776 -2.3494 0.9258
0.8301 -19.1166 -2.3494 0.9258
5.7208 -19.5545 -2.5016 0.9212
8.0320 -18.7242 -2.5016 0.9212
10.2265 -17.6218 -2.5016 0.9212
12.2724 -16.2633 -2.5016 0.9212
14.1400 -14.6686 -2.5016 0.9212
15.8022 -12.8607 -2.5016 0.9212
17.2347 -10.8661 -2.5016 0.9212
18.4169 -8.7135 -2.5016 0.9212
19.9652 -4.0617 -2.5016 0.9212
20.3575 0.8253 -2.5016 0.9212
13.0837 2.1266 -1.6276 0.9480
8.2949 2.4009 -1.0603 0.9658
7.9826 3.3971 -1.0652 0.9656
9.0039 8.6297 -1.5313 0.9510
7.0744 8.6416 -1.3713 0.9560
0.7218 8.6806 -1.0695 0.9655
-0.3272 8.6871 -1.0674 0.9656
-3.6200 8.5747 -1.1428 0.9632
-8.3250 8.7362 -1.4817 0.9525
-10.6263 8.7503 -1.6902 0.9460
-18.7283 3.9223 -2.3494 0.9258
-20.3619 -0.7083 -2.5016 0.9212
-20.1287 -3.1531 -2.5016 0.9212
-19.6031 -5.5521 -2.5016 0.9212
-17.7093 -10.0742 -2.5016 0.9212
-10.3442 -16.0976 -2.3494 0.9258
-8.3322 -17.2252 -2.3494 0.9258
-6.1992 -18.1026 -2.3494 0.9258
-3.9761 -18.7170 -2.3494 0.9258
-1.6952 -19.0594 -2.3494 0.9258
5.4957 -19.6190 -2.5016 0.9212
7.8162 -18.8153 -2.5016 0.9212
10.0232 -17.7381 -2.5016 0.9212
13.9704 -14.8302 -2.5016 0.9212
15.6533 -13.0416 -2.5016 0.9212
17.1087 -11.0635 -2.5016 0.9212
18.3155 -8.9246 -2.5016 0.9212
19.2563 -6.6561 -2.5016 0.9212
20.1465 3.0373 -2.5016 0.9212
8.3812 2.3218 -1.0678 0.9656
7.9539 3.2775 -1.0563 0.9659
9.2123 8.6284 -1.5498 0.9504
7.2410 8.6405 -1.3842 0.9556
1.8947 8.6734 -1.0901 0.9649
-0.2272 8.6864 -1.0669 0.9656
-2.3683 8.6458 -1.1007 0.9645
-3.5071 8.5813 -1.1383 0.9633
-8.1344 8.7350 -1.4656 0.9530
-13.3342 8.7318 -1.9570 0.9378
-19.0441 1.8595 -2.3494 0.9258
-20.3687 -0.4742 -2.5016 0.9212
-20.1636 -2.9215 -2.5016 0.9212
-19.6657 -5.3263 -2.5016 0.9212
-18.8819 -7.6537 -2.5016 0.9212
-17.8239 -9.8699 -2.5016 0.9212
-14.9501 -13.8421 -2.5016 0.9212
-8.5296 -17.1283 -2.3494 0.9258
-4.1909 -18.6700 -2.3494 0.9258
5.2698 -19.6809 -2.5016 0.9212
9.8187 -17.8522 -2.5016 0.9212
13.7991 -14.9898 -2.5016 0.9212
15.5023 -13.2206 -2.5016 0.9212
16.9804 -11.2594 -2.5016 0.9212
19.1785 -6.8770 -2.5016 0.9212
19.8666 -4.5196 -2.5016 0.9212
20.2660 -2.0964 -2.5016 0.9212
20.3711 0.3571 -2.5016 0.9212
20.1801 2.8055 -2.5016 0.9212
8.6192 2.2813 -1.0947 0.9647
7.9474 3.1684 -1.0505 0.9661
12.0471 8.6110 -1.8182 0.9421
9.4258 8.6271 -1.5689 0.9498
7.4108 8.6395 -1.3976 0.9552
-0.1273 8.6858 -1.0666 0.9656
-7.9478 8.7339 -1.4499 0.9535
-13.0554 8.7653 -1.9308 0.9386
-17.0541 8.6770 -2.3494 0.9258
-17.9742 6.5621 -2.3494 0.9258
-18.6332 4.3518 -2.3494 0.9258
-19.0214 2.0783 -2.3494 0.9258
-20.3728 -0.2400 -2.5016 0.9212
-20.1959 -2.6895 -2.5016 0.9212
-19.7256 -5.0999 -2.5016 0.9212
-17.9362 -9.6644 -2.5016 0.9212
-15.1082 -13.6694 -2.5016 0.9212
-13.3537 -15.3878 -2.5016 0.9212
-8.7259 -17.0292 -2.3494 0.9258
2.4919 -19.1320 -2.3690 0.9252
9.6128 -17.9639 -2.5016 0.9212
13.6258 -15.1474 -2.5016 0.9212
15.3493 -13.3980 -2.5016 0.9212
18.1055 -9.3433 -2.5016 0.9212
19.0982 -7.0970 -2.5016 0.9212
19.8133 -4.7477 -2.5016 0.9212
20.2110 2.5734 -2.5016 0.9212
12.3419 8.6092 -1.8477 0.9412
9.6445 8.6258 -1.5887 0.9492
4.4306 8.5254 -1.1797 0.9620
-2.1588 8.6572 -1.0955 0.9647
-4.4976 8.5223 -1.1832 0.9619
-6.0470 8.7222 -1.3032 0.9581
-7.7652 8.7328 -1.4348 0.9540
-16.9533 8.8724 -2.3494 0.9258
-17.8976 6.7682 -2.3494 0.9258
-18.9963 2.2967 -2.3494 0.9258
-20.2255 -2.4572 -2.5016 0.9212
-19.0529 -7.2177 -2.5016 0.9212
-6.8196 -17.8781 -2.3494 0.9258
-4.6190 -18.5688 -2.3494 0.9258
-0.0495 -19.1346 -2.3494 0.9258
2.2531 -19.0015 -2.3494 0.9258
4.8159 -19.7968 -2.5016 0.9212
7.1628 -19.0736 -2.5016 0.9212
9.4057 -18.0732 -2.5016 0.9212
11.5119 -16.8102 -2.5016 0.9212
17.9970 -9.5507 -2.5016 0.9212
19.0153 -7.3160 -2.5016 0.9212
19.7574 -4.9750 -2.5016 0.9212
20.2125 -2.5617 -2.5016 0.9212
18.8430 4.5266 -2.3795 0.9249
3.2926 8.4851 -1.1175 0.9640
1.4593 5.7256 -0.7255 0.9765
0.0724 8.6846 -1.0664 0.9656
-0.9799 8.6911 -1.0739 0.9654
-2.0548 8.6629 -1.0932 0.9648
-7.5863 8.7317 -1.4202 0.9545
-12.4228 8.7614 -1.8665 0.9406
-16.8548 9.0692 -2.3501 0.9258
-17.8186 6.9735 -2.3494 0.9258
-18.5282 4.7789 -2.3494 0.9258
-20.3729 0.2283 -2.5016 0.9212
-19.8376 -4.6451 -2.5016 0.9212
-16.9089 -11.3666 -2.5016 0.9212
-13.7040 -15.0767 -2.5016 0.9212
-11.0731 -15.6051 -2.3494 0.9258
-2.1712 -16.0227 -1.9853 0.9369
-0.2694 -19.1327 -2.3494 0.9258
2.0346 -19.0262 -2.3494 0.9258
4.5881 -19.8509 -2.5016 0.9212
17.8860 -9.7570 -2.5016 0.9212
19.6989 -5.2018 -2.5016 0.9212
20.1817 -2.7939 -2.5016 0.9212
7.9894 2.8700 -1.0423 0.9664
10.0783 8.6050 -1.6272 0.9480
4.6873 8.5341 -1.1955 0.9615
3.4070 8.4893 -1.1232 0.9638
1.2267 8.6775 -1.0761 0.9653
0.1722 8.6840 -1.0665 0.9656
-1.9511 8.6684 -1.0910 0.9648
-3.0640 8.6069 -1.1218 0.9639
-14.1235 13.0617 -2.3621 0.9254
-12.1218 8.7595 -1.8363 0.9415
-18.4721 4.9916 -2.3494 0.9258
-20.2766 -1.9916 -2.5016 0.9212
-19.8897 -4.4167 -2.5016 0.9212
-19.2138 -6.7778 -2.5016 0.9212
-15.5705 -13.1403 -2.5016 0.9212
-11.3745 -15.6457 -2.3751 0.9250
-9.3079 -16.7182 -2.3494 0.9258
-6.1708 -15.1238 -2.0056 0.9363
-2.7872 -18.9305 -2.3494 0.9258
-0.4893 -19.1284 -2.3494 0.9258
4.3596 -19.9023 -2.5016 0.9212
13.0955 -15.6082 -2.5016 0.9212
17.7726 -9.9620 -2.5016 0.9212
18.8421 -7.7513 -2.5016 0.9212
20.1483 -3.0257 -2.5016 0.9212
20.3659 -0.5795 -2.5016 0.9212
8.0098 2.7738 -1.0408 0.9664
17.1964 8.3916 -2.3494 0.9258
13.7876 8.9272 -2.0168 0.9359
3.5226 8.4935 -1.1290 0.9636
2.4210 8.6620 -1.1043 0.9644
1.3285 8.6769 -1.0778 0.9652
0.2721 8.6834 -1.0667 0.9656
-0.7779 8.6898 -1.0712 0.9655
-1.8478 8.6739 -1.0889 0.9649
-2.9550 8.6131 -1.1181 0.9640
-4.1389 8.5440 -1.1657 0.9625
-7.2391 8.7295 -1.3924 0.9553
-11.8304 8.7577 -1.8073 0.9424
15.1998 -4.2940 -2.5016 0.9380
15.6060 -2.4340 -2.5016 0.9380
15.7356 1.3645 -2.5016 0.9380
12.4970 7.9915 -2.3494 0.9417
6.4373 8.6455 -1.7072 0.9573
4.8359 8.4575 -1.5431 0.9613
3.5473 8.4180 -1.4468 0.9637
1.3788 8.6766 -1.3915 0.9650
-0.7284 8.6895 -1.3811 0.9653
-2.8768 8.5422 -1.4276 0.9642
-4.0446 8.4711 -1.4868 0.9627
-5.2344 8.2376 -1.5458 0.9612
-9.1324 8.7412 -2.0022 0.9501
-11.8723 8.8932 -2.3494 0.9417
-13.6530 5.7996 -2.3494 0.9417
-14.2516 4.1147 -2.3494 0.9417
-15.7432 -1.2741 -2.5016 0.9380
-15.4756 -3.1590 -2.5016 0.9380
-7.9188 -13.6662 -2.5016 0.9380
-2.4978 -15.1558 -2.4328 0.9397
1.2288 -15.7468 -2.5016 0.9380
3.1145 -15.4846 -2.5016 0.9380
11.3473 -10.9868 -2.5016 0.9380
12.5868 -9.5417 -2.5016 0.9380
13.6434 -7.9580 -2.5016 0.9380
15.1494 -4.4684 -2.5016 0.9380
7.3246 2.3966 -1.2206 0.9693
12.5881 7.8473 -2.3494 0.9417
6.5924 8.6445 -1.7219 0.9569
3.6634 8.4218 -1.4546 0.9635
1.4811 8.6759 -1.3940 0.9650
