ply
format ascii 1.0
element vertex 1572
property float32 x
property float32 y
property float32 z
property float32 I
end_header
-0.8158 8.6900 1.3824 0.9653
-3.0287 8.7036 1.4596 0.9634
-4.2674 8.7112 1.5364 0.9615
-5.6651 8.7198 1.6470 0.9588
-7.3053 8.7299 1.8029 0.9549
-25.5060 -21.2339 5.2564 0.8742
-63.9473 -67.8342 14.7652 0.6855
-8.8762 -31.6570 5.2073 0.8753
-4.8678 -31.6230 5.0676 0.8785
18.9267 -55.2905 9.2560 0.7892
25.2066 -39.2324 7.3858 0.8279
34.9221 -42.1652 8.6714 0.8011
44.5707 -42.2308 9.7248 0.7798
57.1581 -42.3627 11.2683 0.7497
57.4231 -32.6631 10.4633 0.7653
66.1066 13.8581 10.6979 0.7607
41.9695 20.1654 7.3748 0.8281
32.7111 26.9525 6.7131 0.8423
6.4415 8.6454 1.7076 0.9573
3.6530 8.6626 1.4890 0.9626
1.3807 8.6765 1.3915 0.9650
0.2135 5.7403 0.9098 0.9770
-0.7270 8.6895 1.3811 0.9653
-1.8000 8.6961 1.4065 0.9647
-4.1581 8.7106 1.5288 0.9617
-56.8219 54.3878 12.4579 0.7272
-81.2014 46.7351 14.8391 0.6842
-18.2967 -31.6045 5.7840 0.8625
-13.5121 -31.5938 5.4424 0.8701
-3.5247 -83.4042 13.2217 0.7131
26.7680 -80.8637 13.4910 0.7082
19.5179 -41.4255 7.2529 0.8307
24.7674 -39.4219 7.3738 0.8282
34.2041 -42.1610 8.5988 0.8026
57.3686 -33.4062 10.5145 0.7643
57.0343 -24.5637 9.8355 0.7776
67.9521 13.5274 10.9738 0.7553
32.1688 20.0969 6.0076 0.8576
32.7076 26.3976 6.6571 0.8435
32.0579 54.7334 10.0465 0.7735
3.7566 8.6619 1.4954 0.9625
2.5736 8.6692 1.4323 0.9640
1.4709 8.6760 1.3938 0.9650
0.2712 5.7293 0.9085 0.9770
-1.7081 8.6955 1.4036 0.9647
-4.0499 8.7099 1.5214 0.9618
-5.4159 8.7183 1.6256 0.9593
-7.0078 8.7281 1.7728 0.9557
-56.2677 54.9609 12.4579 0.7272
-82.5376 48.6245 15.1725 0.6784
-68.8197 -31.7878 12.0066 0.7356
-82.6382 -51.0467 15.3844 0.6748
-63.5359 -64.7176 14.3643 0.6926
-25.8417 -33.6043 6.7142 0.8422
-13.8916 -31.5914 5.4660 0.8696
-5.5297 -31.6426 5.0877 0.8780
19.2580 -41.9723 7.3141 0.8294
33.6520 -42.3508 8.5675 0.8033
44.3301 -43.7420 9.8638 0.7771
-69.8669 -30.6523 9.3679 0.7353
-25.2776 -31.5921 4.9679 0.8495
-10.8478 -33.5284 4.3269 0.8676
-6.5605 -33.6991 4.2154 0.8708
-6.1406 -85.5702 10.5337 0.7077
20.8727 -47.9056 6.4161 0.8101
23.6023 -40.1409 5.7175 0.8289
41.1171 -42.1655 7.2313 0.7887
53.4079 -42.9554 8.4155 0.7587
56.9560 -35.4485 8.2372 0.7631
61.4946 -4.5696 7.5714 0.7800
11.3414 8.6153 1.7488 0.9442
8.8610 8.5970 1.5159 0.9515
5.4152 8.6517 1.2532 0.9597
4.0623 8.6601 1.1745 0.9622
2.8529 8.6675 1.1204 0.9639
1.7344 8.6744 1.0862 0.9650
0.6672 8.6809 1.0690 0.9655
-2.5510 8.7007 1.1133 0.9641
-3.7417 8.7080 1.1637 0.9625
-6.5935 8.7256 1.3428 0.9569
-8.4336 8.7369 1.4910 0.9522
-65.9006 53.5554 10.4268 0.7102
-83.6490 27.7680 10.8219 0.7010
-20.4500 -32.3074 4.6947 0.8572
-15.9956 -33.6546 4.5753 0.8606
-3.2154 -15.6679 1.9639 0.9376
-7.0127 -85.5648 10.5413 0.7075
22.5911 -39.3283 5.5689 0.8329
30.4997 -40.7905 6.2537 0.8144
56.9013 -36.2198 8.2819 0.7620
57.0038 -27.2705 7.7589 0.7752
61.4828 2.2344 7.5541 0.7804
59.5516 9.4248 7.4030 0.7843
57.7725 16.4626 7.3759 0.7850
45.5182 19.1500 6.0634 0.8195
11.5463 8.5878 1.7669 0.9437
4.1696 8.6594 1.1801 0.9620
0.7557 8.6804 1.0698 0.9655
-0.2937 8.6868 1.0672 0.9656
-2.4553 8.7001 1.1100 0.9642
-3.6373 8.7074 1.1587 0.9627
-4.9478 8.7154 1.2305 0.9604
-6.4549 8.7247 1.3326 0.9572
-8.2632 8.7358 1.4765 0.9527
-10.5465 8.7499 1.6826 0.9463
-81.9953 28.1450 10.6443 0.7051
-26.2875 -31.5225 5.0397 0.8475
-20.4456 -31.5873 4.6200 0.8593
-16.4146 -33.6520 4.5973 0.8599
-11.6520 -33.6680 4.3745 0.8663
24.2713 -87.7003 11.1730 0.6930
50.4162 -42.2606 8.0775 0.7671
56.9994 -27.9818 7.7965 0.7742
63.8573 -22.2815 8.3043 0.7614
61.5948 -5.8348 7.5967 0.7793
57.6384 15.7944 7.3380 0.7860
35.3466 19.7126 4.9693 0.8495
9.2616 8.6281 1.5542 0.9503
5.6615 8.6502 1.2694 0.9592
3.0486 8.6663 1.1280 0.9637
0.8444 8.6798 1.0708 0.9655
-0.2055 8.6863 1.0668 0.9656
-2.3602 8.6995 1.1068 0.9643
-4.8312 8.7147 1.2235 0.9606
-13.3212 8.7669 1.9581 0.9378
-82.0316 8.1904 10.1223 0.7173
-60.1992 -16.1686 7.6535 0.7779
-20.8807 -31.5537 4.6458 0.8586
-7.5699 -15.1281 2.0773 0.9341
-7.6294 -33.6926 4.2417 0.8700
19.9464 -49.8680 6.5947 0.8054
29.6582 -41.3889 6.2519 0.8145
38.8487 -42.3419 7.0556 0.7933
56.9950 -28.7003 7.8353 0.7732
63.9807 -6.7152 7.8990 0.7716
57.6346 15.1670 7.3176 0.7865
9.4507 8.6270 1.5712 0.9497
5.7870 8.6495 1.2778 0.9589
3.1474 8.6657 1.1320 0.9635
-0.1174 8.6857 1.0666 0.9656
-3.4312 8.7061 1.1490 0.9630
-6.1840 8.7230 1.3129 0.9578
-13.0290 8.7651 1.9281 0.9387
-82.8229 42.2337 11.4152 0.6875
-24.1864 2.6628 2.9877 0.9066
-83.1693 -32.5351 10.9655 0.6977
-65.8002 -35.3957 9.1740 0.7400
-27.3823 -31.5139 5.1260 0.8451
-17.2651 -33.6468 4.6434 0.8586
-11.6080 -31.4623 4.1176 0.8736
29.3518 -41.8508 6.2765 0.8138
38.1123 -42.3941 6.9996 0.7947
48.5625 -42.4124 7.9166 0.7712
56.9359 -38.7235 8.4545 0.7577
56.9906 -29.4260 7.8753 0.7722
61.4322 -14.7314 7.7568 0.7752
59.6253 7.5862 7.3801 0.7849
57.2601 14.4494 7.2511 0.7882
51.9688 20.0266 6.8384 0.7990
12.3417 8.6092 1.8476 0.9412
5.9143 8.6487 1.2865 0.9587
4.4979 8.6574 1.1979 0.9614
3.2470 8.6651 1.1362 0.9634
1.0198 8.6577 1.0704 0.9655
-0.0294 8.6852 1.0664 0.9656
-2.1716 8.6984 1.1008 0.9645
-3.3294 8.7055 1.1444 0.9631
-4.6020 8.7133 1.2099 0.9611
-6.0516 8.7222 1.3035 0.9581
-9.9123 8.7459 1.6231 0.9481
-12.7336 8.7551 1.8974 0.9396
-62.1068 -15.3380 7.8549 0.7727
-12.8083 -33.6609 4.4221 0.8649
-4.9368 -40.1578 4.9679 0.8495
19.2110 -51.0045 6.6921 0.8028
27.4742 -40.0308 5.9614 0.8223
37.1527 -42.1789 6.9015 0.7973
47.3890 -42.2419 7.7947 0.7743
60.7334 -42.2130 9.0815 0.7422
56.9885 -30.1605 7.9168 0.7712
63.8438 -24.4788 8.3955 0.7591
63.8958 -16.0089 8.0879 0.7669
61.5134 7.1936 7.6044 0.7791
52.4593 19.6072 6.8764 0.7980
38.9418 20.1905 5.3859 0.8380
7.7387 8.6375 1.4239 0.9543
4.6096 8.6567 1.2042 0.9612
8.3230 64.9794 8.0436 0.7680
0.0587 8.6847 1.0664 0.9656
-0.9941 8.6911 1.0741 0.9654
-2.1906 5.9065 0.7735 0.9749
-4.4893 8.7126 1.2034 0.9613
-9.7107 8.7447 1.6045 0.9487
-12.4704 8.7617 1.8713 0.9404
-28.5493 -31.5419 5.2237 0.8424
-23.3439 -33.0467 4.9679 0.8495
-5.3437 -40.1057 4.9679 0.8495
18.8724 -51.6883 6.7563 0.8011
21.0360 -41.3387 5.6951 0.8295
26.4837 -39.4385 5.8330 0.8258
56.9840 -30.9014 7.9593 0.7701
61.4994 -24.2976 8.1191 0.7661
61.5991 -0.8846 7.5642 0.7801
61.6892 6.5808 7.6175 0.7788
54.3692 19.6954 7.1002 0.7921
10.0437 8.6233 1.6254 0.9480
6.1741 8.6471 1.3046 0.9581
2.2896 8.6710 1.1012 0.9645
1.1985 8.6593 1.0734 0.9654
-5.7921 8.7206 1.2854 0.9587
-12.2032 8.7600 1.8444 0.9413
-82.7764 45.4328 11.5939 0.6835
-79.9026 -52.7793 11.7579 0.6798
-29.1331 -31.5383 5.2717 0.8411
-23.6777 -32.8083 4.9679 0.8495
-18.5742 -33.6388 4.7181 0.8565
-5.7499 -40.0495 4.9679 0.8495
20.7554 -41.8310 5.7337 0.8285
26.0346 -39.6319 5.8222 0.8261
56.9794 -31.6505 8.0031 0.7690
63.8873 -17.3905 8.1298 0.7658
63.9368 -9.3450 7.9339 0.7707
64.0322 6.1750 7.8986 0.7716
56.1094 19.6847 7.3010 0.7869
32.1745 21.0192 4.7188 0.8565
10.2507 8.6220 1.6447 0.9475
8.0585 8.6355 1.4503 0.9535
3.5503 8.6632 1.1496 0.9630
2.3838 8.6704 1.1041 0.9644
0.2348 8.6836 1.0666 0.9656
-0.8158 8.6900 1.0717 0.9654
-1.8922 8.6967 1.0928 0.9648
-3.0287 8.7036 1.1315 0.9635
-4.2674 8.7112 1.1911 0.9617
-5.6651 8.7198 1.2768 0.9590
-7.3053 8.7299 1.3977 0.9552
-9.3209 8.7423 1.5691 0.9498
-11.9435 8.7584 1.8185 0.9421
-40.7816 -8.7652 5.1217 0.8453
-67.9746 -33.0853 9.2824 0.7374
-9.4439 -33.6815 4.2951 0.8685
-6.1556 -39.9891 4.9679 0.8495
20.3904 -42.1635 5.7506 0.8280
25.5234 -39.7255 5.7977 0.8267
34.9221 -42.1652 6.7223 0.8020
57.1581 -42.3627 8.7355 0.7507
58.6884 -24.5739 7.8122 0.7738
61.4636 -9.6208 7.6387 0.7782
64.0769 13.4326 8.0387 0.7681
57.2909 19.4493 7.4287 0.7836
41.9695 20.1655 5.7172 0.8289
10.4626 8.6207 1.6645 0.9468
8.2228 8.6345 1.4640 0.9531
6.4415 8.6454 1.3238 0.9575
3.6530 8.6626 1.1543 0.9628
1.3807 8.6765 1.0787 0.9652
0.2135 5.7403 0.7053 0.9771
-0.7270 8.6895 1.0707 0.9655
-1.8000 8.6961 1.0904 0.9648
-4.1581 8.7106 1.1851 0.9618
-11.6910 8.7569 1.7935 0.9428
-85.3792 49.1396 12.0956 0.6723
-52.9608 -25.1171 7.1970 0.7896
-30.3337 -31.5309 5.3722 0.8383
-13.5121 -31.5938 4.2191 0.8707
-6.5418 -39.8100 4.9536 0.8499
-3.5589 -84.2131 10.3493 0.7120
34.2040 -42.1609 6.6660 0.8035
55.7559 -42.2058 8.5862 0.7544
57.0343 -24.5638 7.6248 0.7786
61.3581 -18.0458 7.8529 0.7728
64.4244 4.8972 7.9331 0.7708
57.2869 18.8025 7.4031 0.7843
32.1688 20.0970 4.6573 0.8582
10.6798 8.6194 1.6851 0.9462
31.8802 54.4301 7.7451 0.7755
3.7566 8.6619 1.1593 0.9627
2.5736 8.6692 1.1104 0.9642
1.4709 8.6760 1.0805 0.9652
-0.6383 8.6889 1.0697 0.9655
-1.7081 8.6955 1.0881 0.9649
-5.4159 8.7183 1.2602 0.9595
-24.6643 -32.0732 4.9679 0.8495
-10.1834 -33.6770 4.3199 0.8678
-4.4142 -84.2079 10.3536 0.7119
2.6471 -38.7185 4.7651 0.8552
24.5159 -39.9142 5.7515 0.8280
33.4976 -42.1566 6.6113 0.8049
43.1229 -42.5508 7.4385 0.7834
56.9652 -33.9493 8.1424 0.7655
57.0608 -25.2639 7.6622 0.7776
-26.8825 -33.5979 3.7645 0.8413
-20.4545 -33.0513 3.4006 0.8555
-10.2396 -31.6487 2.9102 0.8750
-6.1662 -31.6736 2.8231 0.8785
2.8793 -58.7180 5.1433 0.7897
18.7239 -42.9739 4.1011 0.8284
23.4136 -39.8200 4.0414 0.8307
31.1853 -40.8377 4.4955 0.8136
39.8828 -40.8998 4.9979 0.7950
52.5603 -42.2737 5.9012 0.7627
56.9560 -35.4485 5.8693 0.7639
56.4610 -18.4255 5.1961 0.7878
44.2753 19.1576 4.2207 0.8239
33.9072 19.8215 3.4362 0.8541
11.3414 8.6153 1.2461 0.9444
8.8610 8.5970 1.0801 0.9516
5.4152 8.6517 0.8930 0.9598
2.8529 8.6675 0.7983 0.9640
0.6672 8.6809 0.7617 0.9656
-0.3819 8.6874 0.7608 0.9657
-5.0657 8.7162 0.8820 0.9603
-6.5934 8.7256 0.9568 0.9570
-20.4500 -32.3074 3.3452 0.8577
-3.3141 -16.1488 1.4423 0.9359
-4.6383 -56.5933 4.9679 0.7961
24.3558 -84.6582 7.7071 0.7021
21.2363 -50.1215 4.7624 0.8037
23.0356 -40.1020 4.0461 0.8305
30.7039 -41.0636 4.4858 0.8139
39.6960 -41.5425 5.0270 0.7940
57.2032 -27.3659 5.5478 0.7752
61.4372 -5.1921 5.3942 0.7807
57.2716 16.3198 5.2101 0.7873
45.5182 19.1500 4.3204 0.8201
11.5463 8.5878 1.2589 0.9439
9.0422 8.5966 1.0916 0.9511
4.1696 8.6594 0.8409 0.9621
-3.6373 8.7074 0.8256 0.9628
-4.9478 8.7154 0.8768 0.9606
-6.4549 8.7247 0.9495 0.9574
-8.2632 8.7358 1.0520 0.9529
-10.5465 8.7499 1.1989 0.9465
-18.1507 8.7966 1.7646 0.9222
-28.0125 -33.5910 3.8266 0.8389
-6.8345 -31.6696 2.8345 0.8780
-5.2117 -56.5434 4.9679 0.7961
23.7316 -85.7503 7.7842 0.6996
20.6851 -50.2322 4.7528 0.8040
39.2599 -41.9289 5.0254 0.7940
57.3943 -37.3564 5.9913 0.7596
57.4481 -28.2021 5.5990 0.7734
61.3866 -13.4106 5.4973 0.7770
61.4333 -5.8195 5.3988 0.7805
55.7252 8.2411 4.9283 0.7976
46.8213 19.1420 4.4254 0.8162
11.8278 8.6123 1.2801 0.9429
9.2616 8.6281 1.1074 0.9504
4.2780 8.6587 0.8450 0.9620
3.0486 8.6663 0.8037 0.9638
0.8444 8.6798 0.7630 0.9656
-0.2055 8.6863 0.7602 0.9657
-1.2631 8.6928 0.7685 0.9653
-3.5338 8.7067 0.8221 0.9630
-4.8312 8.7147 0.8718 0.9608
-13.3212 8.7669 1.3952 0.9380
-17.6858 8.7937 1.7280 0.9238
-60.2217 -16.1747 5.4554 0.7785
-28.5917 -33.5875 3.8590 0.8377
-7.5691 -15.1265 1.4801 0.9343
-7.1708 -31.6675 2.8407 0.8778
-4.8787 -47.6406 4.1898 0.8251
21.8210 -39.8362 3.9738 0.8333
29.8354 -41.6362 4.4814 0.8141
38.7202 -42.2019 5.0108 0.7946
49.3828 -42.2541 5.6861 0.7703
56.9950 -28.7003 5.5829 0.7740
61.3826 -14.0631 5.5094 0.7766
61.4295 -6.4480 5.4039 0.7804
61.4752 0.9869 5.3791 0.7812
57.2640 15.0694 5.1805 0.7884
48.1896 19.1335 4.5362 0.8121
36.3765 19.8063 3.6237 0.8468
7.4302 8.6394 0.9969 0.9553
5.7870 8.6495 0.9105 0.9591
4.3874 8.6581 0.8492 0.9618
3.1474 8.6657 0.8066 0.9637
2.0101 8.6727 0.7789 0.9649
-0.1174 8.6857 0.7600 0.9657
-1.1731 8.6922 0.7674 0.9654
-3.4312 8.7061 0.8187 0.9631
-4.7160 8.7140 0.8669 0.9610
-6.1840 8.7230 0.9355 0.9580
-7.9321 8.7338 1.0322 0.9537
-13.0290 8.7651 1.3738 0.9389
-21.3419 -31.5509 3.3325 0.8582
-17.2651 -33.6468 3.3086 0.8591
-4.5600 -40.4759 3.5636 0.8491
22.1804 -41.4850 4.1157 0.8279
38.1250 -42.4082 4.9891 0.7953
48.3599 -42.2354 5.6174 0.7727
56.9359 -38.7235 6.0242 0.7585
61.3786 -14.7186 5.5222 0.7761
57.2601 14.4494 5.1667 0.7889
12.3417 8.6092 1.3165 0.9414
9.6439 8.6258 1.1320 0.9494
7.5831 8.6384 1.0056 0.9549
5.9143 8.6487 0.9167 0.9588
4.4979 8.6574 0.8535 0.9616
3.2470 8.6651 0.8096 0.9635
1.0198 8.6577 0.7627 0.9656
-0.0294 8.6852 0.7599 0.9657
-1.0835 8.6917 0.7663 0.9654
-2.1716 8.6984 0.7844 0.9646
-3.3294 8.7055 0.8154 0.9633
-4.6020 8.7133 0.8621 0.9612
-12.7455 8.7633 1.3532 0.9398
-16.8112 8.7883 1.6596 0.9267
-24.2093 2.9140 2.1333 0.9067
-21.8093 -31.5480 3.3554 0.8573
-17.6208 -33.4997 3.3116 0.8590
21.1459 -86.5657 7.7962 0.6992
45.9955 -40.9998 5.3907 0.7808
60.8068 -42.2640 6.4787 0.7428
57.0882 -30.2133 5.6509 0.7716
61.3245 -23.5129 5.7460 0.7682
61.3745 -15.3772 5.5355 0.7757
61.4217 -7.7091 5.4159 0.7799
57.2564 13.8327 5.1534 0.7894
51.1432 19.1153 4.7768 0.8031
38.9418 20.1904 3.8377 0.8385
12.6098 8.6075 1.3357 0.9405
7.7387 8.6375 1.0146 0.9545
6.0433 8.6479 0.9230 0.9585
4.6096 8.6567 0.8580 0.9614
3.3473 8.6645 0.8126 0.9634
-0.9941 8.6911 0.7653 0.9655
-5.9209 8.7214 0.9223 0.9586
-7.6130 8.7318 1.0135 0.9545
-66.2794 -33.9391 6.5147 0.7416
-12.4063 -31.6354 2.9730 0.8725
-8.1889 -31.6612 2.8611 0.8769
-4.5000 -33.7741 2.9810 0.8721
28.4028 -42.2964 4.4574 0.8150
36.4834 -42.2755 4.8855 0.7991
44.9887 -40.9282 5.3210 0.7833
61.4178 -8.3418 5.4227 0.7797
39.9153 20.1845 3.9132 0.8356
32.2779 21.5566 3.3958 0.8557
10.0437 8.6233 1.1582 0.9482
7.8971 8.6365 1.0239 0.9541
3.4484 8.6638 0.8158 0.9633
1.1985 8.6593 0.7648 0.9655
0.1467 8.6841 0.7599 0.9657
-0.9048 8.6906 0.7644 0.9655
-2.1242 5.9107 0.5495 0.9751
-4.3778 8.7119 0.8530 0.9616
-5.7921 8.7206 0.9159 0.9588
-7.4578 8.7309 1.0046 0.9549
-9.5136 8.7435 1.1305 0.9494
-12.2032 8.7600 1.3142 0.9415
-16.0029 8.7834 1.5971 0.9293
-24.2591 -33.6140 3.6267 0.8467
-18.5742 -33.6388 3.3619 0.8570
-12.7769 -31.6332 2.9848 0.8720
19.2306 -86.2770 7.7335 0.7012
35.6376 -42.1518 4.8292 0.8012
58.1028 -42.1570 6.2804 0.7496
60.9253 -24.7877 5.7545 0.7679
61.3664 -16.7043 5.5642 0.7746
61.4139 -8.9762 5.4301 0.7794
61.4599 -1.5059 5.3787 0.7813
57.8011 5.5741 5.0804 0.7920
61.5097 13.5468 5.5104 0.7765
32.2750 21.0848 3.3728 0.8566
10.2507 8.6220 1.1719 0.9476
8.0585 8.6355 1.0334 0.9537
3.5503 8.6632 0.8191 0.9631
1.2907 8.6771 0.7675 0.9654
-0.8158 8.6900 0.7636 0.9656
-3.0287 8.7036 0.8063 0.9637
-4.2674 8.7112 0.8487 0.9618
-5.6651 8.7198 0.9098 0.9591
-9.3209 8.7423 1.1180 0.9500
-11.9435 8.7584 1.2958 0.9423
-40.8094 -8.7711 3.6519 0.8457
-24.7788 -33.6108 3.6533 0.8456
-13.1503 -31.6309 2.9970 0.8715
-6.8377 -24.3866 2.2158 0.9033
-4.8768 -31.6815 2.8044 0.8792
18.6648 -54.5255 5.0421 0.7934
20.5094 -42.4096 4.1215 0.8277
55.3082 -40.9916 6.0230 0.7585
57.4231 -32.6631 5.7797 0.7670
61.3623 -17.3732 5.5795 0.7741
61.4100 -9.6124 5.4381 0.7791
61.4560 -2.1293 5.3799 0.7812
32.2721 20.6192 3.3505 0.8575
10.4626 8.6207 1.1861 0.9470
8.2228 8.6345 1.0432 0.9533
3.6530 8.6626 0.8225 0.9630
-0.7270 8.6895 0.7629 0.9656
-2.9179 8.6671 0.8001 0.9639
-4.1581 8.7106 0.8445 0.9620
-5.5397 8.7191 0.9038 0.9594
-7.1553 8.7290 0.9875 0.9557
-9.1324 8.7412 1.1060 0.9505
-11.6910 8.7569 1.2779 0.9430
-52.9224 -25.0988 5.1244 0.7904
-25.3063 -33.6076 3.6806 0.8446
-19.4712 -33.6333 3.4001 0.8555
-7.0435 -24.1753 2.2030 0.9038
-5.2058 -31.6795 2.8088 0.8791
-3.5589 -84.2131 7.3743 0.7129
25.5634 -77.2247 7.1168 0.7214
20.4268 -43.3546 4.1930 0.8249
34.1895 -42.1430 4.7478 0.8042
54.5892 -41.3226 5.9900 0.7596
57.0343 -24.5638 5.4330 0.7793
61.4061 -10.2506 5.4467 0.7788
61.5445 12.2518 5.4901 0.7773
32.1688 20.0970 3.3185 0.8587
10.6798 8.6194 1.2007 0.9464
2.5736 8.6692 0.7912 0.9643
1.4709 8.6760 0.7699 0.9653
0.2712 5.7292 0.5018 0.9772
-0.6383 8.6889 0.7622 0.9656
-1.7081 8.6955 0.7753 0.9650
-11.5495 35.4922 3.2654 0.8608
-4.0499 8.7099 0.8404 0.9622
-11.4453 8.7554 1.2607 0.9438
-14.8978 8.7766 1.5128 0.9329
-19.9274 -33.6305 3.4200 0.8547
-13.8916 -31.5915 3.0193 0.8706
-9.5713 -31.6528 2.8931 0.8757
-4.4142 -84.2079 7.3773 0.7128
25.6332 -80.1496 7.3621 0.7133
20.0850 -43.7746 4.2137 0.8242
42.7809 -42.2134 5.2582 0.7856
54.2358 -41.9262 5.9975 0.7594
57.0649 -34.0087 5.8119 0.7659
57.0608 -25.2639 5.4595 0.7784
-18.9156 -30.5646 1.8838 0.8659
-14.6222 -31.5870 1.8242 0.8699
24.4177 -41.5276 2.5247 0.8245
31.1609 -40.8058 2.6908 0.8141
39.8832 -40.9002 2.9939 0.7955
31.5840 -25.4027 2.1242 0.8501
57.4569 -26.7749 3.3221 0.7758
66.4576 -13.1128 3.5500 0.7624
66.4033 -4.9344 3.4896 0.7659
50.0045 8.4343 2.6576 0.8162
28.7496 8.5083 1.5713 0.8868
11.3414 8.6153 0.7464 0.9445
6.9869 8.6421 0.5824 0.9565
5.4152 8.6517 0.5349 0.9599
4.0623 8.6601 0.5013 0.9624
1.7317 8.6607 0.4629 0.9652
-0.3816 8.6811 0.4554 0.9658
-1.4417 8.6818 0.4612 0.9654
-2.5474 8.6886 0.4745 0.9644
-3.7417 8.7080 0.4967 0.9627
-26.6393 8.8431 1.4710 0.8937
-25.7800 -31.5589 2.1356 0.8494
-15.3213 -24.2049 1.5013 0.8916
-14.6470 -30.8173 1.7882 0.8723
-11.1711 -33.3691 1.8442 0.8685
-3.3138 -16.1471 0.8639 0.9361
24.3099 -84.4986 4.6080 0.7031
23.7687 -41.3782 2.5008 0.8260
30.5081 -40.8018 2.6700 0.8154
57.3993 -36.5368 3.5659 0.7614
57.3400 -19.3577 3.1717 0.7847
66.4623 -13.8151 3.5576 0.7619
66.4078 -5.6122 3.4927 0.7657
50.3321 7.9657 2.6706 0.8154
9.0422 8.5966 0.6539 0.9513
5.5375 8.6510 0.5383 0.9597
4.1696 8.6594 0.5037 0.9622
1.8228 8.6592 0.4638 0.9652
-2.4515 8.6866 0.4730 0.9645
-4.9478 8.7154 0.5252 0.9607
-6.4549 8.7247 0.5688 0.9575
-8.2632 8.7358 0.6302 0.9530
-10.5465 8.7499 0.7182 0.9466
-61.3393 -17.1433 3.3378 0.7748
-26.3151 -31.5556 2.1533 0.8483
-11.5478 -33.3668 1.8504 0.8681
-4.5930 -49.8311 2.6226 0.8184
39.3084 -41.9807 3.0140 0.7942
31.5775 -26.4694 2.1594 0.8479
57.3943 -37.3564 3.5889 0.7601
57.4481 -28.2021 3.3540 0.7739
57.3360 -20.0061 3.1825 0.7841
66.4123 -6.2911 3.4961 0.7655
66.3594 1.7383 3.4789 0.7665
50.6060 7.4841 2.6810 0.8147
30.9989 8.4945 1.6845 0.8792
46.8213 19.1419 2.6509 0.8166
31.8700 17.7737 1.9124 0.8640
11.8278 8.6123 0.7668 0.9431
7.2800 8.6403 0.5921 0.9558
5.6615 8.6502 0.5418 0.9594
3.0467 8.6609 0.4812 0.9639
1.9144 8.6577 0.4647 0.9651
-1.2615 8.6821 0.4598 0.9655
-2.3561 8.6845 0.4716 0.9646
-3.5338 8.7067 0.4925 0.9631
-4.8312 8.7147 0.5222 0.9609
-6.3185 8.7239 0.5645 0.9578
-8.0961 8.7348 0.6242 0.9534
-10.3300 8.7485 0.7094 0.9472
-13.3212 8.7669 0.8358 0.9381
-17.6858 8.7937 1.0351 0.9239
-24.9228 8.8382 1.3858 0.8995
-24.4535 2.4416 1.2879 0.9063
-59.8243 -43.0985 3.8641 0.7443
23.0346 -86.6394 4.6983 0.6983
23.1513 -42.2649 2.5255 0.8245
38.7081 -42.1887 3.0006 0.7951
66.4717 -15.2290 3.5739 0.7610
66.4168 -6.9715 3.4999 0.7653
66.3638 1.0653 3.4784 0.7666
57.1947 7.8669 3.0257 0.7935
48.1896 19.1335 2.7173 0.8125
31.8692 17.3521 1.9017 0.8647
12.0811 8.6108 0.7775 0.9423
7.4302 8.6394 0.5972 0.9554
4.3874 8.6581 0.5087 0.9619
-1.1718 8.6822 0.4591 0.9655
-2.2614 8.6826 0.4702 0.9647
-3.4312 8.7061 0.4904 0.9632
-7.9321 8.7338 0.6183 0.9538
-10.1187 8.7472 0.7010 0.9478
-13.0290 8.7651 0.8230 0.9390
-17.2397 8.7910 1.0142 0.9254
-27.4127 -31.5489 2.1904 0.8459
-15.6936 -30.5843 1.8016 0.8714
-11.7254 -31.7805 1.7753 0.8731
-4.5028 -39.9684 2.1079 0.8512
21.0296 -54.1619 3.0450 0.7924
37.9232 -42.1837 2.9728 0.7968
56.9906 -29.4260 3.3614 0.7734
66.4765 -15.9410 3.5827 0.7605
66.4213 -7.6535 3.5040 0.7651
66.3157 8.4374 3.5035 0.7651
49.6282 19.1247 2.7873 0.8081
31.8766 16.9395 1.8918 0.8654
9.6439 8.6258 0.6781 0.9495
4.4979 8.6574 0.5113 0.9617
3.2463 8.6634 0.4849 0.9636
-0.0293 8.6795 0.4549 0.9658
-1.0823 8.6823 0.4585 0.9656
-3.3294 8.7055 0.4885 0.9634
-4.6020 8.7133 0.5164 0.9613
-7.7711 8.7328 0.6126 0.9543
-12.7455 8.7633 0.8106 0.9399
-24.2360 2.9172 1.2793 0.9069
-27.9760 -31.5454 2.2097 0.8446
-12.6938 -33.3598 1.8706 0.8668
21.4660 -87.8758 4.7408 0.6960
21.9613 -42.0960 2.4883 0.8268
37.1527 -42.1789 2.9458 0.7984
24.2634 -16.8644 1.5482 0.8884
50.1464 -19.2270 2.8146 0.8064
66.3726 -0.2803 3.4785 0.7665
66.3201 7.7557 3.4994 0.7653
12.6098 8.6075 0.8001 0.9407
7.7387 8.6375 0.6078 0.9546
3.3473 8.6645 0.4868 0.9635
-2.0736 8.6793 0.4677 0.9649
-5.9209 8.7214 0.5524 0.9587
-7.6130 8.7318 0.6071 0.9547
-9.7107 8.7447 0.6849 0.9490
-12.4704 8.7617 0.7987 0.9408
-60.4698 -14.2850 3.2563 0.7797
-13.1431 -33.5144 1.8866 0.8657
-8.6346 -33.3847 1.8072 0.8710
-4.8850 -36.6636 1.9384 0.8623
19.9169 -54.5490 3.0434 0.7925
21.7234 -42.6894 2.5103 0.8254
28.2537 -42.0743 2.6561 0.8163
31.5491 -28.7016 2.2353 0.8430
34.2154 -24.2997 2.1994 0.8453
50.0013 -19.7549 2.8176 0.8063
66.4861 -17.3760 3.6014 0.7594
66.4304 -9.0226 3.5134 0.7645
66.3771 -0.9532 3.4790 0.7665
60.6438 14.0021 3.2618 0.7793
4.7224 8.6560 0.5168 0.9613
2.2850 8.6535 0.4691 0.9648
1.1985 8.6593 0.4581 0.9656
0.1466 8.6784 0.4549 0.9658
-1.9809 8.6798 0.4666 0.9650
-2.1239 5.9097 0.3291 0.9752
-7.4578 8.7309 0.6018 0.9550
-9.5136 8.7435 0.6772 0.9496
-12.2032 8.7600 0.7873 0.9416
-16.0029 8.7834 0.9567 0.9295
-21.9977 8.8202 1.2421 0.9094
-29.1331 -31.5383 2.2501 0.8420
-22.7653 -31.5441 2.0387 0.8557
-13.3660 -33.0919 1.8704 0.8668
-8.9961 -33.3825 1.8119 0.8707
-5.2565 -36.6122 1.9384 0.8623
19.4290 -54.9343 3.0537 0.7918
22.6443 -45.6380 2.6700 0.8154
27.6365 -42.0706 2.6380 0.8174
57.4278 -31.8997 3.4428 0.7686
66.4910 -18.0992 3.6114 0.7588
66.4349 -9.7101 3.5187 0.7642
66.3815 -1.6264 3.4799 0.7665
57.7911 5.5731 3.0427 0.7925
61.5097 13.5468 3.3008 0.7770
40.9280 20.1782 2.3915 0.8330
8.0585 8.6355 0.6190 0.9538
4.8365 8.6553 0.5196 0.9611
3.5503 8.6632 0.4907 0.9632
2.3793 8.6542 0.4704 0.9647
0.2346 8.6778 0.4549 0.9658
-1.8887 8.6802 0.4656 0.9650
-3.0274 8.6998 0.4828 0.9638
-4.2674 8.7112 0.5084 0.9619
-7.3053 8.7299 0.5966 0.9554
-9.3209 8.7423 0.6697 0.9501
-13.3602 -32.1358 1.8239 0.8699
-5.6273 -36.5570 1.9384 0.8623
19.5168 -57.0144 3.1582 0.7855
27.4005 -42.6472 2.6566 0.8162
44.2871 -41.9621 3.1974 0.7832
32.7746 -24.2909 2.1380 0.8492
66.4959 -18.8266 3.6219 0.7582
66.4395 -10.3997 3.5243 0.7639
32.1717 20.5550 2.0008 0.8582
10.4626 8.6207 0.7105 0.9471
8.2228 8.6345 0.6249 0.9534
6.4415 8.6454 0.5650 0.9577
3.6530 8.6626 0.4927 0.9630
-0.7264 8.6820 0.4566 0.9657
-2.9179 8.6671 0.4793 0.9640
-4.1581 8.7106 0.5058 0.9621
-5.5397 8.7191 0.5414 0.9595
-7.1553 8.7290 0.5915 0.9558
-20.7505 8.8126 1.1815 0.9137
-30.3338 -31.5310 2.2930 0.8392
-17.6989 -30.5720 1.8513 0.8681
-7.3521 -25.2341 1.3775 0.9001
-5.9976 -36.4981 1.9384 0.8623
-2.6500 -62.7051 3.2892 0.7777
26.5309 -80.1473 4.4245 0.7131
26.1830 -41.6752 2.5794 0.8211
34.2039 -42.1608 2.8452 0.8046
43.6632 -42.2190 3.1831 0.7841
57.3686 -33.4063 3.4792 0.7665
66.4441 -11.0916 3.5304 0.7635
50.8155 10.1159 2.7154 0.8126
25.9749 8.5254 1.4327 0.8963
32.1688 20.0970 1.9879 0.8590
10.6798 8.6194 0.7192 0.9465
6.5782 8.6446 0.5693 0.9574
31.8803 54.4301 3.3058 0.7767
2.5696 8.6559 0.4732 0.9645
1.4690 8.6646 0.4606 0.9654
0.2712 5.7292 0.3006 0.9773
-0.6378 8.6819 0.4562 0.9657
-1.7053 8.6810 0.4636 0.9652
-11.5495 35.4922 1.9561 0.8611
-4.0499 8.7099 0.5034 0.9623
-7.0078 8.7281 0.5866 0.9562
-8.9478 8.7400 0.6555 0.9511
-11.4453 8.7554 0.7552 0.9439
-14.8978 8.7766 0.9062 0.9331
-29.5940 8.8669 1.6191 0.8836
-14.3163 -24.1608 1.4718 0.8936
-10.0923 -33.3758 1.8274 0.8697
-3.2876 -62.7155 3.2913 0.7776
27.1939 -85.0299 4.6786 0.6994
33.4975 -42.1564 2.8219 0.8060
57.0649 -34.0087 3.4815 0.7664
-67.0670 -29.4239 1.2784 0.7460
-20.4545 -33.0513 0.6785 0.8560
-14.6222 -31.5870 0.6076 0.8700
-10.0946 -31.2006 0.5724 0.8770
-6.5325 -33.5549 0.5967 0.8722
27.4264 -46.6447 0.9445 0.8054
29.9004 -39.1551 0.8599 0.8211
31.5840 -25.4027 0.7075 0.8503
39.0531 -24.3060 0.8029 0.8319
47.6895 8.0438 0.8442 0.8241
28.7496 8.5083 0.5233 0.8870
8.8610 8.5970 0.2155 0.9518
4.0529 8.6400 0.1666 0.9625
1.7260 8.6321 0.1537 0.9654
-0.3819 8.6874 0.1518 0.9658
-1.4438 8.6939 0.1538 0.9654
-2.5510 8.7007 0.1583 0.9644
-6.5651 8.6880 0.1901 0.9574
-62.9276 51.1393 1.4153 0.7230
-13.9341 8.7707 0.2874 0.9363
-59.8649 -17.3873 1.0881 0.7793
-15.3213 -24.2049 0.5000 0.8917
-16.8027 -35.3528 0.6832 0.8551
-3.3137 -16.1470 0.2877 0.9362
22.9445 -54.1532 1.0266 0.7903
27.4196 -47.7340 0.9609 0.8023
29.2725 -39.1493 0.8532 0.8224
38.1978 -24.3143 0.7904 0.8343
51.0098 -24.4029 0.9870 0.7975
73.0127 -24.6487 1.3451 0.7347
47.0245 19.7837 0.8905 0.8154
34.5282 19.7176 0.6940 0.8529
11.5463 8.5878 0.2512 0.9441
9.0422 8.5966 0.2178 0.9513
4.1600 8.6394 0.1674 0.9624
1.8170 8.6316 0.1540 0.9653
0.7557 8.6804 0.1521 0.9657
-0.2937 8.6868 0.1517 0.9658
-1.3533 8.6933 0.1536 0.9654
-2.4553 8.7001 0.1578 0.9645
-4.9324 8.6883 0.1744 0.9608
-6.4270 8.6870 0.1886 0.9577
-8.2632 8.7358 0.2099 0.9530
-13.6228 8.7688 0.2828 0.9372
-18.1180 8.7807 0.3514 0.9226
-25.7287 8.8314 0.4748 0.8969
-83.1803 -12.7326 1.4688 0.7142
-25.9874 -31.1626 0.7083 0.8502
-7.2405 -33.5505 0.5991 0.8717
-6.1156 -66.3498 1.1630 0.7660
27.4160 -48.8681 0.9781 0.7992
28.6542 -39.1435 0.8468 0.8236
31.5203 -33.6632 0.8050 0.8315
31.5775 -26.4694 0.7192 0.8480
37.3637 -24.3191 0.7782 0.8366
49.6927 -24.3948 0.9663 0.8013
49.2311 20.1271 0.9284 0.8083
12.4578 9.0711 0.2690 0.9402
5.6615 8.6502 0.1805 0.9595
4.2681 8.6388 0.1682 0.9622
-0.2055 8.6863 0.1517 0.9658
-2.3602 8.6995 0.1573 0.9646
-4.8195 8.6936 0.1735 0.9610
-6.2910 8.6859 0.1872 0.9580
-13.3212 8.7669 0.2784 0.9382
-17.6519 8.7769 0.3441 0.9242
-24.8890 8.8262 0.4609 0.8997
-24.3907 2.4353 0.4279 0.9066
-76.9381 -31.0004 1.4479 0.7176
-59.7143 -43.0193 1.2845 0.7450
-24.3410 -22.4468 0.5780 0.8759
-26.5247 -31.1593 0.7143 0.8490
-20.8807 -31.5537 0.6604 0.8595
-7.5663 -15.1210 0.2951 0.9346
-10.1470 -28.3851 0.5262 0.8864
-7.0693 -31.2191 0.5587 0.8798
-4.8502 -47.3621 0.8311 0.8266
34.9842 -87.4640 1.6443 0.6860
27.4055 -50.0311 0.9957 0.7960
27.9946 -39.0673 0.8389 0.8251
31.5741 -27.0162 0.7253 0.8468
48.4296 -24.3871 0.9465 0.8050
50.8563 -18.3255 0.9436 0.8055
87.4343 -20.0317 1.5657 0.6985
36.1949 19.7074 0.7194 0.8480
4.3773 8.6382 0.1690 0.9620
3.1400 8.6452 0.1605 0.9639
0.9333 8.6793 0.1524 0.9657
-1.1731 8.6922 0.1531 0.9655
-10.1187 8.7472 0.2335 0.9479
-13.0290 8.7651 0.2741 0.9391
-24.1298 8.8333 0.4485 0.9023
-24.2026 2.6646 0.4250 0.9072
-58.4373 -15.0619 1.0534 0.7855
-83.4532 -32.6461 1.5642 0.6987
-21.3419 -31.5509 0.6649 0.8587
-10.4414 -28.3002 0.5265 0.8863
30.9832 -79.7975 1.4942 0.7100
29.5492 -42.1323 0.8983 0.8139
31.5247 -35.0663 0.8231 0.8281
31.5707 -27.5725 0.7316 0.8456
35.7421 -24.3091 0.7545 0.8412
51.9671 20.0260 0.9721 0.8003
37.0750 19.7020 0.7328 0.8454
12.6392 8.8167 0.2690 0.9402
9.6439 8.6258 0.2258 0.9496
7.5831 8.6384 0.2006 0.9551
5.9143 8.6487 0.1829 0.9589
4.4876 8.6376 0.1699 0.9618
2.0926 8.6301 0.1550 0.9651
-0.0294 8.6852 0.1516 0.9659
-1.0835 8.6917 0.1529 0.9656
-3.3216 8.6851 0.1623 0.9635
-6.0250 8.6839 0.1845 0.9586
-9.9123 8.7459 0.2307 0.9485
-16.7754 8.7697 0.3304 0.9271
-58.4039 -14.4236 1.0501 0.7861
27.3903 -52.5024 1.0336 0.7891
31.5672 -28.1386 0.7381 0.8444
24.2544 -16.8581 0.5156 0.8885
57.2564 13.8327 1.0282 0.7901
52.4593 19.6072 0.9776 0.7993
12.7182 8.6815 0.2688 0.9403
6.0433 8.6479 0.1842 0.9587
3.3394 8.6441 0.1618 0.9636
2.1854 8.6296 0.1554 0.9650
0.0587 8.6847 0.1516 0.9659
-0.9941 8.6911 0.1527 0.9656
-2.0780 8.6978 0.1561 0.9649
-7.6130 8.7318 0.2022 0.9547
-9.7107 8.7447 0.2281 0.9491
-12.4704 8.7617 0.2660 0.9408
-16.3812 8.7761 0.3244 0.9283
-58.3706 -13.7891 1.0469 0.7867
-19.0481 -35.3390 0.7007 0.8516
-12.2306 -31.1875 0.5847 0.8746
-5.3923 -40.4708 0.7127 0.8493
21.7016 -92.9172 1.6650 0.6827
27.5057 -54.0524 1.0586 0.7846
33.8221 -39.1917 0.9036 0.8129
31.5637 -28.7149 0.7448 0.8431
87.9403 9.3812 1.5437 0.7020
58.7454 13.5638 1.0524 0.7857
54.0980 19.5972 1.0043 0.7944
7.8971 8.6365 0.2043 0.9543
6.1741 8.6471 0.1855 0.9584
4.7153 8.6430 0.1719 0.9614
3.4403 8.6435 0.1624 0.9635
1.1985 8.6593 0.1526 0.9656
0.1467 8.6841 0.1516 0.9658
-0.9048 8.6906 0.1525 0.9656
-1.9849 8.6972 0.1557 0.9649
-2.1235 5.9087 0.1096 0.9752
-5.7665 8.6820 0.1819 0.9592
-9.5136 8.7435 0.2255 0.9496
-12.2032 8.7600 0.2622 0.9417
-15.9845 8.7733 0.3183 0.9297
-21.9792 8.8128 0.4133 0.9096
-58.3374 -13.1584 1.0439 0.7872
-19.5114 -35.3362 0.7046 0.8509
-5.8101 -40.4683 0.7136 0.8491
29.5767 -83.6261 1.5483 0.7013
27.5814 -55.5883 1.0832 0.7802
33.1294 -39.1852 0.8957 0.8144
31.5601 -29.3018 0.7517 0.8417
33.4848 -24.2952 0.7221 0.8475
43.8526 -24.3589 0.8756 0.8182
47.3668 -19.2714 0.8926 0.8150
90.9977 -24.7701 1.6462 0.6857
57.7862 5.5726 1.0133 0.7927
61.5097 13.5468 1.0994 0.7773
24.3229 8.5332 0.4499 0.9020
40.9280 20.1782 0.7965 0.8331
32.1745 21.0192 0.6708 0.8575
10.2507 8.6220 0.2338 0.9478
8.0585 8.6355 0.2062 0.9538
4.8327 8.6485 0.1729 0.9611
2.3722 8.6285 0.1562 0.9648
1.2844 8.6347 0.1524 0.9657
0.2348 8.6836 0.1516 0.9658
-0.8158 8.6900 0.1524 0.9657
-1.8922 8.6967 0.1554 0.9650
-4.2576 8.6913 0.1689 0.9620
-21.3371 8.8074 0.4029 0.9118
-65.5485 -31.9045 1.2725 0.7470
31.5564 -29.8997 0.7588 0.8404
32.7746 -24.2909 0.7121 0.8494
42.7849 -24.3366 0.8592 0.8213
41.9662 20.1639 0.8127 0.8301
10.4626 8.6207 0.2366 0.9472
4.9402 8.6341 0.1736 0.9610
3.6445 8.6424 0.1637 0.9632
1.3739 8.6342 0.1526 0.9656
0.2135 5.7401 0.1003 0.9773
-1.8000 8.6961 0.1550 0.9651
-2.9179 8.6671 0.1596 0.9641
-4.1485 8.6905 0.1681 0.9622
-5.5149 8.6801 0.1795 0.9597
-7.1553 8.7290 0.1970 0.9558
-9.1324 8.7412 0.2207 0.9507
-11.6910 8.7569 0.2550 0.9432
-40.9238 -8.3626 0.7291 0.8461
-52.8508 -25.0649 1.0210 0.7914
-62.4281 -64.8920 1.5715 0.6975
-20.2142 -34.9169 0.7042 0.8509
-13.5121 -31.5938 0.5998 0.8716
-9.0922 -31.2067 0.5674 0.8781
-3.5589 -84.2131 1.4712 0.7138
28.9415 -87.4295 1.6075 0.6918
41.2267 -87.5012 1.6884 0.6791
27.4447 -43.6835 0.9005 0.8135
84.0858 -24.7301 1.5299 0.7042
47.8117 9.5180 0.8509 0.8228
25.9453 8.5157 0.4766 0.8965
32.1688 20.0970 0.6621 0.8592
6.5782 8.6446 0.1896 0.9575
3.7479 8.6418 0.1644 0.9630
1.4637 8.6336 0.1529 0.9656
0.2712 5.7291 0.1001 0.9773
-0.6383 8.6889 0.1521 0.9657
-1.7081 8.6955 0.1547 0.9652
-11.5495 35.4922 0.6515 0.8613
-8.9478 8.7400 0.2183 0.9512
-11.4453 8.7554 0.2515 0.9440
-20.1584 8.8033 0.3840 0.9158
-53.1240 -24.5380 1.0214 0.7913
-20.4636 -34.5354 0.7007 0.8516
28.7372 -89.8553 1.6467 0.6856
38.4591 -83.8204 1.6097 0.6915
31.5488 -31.1303 0.7736 0.8375
31.5901 -24.4203 0.6970 0.8524
57.0163 -25.2442 1.0884 0.7792
-75.8607 -33.2819 -1.4460 0.7179
-8.9280 -19.2865 -0.3710 0.9185
-1.7647 -24.5906 -0.4303 0.9061
27.7478 -92.8936 -1.6922 0.6785
27.4264 -46.6446 -0.9445 0.8054
29.7359 -38.9396 -0.8552 0.8220
31.5414 -32.3457 -0.7886 0.8347
39.0531 -24.3060 -0.8029 0.8319
52.3850 -24.4114 -1.0088 0.7936
74.0166 3.4415 -1.2934 0.7435
42.2065 18.2625 -0.8027 0.8320
2.8346 8.6121 -0.1583 0.9644
-1.4438 8.6939 -0.1538 0.9654
-3.7235 8.6657 -0.1646 0.9630
-5.0332 8.6602 -0.1748 0.9607
-8.4336 8.7369 -0.2120 0.9526
-30.4822 24.7720 -0.6856 0.8546
-26.6393 8.8432 -0.4899 0.8938
-89.8570 18.2035 -1.6003 0.6930
-57.3475 4.5538 -1.0041 0.7944
-75.8450 -12.3979 -1.3414 0.7353
-60.3555 -17.5298 -1.0970 0.7777
-62.2283 -35.9556 -1.2545 0.7501
-64.6384 -48.5870 -1.4115 0.7236
-12.4560 -19.6784 -0.4065 0.9110
-6.7650 -20.2076 -0.3720 0.9183
-3.3137 -16.1468 -0.2877 0.9362
-1.9912 -24.2954 -0.4255 0.9071
22.9740 -54.2228 -1.0279 0.7901
51.0098 -24.4029 -0.9870 0.7975
74.8573 -25.2715 -1.3791 0.7290
94.5642 -19.6565 -1.6859 0.6795
47.0013 7.4386 -0.8306 0.8266
43.2619 18.2008 -0.8192 0.8288
34.5282 19.7176 -0.6940 0.8529
7.1322 8.6412 -0.1956 0.9562
5.5375 8.6510 -0.1793 0.9597
2.9333 8.6167 -0.1589 0.9642
-0.2937 8.6868 -0.1517 0.9658
-1.3533 8.6933 -0.1536 0.9654
-3.6218 8.6702 -0.1640 0.9631
-4.9195 8.6657 -0.1739 0.9609
-10.5465 8.7499 -0.2392 0.9467
-89.8510 19.1525 -1.6036 0.6924
-57.5645 5.1588 -1.0088 0.7936
-75.7828 -11.6002 -1.3382 0.7359
-59.7726 -16.7054 -1.0833 0.7801
-17.5547 -21.0506 -0.4784 0.8961
-9.3683 -19.2062 -0.3730 0.9181
-7.0239 -20.2954 -0.3749 0.9177
-7.2405 -33.5505 -0.5991 0.8717
-2.1977 -23.8433 -0.4179 0.9087
35.6511 -86.5757 -1.6343 0.6876
26.6474 -47.4980 -0.9506 0.8042
28.4965 -38.9280 -0.8421 0.8245
31.5775 -26.4694 -0.7192 0.8480
49.6927 -24.3948 -0.9663 0.8013
71.1616 -24.8302 -1.3156 0.7397
48.9122 19.9967 -0.9224 0.8095
12.4578 9.0711 -0.2690 0.9402
7.2800 8.6403 -0.1972 0.9558
4.2596 8.6216 -0.1679 0.9623
1.8993 8.5897 -0.1536 0.9654
-0.2055 8.6863 -0.1517 0.9658
-1.2631 8.6928 -0.1533 0.9655
-2.3602 8.6995 -0.1573 0.9646
-6.2544 8.6354 -0.1861 0.9582
-8.0961 8.7348 -0.2079 0.9535
-17.4783 8.6906 -0.3407 0.9249
-24.9229 8.8382 -0.4616 0.8996
-75.8504 -10.8250 -1.3374 0.7360
-59.9255 -16.0950 -1.0831 0.7802
-59.6617 -42.9813 -1.2835 0.7451
-18.1797 -21.3562 -0.4895 0.8939
-13.0692 -19.7494 -0.4134 0.9096
-7.5647 -15.1177 -0.2951 0.9346
-4.8268 -21.3161 -0.3815 0.9163
27.4054 -50.0311 -0.9957 0.7960
27.8290 -38.8363 -0.8340 0.8260
31.5741 -27.0162 -0.7253 0.8468
36.5403 -24.3140 -0.7661 0.8390
48.4296 -24.3871 -0.9465 0.8050
69.8471 -25.1686 -1.2959 0.7430
57.7795 -13.2376 -1.0347 0.7889
57.7147 15.1881 -1.0417 0.7876
50.3416 19.9880 -0.9454 0.8052
36.1949 19.7074 -0.7194 0.8480
12.5485 8.9439 -0.2690 0.9402
9.4507 8.6270 -0.2234 0.9501
0.9333 8.6793 -0.1524 0.9657
-0.1174 8.6857 -0.1516 0.9658
-1.1731 8.6922 -0.1531 0.9655
-3.4208 8.6796 -0.1628 0.9634
-7.9321 8.7338 -0.2059 0.9539
-10.1187 8.7472 -0.2335 0.9479
-13.0290 8.7651 -0.2741 0.9391
-17.0805 8.7098 -0.3347 0.9262
-24.1298 8.8333 -0.4485 0.9023
-24.2080 2.6651 -0.4251 0.9072
-89.9351 -0.9878 -1.5699 0.6978
-75.8300 -10.0388 -1.3352 0.7364
-75.8752 -29.6817 -1.4221 0.7218
-60.8986 -32.7589 -1.2070 0.7583
-19.0711 -21.9486 -0.5075 0.8902
-13.5037 -19.9634 -0.4207 0.9081
-18.1363 -35.3446 -0.6934 0.8531
-2.5488 -22.6233 -0.3974 0.9129
33.9333 -87.3954 -1.6365 0.6872
23.3497 -43.6718 -0.8644 0.8203
27.5169 -39.2345 -0.8365 0.8255
35.7421 -24.3091 -0.7545 0.8412
47.2170 -24.3796 -0.9275 0.8085
66.2129 -24.6202 -1.2330 0.7538
57.2602 14.4494 -1.0308 0.7896
51.7189 19.9303 -0.9675 0.8011
12.6392 8.8167 -0.2690 0.9402
9.6439 8.6258 -0.2258 0.9496
3.2313 8.6232 -0.1607 0.9638
2.0825 8.5885 -0.1543 0.9653
1.0198 8.6577 -0.1522 0.9657
-1.0835 8.6917 -0.1529 0.9656
-7.7711 8.7328 -0.2040 0.9543
-9.9123 8.7459 -0.2307 0.9485
-53.8064 13.1915 -0.9670 0.8012
-24.2893 2.9236 -0.4270 0.9068
-58.2396 -14.3830 -1.0471 0.7866
-10.2262 -19.4415 -0.3834 0.9159
-12.1433 -31.9131 -0.5960 0.8723
-5.2497 -21.1808 -0.3809 0.9164
-2.7726 -22.5528 -0.3966 0.9131
26.8991 -51.5608 -1.0151 0.7924
22.8717 -33.3247 -0.7055 0.8507
31.5672 -28.1386 -0.7381 0.8444
46.0519 -24.3725 -0.9095 0.8118
47.9871 -18.3991 -0.8971 0.8142
9.8415 8.6246 -0.2284 0.9490
4.5994 8.6376 -0.1708 0.9616
2.1748 8.5879 -0.1546 0.9652
-0.9941 8.6911 -0.1527 0.9656
-2.0780 8.6978 -0.1561 0.9649
-4.4673 8.6699 -0.1702 0.9617
-5.8613 8.6335 -0.1821 0.9591
-7.6130 8.7318 -0.2022 0.9547
-9.7107 8.7447 -0.2281 0.9491
-12.4704 8.7617 -0.2660 0.9408
-16.2997 8.7325 -0.3228 0.9287
-52.7814 13.5090 -0.9510 0.8042
-57.3445 7.4926 -1.0095 0.7935
-75.8089 -8.4761 -1.3315 0.7370
-63.8005 -43.0783 -1.3437 0.7349
-61.1806 -53.0697 -1.4137 0.7232
-20.6436 -22.8075 -0.5370 0.8842
-8.6753 -33.5417 -0.6047 0.8706
-2.9749 -22.3273 -0.3932 0.9138
-0.7360 -62.2390 -1.0865 0.7796
21.6894 -92.8650 -1.6646 0.6828
27.3823 -53.8099 -1.0539 0.7854
22.3761 -33.3217 -0.7006 0.8517
34.2153 -24.2997 -0.7325 0.8454
39.9153 20.1845 -0.7807 0.8362
10.0437 8.6233 -0.2311 0.9484
3.4317 8.6219 -0.1620 0.9636
-0.9048 8.6906 -0.1525 0.9656
-4.3563 8.6693 -0.1694 0.9619
-12.2032 8.7600 -0.2622 0.9417
-15.9064 8.7304 -0.3167 0.9300
-56.1135 7.9111 -0.9891 0.7972
-89.9605 1.7478 -1.5706 0.6977
-75.8423 -27.0399 -1.4054 0.7246
-60.2111 -51.1684 -1.3792 0.7290
-21.5910 -23.3736 -0.5554 0.8805
-10.7421 -19.4546 -0.3879 0.9149
-5.8101 -40.4683 -0.7136 0.8491
26.3996 -53.2065 -1.0368 0.7885
31.5601 -29.3018 -0.7517 0.8417
33.4848 -24.2952 -0.7221 0.8475
43.8526 -24.3589 -0.8756 0.8182
48.9716 -19.9243 -0.9228 0.8094
47.2340 -12.8574 -0.8545 0.8221
61.5097 13.5468 -1.0994 0.7773
37.7997 18.6359 -0.7356 0.8448
10.2507 8.6220 -0.2338 0.9478
8.0585 8.6355 -0.2062 0.9538
6.3069 8.6463 -0.1868 0.9581
1.2783 8.5938 -0.1517 0.9658
0.2348 8.6836 -0.1516 0.9658
-1.8922 8.6967 -0.1554 0.9650
-4.2465 8.6687 -0.1685 0.9621
-5.6084 8.6326 -0.1797 0.9597
-7.3053 8.7299 -0.1987 0.9555
-9.3209 8.7423 -0.2231 0.9502
-11.9435 8.7584 -0.2585 0.9425
-15.5420 8.7366 -0.3112 0.9312
-29.4694 8.1825 -0.5338 0.8848
-56.1098 8.4915 -0.9905 0.7969
-75.9391 -26.2098 -1.4022 0.7251
-14.8470 -20.1390 -0.4367 0.9048
-8.1562 -19.6184 -0.3709 0.9185
-5.7857 -20.6347 -0.3741 0.9178
-0.9014 -28.0726 -0.4903 0.8937
28.7879 -84.0982 -1.5516 0.7007
26.3801 -54.5490 -1.0576 0.7847
26.7253 -41.5962 -0.8630 0.8205
31.5564 -29.8997 -0.7588 0.8404
48.9680 -20.5038 -0.9266 0.8087
94.7352 8.1675 -1.6597 0.6836
47.0161 9.8561 -0.8385 0.8252
24.7875 8.4149 -0.4569 0.9006
38.4596 18.4790 -0.7448 0.8431
8.2228 8.6345 -0.2081 0.9534
4.9402 8.6341 -0.1736 0.9610
3.6353 8.6206 -0.1633 0.9633
2.4568 8.5943 -0.1560 0.9649
1.3674 8.5932 -0.1519 0.9658
0.2135 5.7400 -0.1003 0.9773
-0.7270 8.6895 -0.1522 0.9657
-2.9179 8.6671 -0.1596 0.9641
-4.1378 8.6681 -0.1677 0.9623
-9.1324 8.7412 -0.2207 0.9507
-11.6910 8.7569 -0.2550 0.9432
-15.2070 8.7523 -0.3063 0.9322
-75.8478 -6.1522 -1.3283 0.7375
-63.4639 -40.0969 -1.3103 0.7406
-25.0234 -26.0111 -0.6300 0.8655
-6.0424 -20.7391 -0.3771 0.9172
-3.5751 -21.7562 -0.3848 0.9156
-1.1509 -27.2324 -0.4758 0.8967
28.9117 -87.3394 -1.6059 0.6921
37.3603 -79.2949 -1.5300 0.7042
48.3042 -20.8038 -0.9180 0.8103
32.1688 20.0970 -0.6621 0.8592
10.6798 8.6194 -0.2396 0.9466
2.5527 8.5988 -0.1566 0.9648
1.4568 8.5926 -0.1521 0.9657
0.2712 5.7291 -0.1001 0.9773
-8.9478 8.7400 -0.2183 0.9512
-11.4453 8.7554 -0.2515 0.9440
-20.0397 8.7515 -0.3817 0.9162
-27.2278 8.1580 -0.4961 0.8925
-50.1096 -9.7115 -0.8909 0.8153
-75.8174 -24.4594 -1.3906 0.7271
-52.8989 -24.4340 -1.0171 0.7921
-8.4922 -19.3125 -0.3682 0.9191
-3.8135 -21.8218 -0.3867 0.9152
29.5891 -64.4885 -1.2385 0.7529
22.4994 -36.6312 -0.7504 0.8420
40.8421 -24.3404 -0.8299 0.8268
46.9097 -20.7695 -0.8955 0.8145
-37.8635 -29.0663 -2.5016 0.8260
-16.4003 -20.4972 -1.3757 0.9002
-8.7778 -18.9620 -1.0951 0.9197
-6.5279 -20.1767 -1.1114 0.9186
-4.1542 -21.3389 -1.1393 0.9166
-1.7386 -24.2272 -1.2730 0.9073
2.1956 -44.7756 -2.3494 0.8356
8.0584 -47.0485 -2.5016 0.8260
22.3111 -37.9450 -2.3069 0.8384
22.2856 -29.1834 -1.9244 0.8632
31.2976 -32.0957 -2.3494 0.8356
36.1036 -22.4703 -2.2286 0.8434
38.4474 -12.5469 -2.1195 0.8504
46.8307 -9.2402 -2.5016 0.8260
47.6821 2.2170 -2.5016 0.8260
44.2050 7.4561 -2.3494 0.8356
28.7496 8.5083 -1.5713 0.8868
26.6473 11.5301 -1.5217 0.8902
27.2971 15.9574 -1.6571 0.8810
11.3414 8.6153 -0.7464 0.9445
5.4152 8.6517 -0.5349 0.9599
2.8276 8.5906 -0.4740 0.9644
1.7095 8.5500 -0.4570 0.9657
0.6672 8.6809 -0.4563 0.9657
-0.3819 8.6874 -0.4557 0.9658
-1.4438 8.6939 -0.4619 0.9653
-2.5510 8.7007 -0.4752 0.9643
-3.7234 8.6654 -0.4943 0.9629
-5.0200 8.6375 -0.5236 0.9608
-6.4880 8.5860 -0.5640 0.9578
-8.4336 8.7369 -0.6364 0.9525
-13.9341 8.7707 -0.8629 0.9362
-18.2123 8.5995 -1.0555 0.9225
-25.1641 8.3534 -1.3896 0.8992
-45.0612 3.5782 -2.3690 0.8344
-45.0040 -1.8640 -2.3606 0.8349
-43.9040 -18.7333 -2.5016 0.8260
-41.3304 -23.8808 -2.5016 0.8260
-34.4273 -33.0644 -2.5016 0.8260
-12.3644 -19.5337 -1.2116 0.9116
-3.3136 -16.1466 -0.8638 0.9361
-1.9445 -23.7251 -1.2475 0.9091
7.5811 -47.1277 -2.5016 0.8260
13.1975 -45.8729 -2.5016 0.8260
18.6220 -43.9513 -2.5016 0.8260
22.3294 -38.8726 -2.3494 0.8356
22.0171 -29.4458 -1.9269 0.8631
31.4765 -25.8460 -2.1345 0.8495
38.4188 -12.9700 -2.1251 0.8501
26.6423 11.2087 -1.5148 0.8907
11.5463 8.5878 -0.7541 0.9440
9.0422 8.5966 -0.6539 0.9513
7.1322 8.6412 -0.5872 0.9561
5.5375 8.6510 -0.5383 0.9597
4.1489 8.6164 -0.5012 0.9624
2.9260 8.5952 -0.4758 0.9643
0.7557 8.6804 -0.4566 0.9657
-0.2937 8.6868 -0.4555 0.9658
-1.3533 8.6933 -0.4611 0.9654
-2.4553 8.7001 -0.4738 0.9644
-4.9067 8.6431 -0.5209 0.9610
-6.3521 8.5857 -0.5597 0.9581
-10.5465 8.7499 -0.7182 0.9466
-17.7955 8.6244 -1.0364 0.9238
-44.4697 9.4791 -2.3829 0.8335
-45.0252 -1.4078 -2.3608 0.8349
-44.3133 -6.7832 -2.3494 0.8356
-43.1749 -12.0667 -2.3494 0.8356
-44.0916 -18.2873 -2.5016 0.8260
-41.5704 -23.4606 -2.5016 0.8260
-38.4449 -28.2928 -2.5016 0.8260
-34.7607 -32.7137 -2.5016 0.8260
-17.1112 -20.5188 -1.4002 0.8985
-12.8296 -19.8211 -1.2374 0.9098
-9.2884 -19.0425 -1.1104 0.9186
-6.8870 -19.8996 -1.1036 0.9191
-4.5445 -21.0584 -1.1290 0.9173
-2.1101 -22.8932 -1.2049 0.9120
7.1029 -47.2022 -2.5016 0.8260
12.7318 -46.0043 -2.5016 0.8260
18.1755 -44.1378 -2.5016 0.8260
26.4798 -36.1731 -2.3494 0.8356
31.4732 -26.3819 -2.1523 0.8483
46.6337 -10.1877 -2.5016 0.8260
47.5208 -4.5016 -2.5016 0.8260
47.7172 1.2499 -2.5016 0.8260
30.9989 8.4945 -1.6845 0.8792
20.9752 8.5753 -1.1876 0.9132
12.4578 9.0711 -0.8076 0.9401
7.2800 8.6403 -0.5921 0.9558
4.2596 8.6216 -0.5040 0.9622
0.8444 8.6798 -0.4570 0.9657
-0.2055 8.6863 -0.4554 0.9658
-2.3602 8.6995 -0.4724 0.9645
-3.5209 8.6750 -0.4907 0.9632
-10.3300 8.7485 -0.7094 0.9472
-17.3935 8.6484 -1.0180 0.9251
-44.3872 9.9329 -2.3838 0.8334
-38.7298 -27.9016 -2.5016 0.8260
-24.2465 -22.3596 -1.7285 0.8762
-7.5630 -15.1144 -0.8857 0.9345
-7.0618 -19.7546 -1.0995 0.9194
6.6241 -47.2717 -2.5016 0.8260
12.2648 -46.1310 -2.5016 0.8260
17.7272 -44.3198 -2.5016 0.8260
21.5367 -39.3172 -2.3494 0.8356
30.3073 -33.0325 -2.3494 0.8356
36.3812 -24.2082 -2.2902 0.8394
42.1749 -15.1972 -2.3494 0.8356
47.4728 -4.9831 -2.5016 0.8260
47.7274 0.7661 -2.5016 0.8260
21.5842 8.5699 -1.2171 0.9112
7.4302 8.6394 -0.5972 0.9554
5.7870 8.6495 -0.5454 0.9592
1.9820 8.5515 -0.4600 0.9655
0.9333 8.6793 -0.4575 0.9656
-1.1731 8.6922 -0.4597 0.9655
-10.1187 8.7472 -0.7010 0.9478
-13.0290 8.7651 -0.8230 0.9390
-44.2999 10.3859 -2.3846 0.8334
-45.0712 -0.4950 -2.3622 0.8348
-43.7546 -5.7924 -2.3131 0.8380
-43.4107 -11.1889 -2.3494 0.8356
-44.4533 -17.3897 -2.5016 0.8260
-39.0106 -27.5076 -2.5016 0.8260
-35.4168 -32.0023 -2.5016 0.8260
-13.2900 -19.6475 -1.2431 0.9094
-9.7880 -19.0753 -1.1236 0.9177
-4.9473 -20.8640 -1.1238 0.9177
6.1446 -47.3364 -2.5016 0.8260
11.7965 -46.2529 -2.5016 0.8260
21.3900 -40.0066 -2.3775 0.8338
25.7411 -36.7025 -2.3494 0.8356
29.7392 -33.0802 -2.3312 0.8368
39.8331 -20.5670 -2.3494 0.8356
42.0187 -15.6240 -2.3494 0.8356
46.4176 -11.1309 -2.5016 0.8260
47.7327 0.2823 -2.5016 0.8260
43.4832 10.9729 -2.3503 0.8356
26.6279 10.2613 -1.4955 0.8920
26.6914 14.1840 -1.5841 0.8860
9.6439 8.6258 -0.6781 0.9495
7.5831 8.6384 -0.6024 0.9550
4.4848 8.6322 -0.5098 0.9618
2.0746 8.5558 -0.4614 0.9654
-1.0835 8.6917 -0.4590 0.9655
-3.3213 8.6843 -0.4873 0.9634
-4.5674 8.6477 -0.5125 0.9616
-7.7711 8.7328 -0.6126 0.9543
-9.9123 8.7459 -0.6928 0.9484
-12.7455 8.7633 -0.8106 0.9399
-43.5219 -10.7483 -2.3494 0.8356
-44.6273 -16.9382 -2.5016 0.8260
-42.2645 -22.1857 -2.5016 0.8260
-35.7393 -31.6417 -2.5016 0.8260
-19.6153 -22.1180 -1.5493 0.8883
-10.0488 -19.1043 -1.1313 0.9172
-7.4710 -19.6341 -1.1010 0.9193
5.6644 -47.3963 -2.5016 0.8260
21.3732 -40.9686 -2.4217 0.8310
25.3677 -36.9616 -2.3494 0.8356
29.1322 -33.0734 -2.3098 0.8382
24.2383 -16.8470 -1.5469 0.8885
41.8581 -16.0491 -2.3494 0.8356
46.3024 -11.6009 -2.5016 0.8260
47.3620 -5.9444 -2.5016 0.8260
44.5260 5.2070 -2.3494 0.8356
26.6854 13.8358 -1.5753 0.8866
12.7182 8.6815 -0.8070 0.9402
9.8415 8.6246 -0.6858 0.9489
6.0433 8.6479 -0.5529 0.9586
3.3228 8.6012 -0.4832 0.9637
2.1678 8.5601 -0.4628 0.9652
0.0587 8.6847 -0.4552 0.9658
-0.9941 8.6911 -0.4585 0.9656
-2.0780 8.6978 -0.4687 0.9648
-2.1874 5.8978 -0.3297 0.9751
-4.4556 8.6472 -0.5098 0.9618
-7.6130 8.7318 -0.6071 0.9547
-12.4704 8.7617 -0.7987 0.9408
-16.2458 8.7036 -0.9659 0.9288
-45.0977 0.4189 -2.3636 0.8347
-43.1587 -4.8254 -2.2759 0.8403
-20.3707 -22.5060 -1.5909 0.8855
-14.0123 -19.8365 -1.2728 0.9073
-7.6422 -19.4872 -1.0970 0.9196
-2.9129 -21.8620 -1.1559 0.9154
-0.4425 -37.4215 -1.9613 0.8608
21.3557 -41.9669 -2.4678 0.8281
23.0921 -34.3879 -2.1708 0.8471
39.4080 -21.3703 -2.3494 0.8356
41.6933 -16.4725 -2.3494 0.8356
47.2993 -6.4242 -2.5016 0.8260
43.6802 10.0854 -2.3494 0.8356
26.6188 9.6427 -1.4837 0.8928
26.6795 13.4913 -1.5668 0.8871
10.0437 8.6233 -0.6938 0.9484
7.8971 8.6365 -0.6133 0.9542
3.4231 8.6004 -0.4851 0.9636
2.2615 8.5645 -0.4642 0.9651
0.1467 8.6841 -0.4552 0.9658
-0.9048 8.6906 -0.4579 0.9656
-4.3450 8.6467 -0.5071 0.9620
-7.4578 8.7309 -0.6018 0.9550
-9.5136 8.7435 -0.6772 0.9496
-12.2032 8.7600 -0.7873 0.9416
-27.0362 7.2125 -1.4665 0.8940
-45.1037 0.8763 -2.3642 0.8347
-43.9917 -4.4676 -2.3174 0.8377
-40.2926 -9.0883 -2.1647 0.8475
-44.7701 -15.9618 -2.4910 0.8266
-39.8289 -26.3088 -2.5016 0.8260
-36.3734 -30.9107 -2.5016 0.8260
-21.1327 -22.8774 -1.6322 0.8827
-14.3192 -19.8411 -1.2823 0.9066
-10.5652 -19.1342 -1.1455 0.9162
-7.7910 -19.2892 -1.0902 0.9201
-5.5579 -20.6241 -1.1194 0.9180
-0.6200 -28.2253 -1.4796 0.8931
24.6132 -37.4682 -2.3494 0.8356
28.9433 -34.2339 -2.3494 0.8356
31.4558 -29.2050 -2.2495 0.8420
41.5242 -16.8943 -2.3494 0.8356
47.7193 -1.1692 -2.5016 0.8260
47.1856 4.5504 -2.4844 0.8271
43.7802 9.6421 -2.3494 0.8356
26.6145 9.3371 -1.4781 0.8932
26.6737 13.1506 -1.5586 0.8877
10.2507 8.6220 -0.7020 0.9478
6.3069 8.6463 -0.5609 0.9580
4.8327 8.6485 -0.5192 0.9611
3.5242 8.5996 -0.4871 0.9635
2.3558 8.5688 -0.4657 0.9650
-3.0268 8.6981 -0.4827 0.9638
-4.2355 8.6462 -0.5046 0.9622
-5.5933 8.6094 -0.5381 0.9597
-9.3209 8.7423 -0.6697 0.9501
-11.9435 8.7584 -0.7762 0.9424
-25.9520 7.2058 -1.4115 0.8977
-44.8597 6.7890 -2.3778 0.8338
-37.2486 1.1015 -1.9530 0.8613
-44.7770 -4.0892 -2.3564 0.8352
-39.7476 -8.5429 -2.1307 0.8497
-44.2470 -15.2716 -2.4531 0.8290
-42.9196 -20.8903 -2.5016 0.8260
-8.0334 -19.3231 -1.0967 0.9196
-5.7527 -20.5169 -1.1167 0.9182
-0.8843 -27.5394 -1.4440 0.8955
9.9118 -46.6932 -2.5016 0.8260
20.7816 -42.9723 -2.5016 0.8260
31.4522 -29.8009 -2.2707 0.8407
32.6320 -24.1851 -2.1287 0.8499
38.9667 -22.1648 -2.3494 0.8356
45.9283 -13.0034 -2.5016 0.8260
47.7049 -1.6529 -2.5016 0.8260
47.5568 4.1000 -2.5016 0.8260
26.7445 17.0875 -1.6633 0.8806
8.2228 8.6345 -0.6249 0.9534
6.4415 8.6454 -0.5650 0.9577
3.6262 8.5989 -0.4891 0.9633
2.4508 8.5732 -0.4673 0.9649
1.3609 8.5526 -0.4539 0.9659
-0.7270 8.6895 -0.4570 0.9657
-1.8000 8.6961 -0.4654 0.9651
-2.9179 8.6671 -0.4793 0.9640
-4.1275 8.6465 -0.5021 0.9624
-5.4737 8.6153 -0.5349 0.9599
-9.1324 8.7412 -0.6625 0.9506
-15.2070 8.7523 -0.9195 0.9321
-20.4529 8.6862 -1.1645 0.9148
-44.8054 7.2461 -2.3787 0.8338
-45.1011 1.7915 -2.3655 0.8346
-38.1916 -7.8043 -2.0429 0.8554
-40.3541 -25.4960 -2.5016 0.8260
-36.9926 -30.1669 -2.5016 0.8260
-14.9341 -19.8331 -1.3011 0.9053
-5.9254 -20.3376 -1.1102 0.9187
-3.5289 -21.4750 -1.1405 0.9165
3.7384 -47.5870 -2.5016 0.8260
28.2434 -34.8136 -2.3494 0.8356
31.2730 -30.2386 -2.2798 0.8401
34.9653 -15.0590 -1.9952 0.8586
41.3419 -12.1589 -2.2584 0.8415
47.6857 -2.1364 -2.5016 0.8260
47.5963 3.6180 -2.5016 0.8260
26.7766 12.5331 -1.5494 0.8883
26.7372 16.7036 -1.6522 0.8814
8.3903 8.6335 -0.6309 0.9529
23.7244 40.5054 -2.4601 0.8286
2.5464 8.5776 -0.4689 0.9648
1.4499 8.5519 -0.4546 0.9659
0.2712 5.7290 -0.3006 0.9773
-0.6383 8.6889 -0.4566 0.9657
-9.5979 29.4950 -1.6255 0.8832
-8.9478 8.7400 -0.6555 0.9511
-11.4453 8.7554 -0.7552 0.9439
-19.9580 8.7158 -1.1413 0.9165
-45.0925 2.2492 -2.3661 0.8346
-44.8652 -3.1817 -2.3572 0.8351
-37.2965 -29.7904 -2.5016 0.8260
-31.4058 -31.9899 -2.3494 0.8356
-15.4971 -20.1523 -1.3323 0.9032
-11.5066 -19.4191 -1.1830 0.9136
-1.3587 -25.9190 -1.3602 0.9013
23.4626 -38.1993 -2.3494 0.8356
31.4446 -31.0275 -2.3151 0.8378
31.4857 -24.3396 -2.0856 0.8527
38.5093 -22.9502 -2.3494 0.8356
40.9913 -18.1491 -2.3494 0.8356
-16.2946 -20.3651 -2.2818 0.9006
-11.9539 -19.3156 -1.9873 0.9128
-8.7548 -18.9122 -1.8233 0.9197
1.3152 -26.8216 -2.3494 0.8978
4.8272 -28.1831 -2.5016 0.8915
8.1837 -27.3974 -2.5016 0.8915
17.3539 -22.7252 -2.5016 0.8915
22.2704 -17.9118 -2.5004 0.8916
27.1827 -8.8708 -2.5016 0.8915
28.0527 -5.5351 -2.5016 0.8915
28.5149 -2.1189 -2.5016 0.8915
25.7499 7.6206 -2.3494 0.8978
24.6457 10.6640 -2.3494 0.8978
23.2889 13.6142 -2.3601 0.8973
