ply
format ascii 1.0
element vertex 1550
property float32 x
property float32 y
property float32 z
property float32 I
end_header
35.1618 16.1767 0.6756 0.8566
10.8214 8.6185 0.2415 0.9462
8.4983 8.6328 0.2114 0.9527
3.8213 8.6615 0.1652 0.9628
1.5261 8.6757 0.1538 0.9654
3.4778 65.0093 1.1364 0.7707
-0.5837 8.6675 0.1516 0.9658
-1.6477 8.6646 0.1540 0.9653
-2.7609 8.6604 0.1587 0.9643
-3.9869 8.7095 0.1672 0.9624
-5.3447 8.7179 0.1785 0.9599
-6.9239 8.7276 0.1945 0.9564
-14.6648 8.7523 0.2981 0.9340
-19.8600 8.8071 0.3792 0.9168
-56.5443 -17.9076 1.0353 0.7888
-64.7078 -29.4720 1.2411 0.7524
-24.2272 -31.1734 0.6891 0.8539
-20.0767 -33.4940 0.6816 0.8554
-15.7608 -35.3592 0.6757 0.8565
-10.0381 -32.6099 0.5956 0.8724
-2.3206 -40.4897 0.7079 0.8502
30.7273 -50.5509 1.0326 0.7893
33.1819 -42.1545 0.9364 0.8068
34.8519 -34.7028 0.8585 0.8214
40.4285 -24.3379 0.8237 0.8280
54.5167 -24.4245 1.0427 0.7874
79.7120 -24.7032 1.4567 0.7162
27.2489 8.5158 0.4983 0.8921
44.7019 20.1550 0.8559 0.8219
14.2053 8.5977 0.2898 0.9357
10.9906 8.6175 0.2438 0.9457
6.7560 8.6251 0.1912 0.9571
3.9001 8.6611 0.1658 0.9627
1.5942 8.6752 0.1540 0.9653
3.9737 65.0062 1.1368 0.7706
-0.5174 8.6671 0.1516 0.9659
-1.5801 8.6678 0.1538 0.9654
-2.6883 8.6599 0.1583 0.9644
-3.9068 8.7090 0.1666 0.9625
-6.8158 8.7269 0.1933 0.9567
32.1255 8.4876 -0.5800 0.8755
45.3885 18.0753 -0.8528 0.8225
12.0527 8.6110 -0.2586 0.9425
9.4286 8.6271 -0.2231 0.9502
7.3741 8.5953 -0.1977 0.9557
33.0414 65.4174 -1.2792 0.7459
3.1341 8.6658 -0.1608 0.9638
0.9204 8.6794 -0.1523 0.9657
-0.1301 8.6576 -0.1511 0.9660
-1.1813 8.6509 -0.1524 0.9657
-6.2072 8.7232 -0.1869 0.9581
-10.1569 8.7475 -0.2340 0.9478
-17.2169 8.7371 -0.3370 0.9257
-24.2825 8.8343 -0.4510 0.9018
-79.3310 18.4278 -1.4216 0.7219
-86.6404 -1.1373 -1.5124 0.7071
-54.8466 -14.2675 -0.9892 0.7971
-72.6160 -28.5986 -1.3623 0.7318
-60.4623 -42.8502 -1.2935 0.7434
-56.3780 -51.1927 -1.3294 0.7374
-7.8599 -33.5468 -0.6014 0.8712
-2.2869 -20.8091 -0.3654 0.9197
0.2483 -22.1205 -0.3861 0.9153
31.5727 -80.6171 -1.5112 0.7073
30.6878 -56.9890 -1.1298 0.7719
25.8710 -36.6520 -0.7831 0.8357
35.9886 -24.3106 -0.7581 0.8405
33.1206 8.4815 -0.5968 0.8722
36.7586 19.7040 -0.7280 0.8463
12.1916 8.5708 -0.2601 0.9421
33.6647 65.4100 -1.2841 0.7450
3.2086 8.6653 -0.1613 0.9637
2.0667 8.6723 -0.1556 0.9650
-1.1143 8.6505 -0.1522 0.9657
-2.1895 8.6183 -0.1552 0.9651
-4.6495 8.7136 -0.1724 0.9613
-6.1073 8.7226 -0.1859 0.9583
-53.9859 12.9740 -0.9692 0.8008
-20.9646 2.4251 -0.3684 0.9190
-70.4256 -49.1107 -1.4987 0.7093
-57.2089 -51.1586 -1.3396 0.7356
-10.2895 -19.8069 -0.3896 0.9146
-7.2822 -19.4392 -0.3623 0.9203
-4.7546 -19.6198 -0.3524 0.9224
-3.9481 -33.5708 -0.5900 0.8735
0.0584 -16.1501 -0.2819 0.9374
42.0066 -79.4507 -1.5687 0.6980
34.7203 -38.9755 -0.9111 0.8115
34.5058 -30.4102 -0.8030 0.8319
46.7062 -24.3765 -0.9196 0.8100
34.1752 8.4750 -0.6146 0.8686
52.3218 19.9194 -0.9772 0.7993
3.2836 8.6648 -0.1617 0.9636
2.1365 8.6719 -0.1559 0.9649
0.0016 8.6638 -0.1512 0.9659
-1.0474 8.6501 -0.1521 0.9657
-2.1206 8.6216 -0.1550 0.9651
-3.2631 8.6204 -0.1609 0.9638
-6.0085 8.7220 -0.1849 0.9585
-7.7197 8.7325 -0.2034 0.9544
-9.8476 8.7456 -0.2299 0.9487
-72.5488 -8.6444 -1.2753 0.7466
-55.2875 -13.4875 -0.9933 0.7964
-62.3096 -32.4904 -1.2266 0.7549
-7.5368 -19.6622 -0.3676 0.9192
25.0085 -36.5997 -0.7737 0.8375
34.9154 -24.3674 -0.7432 0.8434
45.8424 -24.3712 -0.9062 0.8124
52.2951 -20.1599 -0.9783 0.7991
50.2843 -12.6932 -0.9052 0.8126
60.5857 14.5361 -1.0875 0.7794
53.4869 19.8984 -0.9961 0.7959
9.8687 8.6244 -0.2288 0.9489
7.7331 8.6082 -0.2020 0.9548
4.5776 8.5711 -0.1696 0.9619
3.3591 8.6644 -0.1622 0.9635
-0.9806 8.6497 -0.1519 0.9658
-3.1882 8.6200 -0.1604 0.9639
-4.4800 8.7126 -0.1710 0.9616
-5.9108 8.7214 -0.1839 0.9587
-12.3829 8.7123 -0.2643 0.9412
-16.2902 8.7400 -0.3227 0.9287
-22.6331 8.8241 -0.4240 0.9074
-86.6412 0.8403 -1.5124 0.7071
-72.5477 -8.0850 -1.2742 0.7467
-72.6768 -26.7233 -1.3516 0.7336
-60.1837 -40.6217 -1.2674 0.7479
-58.8482 -65.0079 -1.5306 0.7041
-15.4202 -21.8287 -0.4665 0.8986
-7.7105 -19.6662 -0.3687 0.9190
-5.0518 -19.5422 -0.3523 0.9224
32.8604 -64.5086 -1.2637 0.7485
30.7567 -45.7556 -0.9623 0.8021
34.9130 -24.7628 -0.7471 0.8426
54.6979 19.8765 -1.0158 0.7923
10.0205 8.6234 -0.2308 0.9485
0.1336 8.6700 -0.1514 0.9659
-3.1137 8.6196 -0.1600 0.9640
-12.1920 8.7174 -0.2616 0.9418
-22.1262 8.8210 -0.4158 0.9091
-50.2294 13.2908 -0.9069 0.8123
-20.9746 2.9128 -0.3696 0.9188
-86.6371 1.4995 -1.5125 0.7071
-72.3923 -25.9952 -1.3426 0.7351
-60.2220 -39.9840 -1.2618 0.7489
-15.9180 -22.1734 -0.4764 0.8966
-10.9250 -19.9061 -0.3964 0.9132
-2.9110 -20.6727 -0.3644 0.9199
40.1043 -80.2325 -1.5657 0.6985
30.7522 -46.5092 -0.9732 0.8001
33.1437 -38.9608 -0.8928 0.8149
34.9105 -25.1625 -0.7512 0.8418
44.1877 -24.3610 -0.8807 0.8172
50.2169 -13.4922 -0.9076 0.8122
60.5797 13.5633 -1.0836 0.7801
35.1757 12.4803 -0.6515 0.8613
13.0676 8.6047 -0.2731 0.9393
10.1750 8.6225 -0.2328 0.9480
4.7459 8.5698 -0.1710 0.9616
2.3473 8.6706 -0.1568 0.9647
0.1996 8.6731 -0.1514 0.9659
-0.8475 8.6489 -0.1517 0.9658
-1.9152 8.6313 -0.1543 0.9652
-5.7183 8.7202 -0.1820 0.9591
-15.7565 8.7651 -0.3147 0.9304
-21.6385 8.8180 -0.4079 0.9108
-86.6329 2.1589 -1.5126 0.7070
-37.6712 -8.2839 -0.6733 0.8570
-8.1018 -19.7734 -0.3730 0.9181
-4.1715 -15.1796 -0.2748 0.9390
-3.0767 -20.7075 -0.3654 0.9197
-0.5877 -21.9109 -0.3826 0.9160
43.3947 -24.3561 -0.8686 0.8195
89.4450 -24.7630 -1.6200 0.6898
56.5541 19.5821 -1.0447 0.7871
40.3300 19.6820 -0.7833 0.8357
10.3322 8.6215 -0.2349 0.9476
2.4181 8.6702 -0.1571 0.9646
1.3230 8.6769 -0.1532 0.9655
0.2657 8.6762 -0.1515 0.9659
-0.7810 8.6485 -0.1516 0.9659
-1.8471 8.6346 -0.1541 0.9653
-5.6235 8.7196 -0.1811 0.9593
-7.2561 8.7296 -0.1981 0.9556
-9.2600 8.7419 -0.2223 0.9503
-11.8310 8.7343 -0.2567 0.9429
-21.1693 8.8151 -0.4003 0.9123
-50.0213 14.0537 -0.9069 0.8123
-52.7925 8.1520 -0.9324 0.8076
-86.6288 2.8186 -1.5129 0.7070
-72.6890 -24.8596 -1.3409 0.7354
-8.2380 -19.6779 -0.3724 0.9182
-9.4911 -33.5368 -0.6084 0.8698
-3.1991 -20.4587 -0.3614 0.9205
-0.7464 -21.6745 -0.3786 0.9169
2.4292 -28.0911 -0.4922 0.8933
41.6830 -86.6640 -1.6786 0.6806
29.9762 -46.8705 -0.9711 0.8005
32.1271 -38.9513 -0.8813 0.8171
34.8614 -33.1627 -0.8399 0.8249
34.9055 -25.9749 -0.7595 0.8402
87.5304 -24.9513 -1.5887 0.6948
98.0483 8.2907 -1.7175 0.6746
65.2799 13.5759 -1.1638 0.7659
57.9519 19.5735 -1.0677 0.7829
42.1424 20.1708 -0.8155 0.8295
10.4923 8.6205 -0.2370 0.9471
8.2428 8.6321 -0.2083 0.9534
6.4265 8.6018 -0.1874 0.9580
2.4892 8.6697 -0.1574 0.9646
0.3320 8.6793 -0.1516 0.9658
-0.7147 8.6481 -0.1515 0.9659
-1.7792 8.6378 -0.1539 0.9653
-2.8927 8.6184 -0.1587 0.9643
-5.5296 8.7190 -0.1802 0.9595
-9.1191 8.7411 -0.2205 0.9507
-11.6555 8.7425 -0.2543 0.9434
-15.0487 8.6737 -0.3032 0.9329
-20.7169 8.8124 -0.3930 0.9139
-49.9130 14.4337 -0.9069 0.8123
-52.7898 8.5635 -0.9335 0.8074
-72.7585 -5.8738 -1.2741 0.7467
-72.5485 -24.1967 -1.3349 0.7364
-63.0875 -29.9013 -1.2186 0.7563
-17.1791 -22.8126 -0.4985 0.8920
-11.6270 -20.0842 -0.4051 0.9113
-3.3601 -20.4676 -0.3620 0.9204
-0.9169 -21.8018 -0.3809 0.9164
2.1294 -27.0184 -0.4731 0.8972
29.9714 -47.6582 -0.9827 0.7983
31.5583 -38.8605 -0.8738 0.8185
34.8582 -33.6685 -0.8459 0.8238
41.8722 -24.3468 -0.8454 0.8238
56.8516 -24.4388 -1.0801 0.7807
84.6315 -24.8229 -1.5395 0.7027
59.4121 19.5645 -1.0918 0.7786
42.9394 20.1523 -0.8279 0.8272
10.6553 8.6195 -0.2392 0.9466
34.6300 35.7174 -0.8684 0.8195
5.0037 8.5680 -0.1732 0.9611
3.7431 8.6620 -0.1647 0.9630
2.5606 8.6693 -0.1578 0.9645
1.4583 8.6761 -0.1536 0.9654
0.3966 8.6458 -0.1511 0.9660
-4.0676 8.7100 -0.1678 0.9623
-5.4367 8.7184 -0.1793 0.9597
-7.0332 8.7283 -0.1957 0.9561
-8.9804 8.7402 -0.2187 0.9511
-11.4832 8.7506 -0.2520 0.9439
-14.7856 8.6726 -0.2992 0.9337
-49.8017 14.8131 -0.9069 0.8123
-57.5808 -18.7189 -1.0568 0.7849
-63.4442 -29.4815 -1.2211 0.7559
-11.9673 -20.3141 -0.4115 0.9100
-8.5667 -19.6195 -0.3737 0.9179
-5.7650 -19.2482 -0.3507 0.9228
-3.4759 -20.2092 -0.3579 0.9212
40.4576 -87.5003 -1.6827 0.6800
27.0044 -43.6740 -0.8963 0.8143
34.8551 -34.1820 -0.8521 0.8226
34.9004 -26.8058 -0.7681 0.8386
41.1408 -24.3423 -0.8344 0.8259
55.6638 -24.4315 -1.0611 0.7841
51.8533 9.9631 -0.9217 0.8096
35.1618 16.1767 -0.6756 0.8566
13.9667 8.5992 -0.2863 0.9365
10.8214 8.6185 -0.2415 0.9462
8.4983 8.6328 -0.2114 0.9527
5.0911 8.5673 -0.1740 0.9609
2.6324 8.6688 -0.1581 0.9644
3.1365 58.6297 -1.0248 0.7907
-0.5823 8.6473 -0.1513 0.9659
-2.7472 8.6177 -0.1579 0.9645
-3.9869 8.7095 -0.1672 0.9624
-14.5295 8.6716 -0.2953 0.9345
-26.6884 8.1597 -0.4871 0.8944
-52.7845 9.3890 -0.9358 0.8070
-86.6163 4.7989 -1.5142 0.7068
-68.8286 -4.5033 -1.2040 0.7589
-47.1783 -8.8788 -0.8380 0.8253
-72.4231 -32.9861 -1.3891 0.7273
-18.1222 -23.3181 -0.5155 0.8886
-8.9342 -20.0439 -0.3830 0.9160
-3.6492 -20.2921 -0.3599 0.9208
1.5711 -24.7348 -0.4326 0.9056
39.6503 -87.4953 -1.6767 0.6809
26.2351 -33.3293 -0.7404 0.8439
34.8519 -34.7028 -0.8585 0.8214
79.7121 -24.7032 -1.4567 0.7162
41.1241 18.5419 -0.7874 0.8349
14.2053 8.5977 -0.2898 0.9357
10.9906 8.6175 -0.2438 0.9457
8.6279 8.6320 -0.2130 0.9523
6.7361 8.5997 -0.1907 0.9572
3.9001 8.6611 -0.1658 0.9627
1.5942 8.6752 -0.1540 0.9653
-0.5162 8.6469 -0.1512 0.9659
-1.5764 8.6475 -0.1534 0.9654
-5.2535 8.7173 -0.1777 0.9601
-6.8158 8.7269 -0.1933 0.9567
-11.1314 8.7534 -0.2472 0.9449
-14.2796 8.6705 -0.2916 0.9354
-19.3894 8.7755 -0.3715 0.9184
-54.0039 10.0302 -0.9588 0.8027
-86.6780 -5.0094 -1.5155 0.7066
44.4028 6.1494 -2.3493 0.8356
9.4286 8.6271 -0.6698 0.9501
7.3705 8.5911 -0.5932 0.9557
9.4593 18.7281 -1.0996 0.9194
3.1341 8.6658 -0.4829 0.9638
-0.1301 8.6576 -0.4538 0.9659
-1.1785 8.6306 -0.4565 0.9657
-6.2072 8.7232 -0.5611 0.9580
-7.9610 8.7340 -0.6193 0.9538
-12.9577 8.6814 -0.8174 0.9394
-21.8416 7.9462 -1.2181 0.9111
-44.3822 10.3096 -2.3879 0.8332
-45.2415 -0.5939 -2.3712 0.8342
-39.8482 -5.3642 -2.1072 0.8512
-37.7099 -9.8097 -2.0421 0.8555
-41.9820 -22.7099 -2.5015 0.8260
-29.3173 -33.9105 -2.3493 0.8356
-13.9847 -20.7876 -1.3130 0.9045
-6.9916 -19.1045 -1.0662 0.9217
-4.5336 -19.3498 -1.0415 0.9235
-2.2688 -20.6444 -1.0884 0.9202
0.2454 -21.8587 -1.1456 0.9162
5.1220 -38.6042 -2.0409 0.8556
22.6300 -42.0251 -2.5015 0.8260
30.0711 -33.2438 -2.3493 0.8356
33.8547 -29.3817 -2.3493 0.8356
42.0668 -15.4858 -2.3493 0.8356
46.4515 -10.9766 -2.5015 0.8260
47.4351 -5.3044 -2.5015 0.8260
47.7287 0.4450 -2.5015 0.8260
44.4483 5.8114 -2.3493 0.8356
33.1206 8.4815 -1.7918 0.8720
16.0772 8.6180 -0.9560 0.9295
12.1916 8.5708 -0.7810 0.9421
9.5729 8.6262 -0.6753 0.9497
7.4896 8.5967 -0.5975 0.9554
9.4840 18.4272 -1.0861 0.9203
2.0667 8.6723 -0.4672 0.9649
0.9872 8.6790 -0.4578 0.9656
-2.1843 8.5978 -0.4649 0.9651
-3.3217 8.5775 -0.4821 0.9638
-6.1073 8.7226 -0.5580 0.9582
-7.8395 8.7332 -0.6150 0.9541
-10.0009 8.7465 -0.6963 0.9482
-21.8404 8.1345 -1.2214 0.9109
-20.9252 2.4206 -1.1040 0.9191
-39.1514 -27.3019 -2.5015 0.8260
-35.5797 -31.8168 -2.5015 0.8260
-29.5744 -33.6865 -2.3493 0.8356
-14.4083 -21.0694 -1.3377 0.9028
-7.2076 -19.2399 -1.0767 0.9210
-4.6845 -19.3308 -1.0424 0.9234
-2.4135 -20.5225 -1.0830 0.9206
0.0584 -16.1500 -0.8464 0.9374
25.5708 -36.8179 -2.3493 0.8356
29.8173 -33.4717 -2.3493 0.8356
33.6301 -29.6385 -2.3493 0.8356
35.2456 -24.2012 -2.2407 0.8426
39.7398 -20.7406 -2.3493 0.8356
47.7307 0.0818 -2.5015 0.8260
34.1752 8.4750 -1.8453 0.8685
22.5026 8.5669 -1.2619 0.9081
16.8330 8.8589 -0.9969 0.9266
12.4454 8.6085 -0.7931 0.9412
7.6105 8.6024 -0.6019 0.9550
4.5275 8.6347 -0.5110 0.9617
2.1365 8.6719 -0.4681 0.9649
0.0016 8.6638 -0.4540 0.9659
-2.1156 8.6011 -0.4642 0.9651
-3.2468 8.5773 -0.4806 0.9639
-6.0085 8.7220 -0.5551 0.9585
-9.8476 8.7456 -0.6902 0.9486
-12.5672 8.6998 -0.8010 0.9406
-21.8393 8.3238 -1.2249 0.9106
-44.2555 10.9925 -2.3898 0.8331
-39.7778 -4.7396 -2.0994 0.8518
-41.9537 -15.7896 -2.3493 0.8356
-42.3227 -22.0685 -2.5015 0.8260
-39.3580 -27.0032 -2.5015 0.8260
-35.8208 -31.5452 -2.5015 0.8260
-29.8299 -33.4604 -2.3493 0.8356
-10.5162 -19.8722 -1.1783 0.9139
-2.5598 -20.4251 -1.0788 0.9209
-0.0860 -21.5450 -1.1291 0.9173
5.2190 -44.5218 -2.3493 0.8356
11.2241 -46.3923 -2.5015 0.8260
21.9879 -42.3646 -2.5015 0.8260
25.6075 -29.1900 -2.0350 0.8560
39.5809 -21.0424 -2.3493 0.8356
41.8263 -16.1241 -2.3493 0.8356
47.7299 -0.2813 -2.5015 0.8260
23.0234 8.5653 -1.2874 0.9063
16.8751 8.7177 -0.9954 0.9267
9.8687 8.6244 -0.6869 0.9489
7.7331 8.6082 -0.6064 0.9547
5.9968 8.5579 -0.5477 0.9590
4.5534 8.5258 -0.5066 0.9620
3.3591 8.6644 -0.4870 0.9635
1.1211 8.6781 -0.4586 0.9656
0.0676 8.6669 -0.4542 0.9659
-3.1723 8.5770 -0.4793 0.9640
-5.9108 8.7214 -0.5521 0.9587
-7.6015 8.7317 -0.6067 0.9547
-12.3777 8.7087 -0.7932 0.9412
-44.1882 11.3333 -2.3908 0.8330
-20.8720 2.7369 -1.1032 0.9191
-45.2551 0.4389 -2.3718 0.8342
-40.3327 -4.4948 -2.1268 0.8500
-42.0726 -15.4701 -2.3493 0.8356
-42.4894 -21.7458 -2.5015 0.8260
-36.0597 -31.2717 -2.5015 0.8260
-32.0326 -35.3855 -2.5015 0.8260
-15.0162 -21.2567 -1.3639 0.9010
-10.6632 -19.7844 -1.1779 0.9139
-2.7126 -20.3863 -1.0778 0.9209
4.8802 -44.5602 -2.3493 0.8356
10.8708 -46.4763 -2.5015 0.8260
25.0076 -37.2028 -2.3493 0.8356
25.3497 -29.3435 -2.0322 0.8561
34.8086 -24.6888 -2.2365 0.8429
38.2051 -15.0630 -2.1522 0.8483
47.3017 -6.3856 -2.5015 0.8260
43.6679 10.1263 -2.3493 0.8356
23.5658 8.5635 -1.3140 0.9044
17.1885 8.7146 -1.0100 0.9257
12.8556 8.6060 -0.8108 0.9399
10.0205 8.6234 -0.6928 0.9484
7.8576 8.6140 -0.6110 0.9544
6.0976 8.5625 -0.5509 0.9588
4.6367 8.5250 -0.5086 0.9619
3.4350 8.6639 -0.4884 0.9634
2.2768 8.6710 -0.4698 0.9647
1.1883 8.6777 -0.4590 0.9655
-0.9118 8.6291 -0.4547 0.9658
-3.0982 8.5767 -0.4779 0.9641
-4.3962 8.7120 -0.5114 0.9617
-7.4767 8.7215 -0.6020 0.9550
-12.1920 8.7174 -0.7855 0.9417
-22.1262 8.8210 -1.2483 0.9090
-45.2599 0.7834 -2.3723 0.8342
-34.7560 -7.9205 -1.8682 0.8669
-42.6536 -21.4220 -2.5015 0.8260
-39.7643 -26.4013 -2.5015 0.8260
-36.2966 -30.9965 -2.5015 0.8260
-32.3009 -35.1408 -2.5015 0.8260
-15.5105 -21.6057 -1.3939 0.8989
-10.8653 -19.7973 -1.1835 0.9135
-7.7437 -19.3171 -1.0907 0.9200
-2.8665 -20.3564 -1.0774 0.9210
4.5410 -44.5960 -2.3493 0.8356
10.5169 -46.5577 -2.5015 0.8260
21.3408 -42.6942 -2.5015 0.8260
34.8061 -25.0872 -2.2486 0.8421
38.0642 -15.3431 -2.1508 0.8484
47.2517 -6.7453 -2.5015 0.8260
45.5046 4.5462 -2.3967 0.8326
43.7436 9.7938 -2.3493 0.8356
13.0676 8.6047 -0.8200 0.9393
10.1750 8.6225 -0.6990 0.9480
7.9840 8.6199 -0.6158 0.9540
3.5113 8.6634 -0.4899 0.9632
2.3473 8.6706 -0.4708 0.9647
-0.8455 8.6287 -0.4544 0.9659
-3.0245 8.5764 -0.4766 0.9642
-4.3131 8.7115 -0.5094 0.9618
-5.7183 8.7202 -0.5465 0.9591
-9.4032 8.7428 -0.6729 0.9499
-15.7565 8.7651 -0.9449 0.9303
-26.4289 7.2088 -1.4357 0.8961
-36.9080 0.9197 -1.9349 0.8625
-42.3031 -14.8282 -2.3493 0.8356
-42.8154 -21.0967 -2.5015 0.8260
-11.1820 -20.0117 -1.2014 0.9123
-7.9271 -19.3471 -1.0957 0.9197
-4.1701 -15.1746 -0.8247 0.9389
-0.5733 -21.3743 -1.1206 0.9179
2.6351 -27.9904 -1.4734 0.8935
21.0153 -42.8554 -2.5015 0.8260
39.0903 -21.9402 -2.3493 0.8356
41.4474 -17.0746 -2.3493 0.8356
47.1991 -7.1045 -2.5015 0.8260
47.7111 -1.3706 -2.5015 0.8260
47.4337 4.3747 -2.4964 0.8263
43.8169 9.4606 -2.3493 0.8356
30.0294 10.3978 -1.6654 0.8805
13.2846 8.6034 -0.8295 0.9386
10.3322 8.6215 -0.7052 0.9475
4.8053 8.5234 -0.5128 0.9616
3.5881 8.6630 -0.4914 0.9631
1.3230 8.6769 -0.4600 0.9655
-1.8428 8.6142 -0.4617 0.9653
-4.2307 8.7110 -0.5075 0.9620
-5.6235 8.7196 -0.5438 0.9593
-7.2561 8.7296 -0.5949 0.9555
-11.8310 8.7343 -0.7707 0.9428
-15.4371 8.7418 -0.9297 0.9314
-21.1693 8.8151 -1.2018 0.9122
-25.6410 7.2039 -1.3958 0.8988
-36.7641 -30.4406 -2.5015 0.8260
-11.2682 -19.8107 -1.1944 0.9128
-8.0915 -19.3278 -1.0981 0.9195
-5.3785 -19.0051 -1.0351 0.9239
-3.1620 -20.2219 -1.0727 0.9213
-0.7354 -21.3531 -1.1197 0.9180
5.4118 -25.7770 -1.3804 0.8999
15.3597 -45.1919 -2.5015 0.8260
24.7221 -38.6552 -2.4047 0.8321
38.9222 -22.2371 -2.3493 0.8356
41.3163 -17.3894 -2.3493 0.8356
42.6210 -12.1495 -2.3226 0.8373
47.6993 -1.7334 -2.5015 0.8260
47.5611 4.0216 -2.5015 0.8260
43.8876 9.1271 -2.3493 0.8356
30.0909 14.4025 -1.7483 0.8749
13.5065 8.6020 -0.8392 0.9379
8.2428 8.6321 -0.6255 0.9533
4.8907 8.5226 -0.5150 0.9614
1.3905 8.6765 -0.4605 0.9654
0.3320 8.6793 -0.4552 0.9658
-1.7750 8.6175 -0.4611 0.9654
-2.8784 8.5759 -0.4741 0.9644
-5.5296 8.7190 -0.5411 0.9595
-7.1440 8.7289 -0.5911 0.9558
-9.1191 8.7411 -0.6620 0.9507
-11.6555 8.7425 -0.7636 0.9433
-19.3408 8.2270 -1.1015 0.9193
-24.8518 7.1866 -1.3558 0.9016
-44.8356 7.2731 -2.3804 0.8337
-45.2579 1.8172 -2.3738 0.8341
-37.3497 -7.6193 -1.9977 0.8584
-42.5238 -14.1827 -2.3493 0.8356
-16.9839 -22.5534 -1.4796 0.8931
-8.3578 -19.5453 -1.1140 0.9184
-5.5091 -18.9160 -1.0325 0.9241
-3.2893 -20.0361 -1.0641 0.9219
2.0646 -26.1958 -1.3771 0.9001
9.4516 -46.7856 -2.5015 0.8260
28.2588 -34.7975 -2.3493 0.8356
32.2426 -31.1422 -2.3493 0.8356
34.7986 -26.3092 -2.2863 0.8397
41.1828 -17.7033 -2.3493 0.8356
45.8013 -13.4338 -2.5015 0.8260
47.0855 -7.8219 -2.5015 0.8260
47.6847 -2.0964 -2.5015 0.8260
47.5903 3.6598 -2.5015 0.8260
30.0223 9.8864 -1.6565 0.8811
10.6553 8.6195 -0.7183 0.9466
6.5096 8.5762 -0.5643 0.9578
3.7431 8.6620 -0.4945 0.9629
0.3966 8.6458 -0.4536 0.9659
-0.6474 8.6333 -0.4537 0.9659
-1.7074 8.6207 -0.4606 0.9654
-7.0332 8.7283 -0.5875 0.9561
-11.4832 8.7506 -0.7566 0.9438
-14.6764 8.6085 -0.8917 0.9341
-24.0541 7.1547 -1.3152 0.9044
-44.7858 7.6151 -2.3808 0.8336
-45.0666 -3.2932 -2.3681 0.8344
-42.6305 -13.8587 -2.3493 0.8356
-43.2856 -20.1142 -2.5015 0.8260
-33.3552 -34.1416 -2.5015 0.8260
-17.3434 -22.6696 -1.4959 0.8920
-8.4756 -19.4107 -1.1100 0.9187
-3.4494 -20.0552 -1.0665 0.9217
20.0317 -43.3239 -2.5015 0.8260
27.9933 -35.0114 -2.3493 0.8356
32.0047 -31.3870 -2.3493 0.8356
34.7960 -26.7256 -2.2994 0.8388
38.5793 -22.8267 -2.3493 0.8356
41.0469 -18.0160 -2.3493 0.8356
47.0246 -8.1800 -2.5015 0.8260
47.6674 -2.4590 -2.5015 0.8260
47.6167 3.2975 -2.5015 0.8260
30.0188 9.6327 -1.6522 0.8814
30.0817 13.8396 -1.7354 0.8758
13.9667 8.5992 -0.8596 0.9364
3.8213 8.6615 -0.4961 0.9628
2.6324 8.6688 -0.4748 0.9644
2.5343 47.3723 -2.4862 0.8269
-5.3447 8.7179 -0.5359 0.9599
-6.9238 8.7276 -0.5838 0.9564
-8.8439 8.7394 -0.6516 0.9514
-27.0941 20.9744 -1.7957 0.8718
-19.0962 8.4684 -1.0948 0.9197
-24.2981 7.4289 -1.3316 0.9032
-44.7362 7.9575 -2.3813 0.8336
-45.0920 -2.9503 -2.3682 0.8344
-42.7347 -13.5341 -2.3493 0.8356
-37.4493 -29.5935 -2.5015 0.8260
-33.6140 -33.8870 -2.5015 0.8260
-17.9655 -23.1165 -1.5343 0.8893
-5.8893 -19.1321 -1.0491 0.9229
-1.2074 -21.0670 -1.1059 0.9190
19.7016 -43.4750 -2.5015 0.8260
31.7651 -31.6292 -2.3493 0.8356
33.1232 -25.8439 -2.2018 0.8451
37.8511 -22.7863 -2.3154 0.8378
40.9086 -18.3278 -2.3493 0.8356
31.0598 5.7231 -1.6552 0.8812
14.2053 8.5977 -0.8702 0.9357
10.9906 8.6175 -0.7319 0.9456
8.6279 8.6320 -0.6396 0.9523
6.7163 8.5744 -0.5708 0.9573
2.7045 8.6684 -0.4759 0.9643
1.5942 8.6752 -0.4623 0.9653
-0.5158 8.6395 -0.4536 0.9659
-1.5727 8.6272 -0.4596 0.9655
-2.6619 8.5750 -0.4706 0.9647
-3.9068 8.7090 -0.5002 0.9625
-8.7096 8.7386 -0.6466 0.9518
-11.1314 8.7534 -0.7421 0.9449
-18.9858 8.5928 -1.0922 0.9199
-22.8097 7.1641 -1.2530 0.9087
-44.6923 8.3008 -2.3823 0.8335
-45.2311 2.8514 -2.3752 0.8340
-41.7593 -7.5306 -2.2238 0.8437
28.3215 3.9223 -2.5015 0.8915
25.9614 6.8590 -2.3493 0.8978
24.9468 9.9347 -2.3493 0.8978
16.0061 8.7373 -1.5954 0.9294
9.4286 8.6271 -1.1181 0.9500
7.3705 8.5911 -0.9903 0.9556
5.6847 8.5198 -0.8961 0.9597
9.1376 18.0911 -1.7732 0.9218
3.1341 8.6658 -0.8062 0.9637
1.9972 8.6728 -0.7786 0.9649
0.9204 8.6794 -0.7636 0.9656
-0.1301 8.6576 -0.7575 0.9658
-2.2478 8.5741 -0.7755 0.9650
-8.7274 22.0372 -2.0737 0.9092
-4.7353 8.7141 -0.8677 0.9610
-12.8460 8.6066 -1.3528 0.9398
-21.1930 2.2883 -1.8649 0.9180
-26.8499 -0.3525 -2.3493 0.8978
-28.2640 -3.8048 -2.4951 0.8918
-27.6709 -7.1982 -2.5015 0.8915
-25.1482 -13.6037 -2.5015 0.8915
-17.5617 -20.3132 -2.3493 0.8978
-14.1055 -20.9671 -2.2109 0.9035
13.5559 -25.1740 -2.5015 0.8915
23.6927 -16.0046 -2.5015 0.8915
26.8315 -9.8774 -2.5015 0.8915
28.4147 -3.1775 -2.5015 0.8915
28.5906 0.2665 -2.5015 0.8915
9.5729 8.6262 -1.1274 0.9496
7.4896 8.5967 -0.9975 0.9553
5.7817 8.5241 -0.9011 0.9595
9.2286 17.9311 -1.7643 0.9222
2.0667 8.6723 -0.7800 0.9648
0.9872 8.6790 -0.7642 0.9655
-1.1093 8.6117 -0.7596 0.9657
-4.6495 8.7136 -0.8641 0.9611
-6.1073 8.7226 -0.9316 0.9581
-7.8395 8.7332 -1.0267 0.9540
-10.0009 8.7465 -1.1624 0.9481
-16.5904 8.5786 -1.6340 0.9277
-18.9296 2.1897 -1.6672 0.9263
-25.2510 -13.4120 -2.5015 0.8915
-23.4526 -16.3545 -2.5015 0.8915
-14.4639 -21.1507 -2.2418 0.9022
-10.1441 -19.5271 -1.9252 0.9154
-7.3658 -19.6624 -1.8370 0.9191
-4.7032 -19.4076 -1.7471 0.9229
-2.4177 -20.5580 -1.8110 0.9202
3.3292 -26.6450 -2.3493 0.8978
10.2237 -26.7015 -2.5015 0.8915
16.3098 -23.4837 -2.5015 0.8915
19.0184 -21.3493 -2.5015 0.8915
28.5918 0.0490 -2.5015 0.8915
25.0951 9.5539 -2.3493 0.8978
16.8345 8.8597 -1.6643 0.9265
12.4454 8.6085 -1.3239 0.9410
9.7196 8.6253 -1.1369 0.9492
5.8799 8.5284 -0.9063 0.9593
3.2836 8.6648 -0.8107 0.9635
-1.0431 8.6148 -0.7592 0.9658
-2.1106 8.5807 -0.7731 0.9651
-3.2305 8.5344 -0.7984 0.9640
-6.0085 8.7220 -0.9266 0.9584
-7.7197 8.7325 -1.0197 0.9543
-12.4683 8.6313 -1.3267 0.9409
-16.3481 8.6116 -1.6166 0.9285
-21.3805 8.1490 -2.0018 0.9122
-26.7594 -10.0711 -2.5015 0.8915
-23.5763 -16.1756 -2.5015 0.8915
-17.8688 -20.0436 -2.3493 0.8978
-10.3472 -19.5527 -1.9354 0.9150
-7.4247 -19.3697 -1.8149 0.9201
-2.5654 -20.4696 -1.8049 0.9205
-0.0854 -21.3953 -1.8719 0.9177
13.1713 -25.3774 -2.5015 0.8915
16.1307 -23.6071 -2.5015 0.8915
18.8554 -21.4934 -2.5015 0.8915
21.3059 -19.0670 -2.5015 0.8915
23.4465 -16.3632 -2.5015 0.8915
26.6781 -10.2845 -2.5015 0.8915
27.7222 -6.9979 -2.5015 0.8915
28.5913 -0.1685 -2.5015 0.8915
16.8835 8.7221 -1.6626 0.9265
7.7331 8.6082 -1.0124 0.9546
9.5137 17.8135 -1.7668 0.9221
2.2065 8.6715 -0.7828 0.9647
1.1211 8.6781 -0.7655 0.9655
-3.1565 8.5342 -0.7961 0.9641
-4.4800 8.7126 -0.8571 0.9614
-9.6970 8.7446 -1.1424 0.9489
-12.2848 8.6433 -1.3141 0.9415
-26.0816 6.6894 -2.3557 0.8975
-26.8509 0.2604 -2.3493 0.8978
-27.8280 -6.5648 -2.5015 0.8915
-26.8352 -9.8673 -2.5015 0.8915
-25.4521 -13.0263 -2.5015 0.8915
-21.6006 -18.7325 -2.5015 0.8915
-10.5523 -19.5786 -1.9459 0.9146
-7.5718 -19.3127 -1.8149 0.9201
-0.2472 -21.3095 -1.8645 0.9180
2.9234 -26.6926 -2.3493 0.8978
15.9506 -23.7291 -2.5015 0.8915
18.6914 -21.6362 -2.5015 0.8915
23.3213 -16.5412 -2.5015 0.8915
25.1431 -13.6132 -2.5015 0.8915
27.6682 -7.2086 -2.5015 0.8915
28.5892 -0.3860 -2.5015 0.8915
28.4278 3.0587 -2.5015 0.8915
25.2375 9.1710 -2.3493 0.8978
17.1994 8.7201 -1.6871 0.9255
12.8556 8.6060 -1.3535 0.9398
10.0205 8.6234 -1.1566 0.9483
6.0796 8.5371 -0.9169 0.9588
4.6122 8.4799 -0.8445 0.9620
3.4350 8.6639 -0.8154 0.9633
2.2768 8.6710 -0.7843 0.9646
-0.9110 8.6210 -0.7584 0.9658
-3.0828 8.5341 -0.7939 0.9642
-4.3962 8.7120 -0.8537 0.9616
-5.8140 8.7208 -0.9170 0.9588
-7.4767 8.7214 -1.0050 0.9549
-12.1047 8.6550 -1.3019 0.9420
-26.8482 0.4647 -2.3493 0.8978
-26.8041 -2.7808 -2.3576 0.8974
-25.5505 -12.8322 -2.5015 0.8915
-23.8197 -15.8150 -2.5015 0.8915
-21.7425 -18.5676 -2.5015 0.8915
-15.6023 -21.7336 -2.3407 0.8981
-10.7596 -19.6048 -1.9565 0.9141
-2.8505 -20.2432 -1.7885 0.9212
-0.4077 -21.2243 -1.8572 0.9183
15.7696 -23.8498 -2.5015 0.8915
25.0388 -13.8041 -2.5015 0.8915
26.5186 -10.6892 -2.5015 0.8915
27.6126 -7.4189 -2.5015 0.8915
28.3049 -4.0406 -2.5015 0.8915
28.4502 2.8423 -2.5015 0.8915
25.3066 8.9787 -2.3493 0.8978
24.0899 11.9841 -2.3540 0.8976
3.5113 8.6634 -0.8178 0.9632
1.2555 8.6773 -0.7671 0.9654
-0.8450 8.6241 -0.7581 0.9658
-1.9062 8.5906 -0.7699 0.9653
-3.0106 8.5368 -0.7920 0.9643
-4.3131 8.7115 -0.8505 0.9617
-5.7183 8.7202 -0.9123 0.9590
-15.4780 18.3354 -2.0993 0.9081
-9.4032 8.7428 -1.1233 0.9498
-20.0129 8.1555 -1.8907 0.9169
-26.7291 -2.5676 -2.3493 0.8978
-27.9246 -6.1406 -2.5015 0.8915
-26.9823 -9.4578 -2.5015 0.8915
-25.6474 -12.6374 -2.5015 0.8915
-15.8250 -21.6935 -2.3493 0.8978
-7.8841 -19.2421 -1.8193 0.9199
-3.0262 -20.3676 -1.8015 0.9206
-0.5670 -21.1399 -1.8502 0.9186
2.5168 -26.7339 -2.3493 0.8978
9.4064 -27.0002 -2.5015 0.8915
12.5887 -25.6713 -2.5015 0.8915
26.4364 -10.8907 -2.5015 0.8915
28.2733 -4.2558 -2.5015 0.8915
28.5800 -0.8210 -2.5015 0.8915
28.4710 2.6258 -2.5015 0.8915
26.2473 5.6671 -2.3493 0.8978
8.1111 8.6245 -1.0358 0.9536
4.7807 8.4799 -0.8517 0.9617
3.5881 8.6630 -0.8203 0.9631
0.2657 8.6762 -0.7594 0.9657
-1.8384 8.5939 -0.7689 0.9653
-5.6235 8.7196 -0.9078 0.9592
-7.2561 8.7296 -0.9931 0.9554
-9.2600 8.7419 -1.1141 0.9502
-19.9049 8.2886 -1.8864 0.9171
-25.9403 7.2880 -2.3574 0.8975
-26.7479 -2.3642 -2.3493 0.8978
-19.6081 -20.6912 -2.4940 0.8918
-15.9896 -21.5725 -2.3493 0.8978
-8.0652 -19.2650 -1.8272 0.9196
-5.3683 -18.9692 -1.7248 0.9239
-3.1610 -20.2153 -1.7901 0.9211
-0.7251 -21.0560 -1.8433 0.9189
2.2493 -26.0111 -2.2842 0.9005
9.2008 -27.0710 -2.5015 0.8915
18.1927 -22.0571 -2.5015 0.8915
20.7159 -19.7065 -2.5015 0.8915
24.8258 -14.1835 -2.5015 0.8915
27.4965 -7.8381 -2.5015 0.8915
28.2401 -4.4708 -2.5015 0.8915
28.5730 -1.0384 -2.5015 0.8915
28.4902 2.4090 -2.5015 0.8915
25.4403 8.5926 -2.3493 0.8978
13.5065 8.6020 -1.4010 0.9377
6.3883 8.5507 -0.9338 0.9580
4.8684 8.4838 -0.8558 0.9615
3.6653 8.6625 -0.8229 0.9629
2.4892 8.6697 -0.7891 0.9644
1.3905 8.6765 -0.7688 0.9653
0.3320 8.6793 -0.7599 0.9657
-2.8676 8.5438 -0.7885 0.9645
-4.1488 8.7105 -0.8441 0.9620
-14.6171 8.4249 -1.4760 0.9345
-19.0994 8.1243 -1.8159 0.9200
-26.8306 1.0773 -2.3493 0.8978
-26.7651 -2.1607 -2.3493 0.8978
-25.8367 -12.2457 -2.5015 0.8915
-16.1532 -21.4503 -2.3493 0.8978
-5.5630 -19.1011 -1.7406 0.9232
-3.2943 -20.0662 -1.7791 0.9216
-0.8820 -20.9728 -1.8365 0.9192
1.9811 -25.1367 -2.2060 0.9037
8.9945 -27.1402 -2.5015 0.8915
12.1966 -25.8599 -2.5015 0.8915
15.2211 -24.2035 -2.5015 0.8915
18.0244 -22.1949 -2.5015 0.8915
20.5654 -19.8635 -2.5015 0.8915
22.8072 -17.2432 -2.5015 0.8915
24.7172 -14.3719 -2.5015 0.8915
26.2677 -11.2917 -2.5015 0.8915
28.2053 -4.6855 -2.5015 0.8915
28.5642 -1.2558 -2.5015 0.8915
28.5077 2.1923 -2.5015 0.8915
26.3305 5.2671 -2.3493 0.8978
25.5049 8.3988 -2.3493 0.8978
10.6553 8.6195 -1.1990 0.9465
18.9533 19.5484 -2.3821 0.8964
6.4907 8.5512 -0.9392 0.9578
4.9569 8.4877 -0.8599 0.9613
1.4583 8.6761 -0.7697 0.9653
0.3966 8.6458 -0.7572 0.9658
-0.6474 8.6333 -0.7574 0.9658
-1.7034 8.6004 -0.7671 0.9654
-4.0676 8.7100 -0.8410 0.9621
-5.4367 8.7184 -0.8989 0.9596
-7.0332 8.7283 -0.9807 0.9560
-14.4504 8.4760 -1.4657 0.9349
-18.8684 8.1961 -1.7998 0.9207
-24.1895 7.1950 -2.2079 0.9036
-26.8216 1.2815 -2.3493 0.8978
-28.0575 -5.5017 -2.5015 0.8915
-27.1911 -8.8395 -2.5015 0.8915
-24.2900 -15.0828 -2.5015 0.8915
-19.9766 -20.4475 -2.5010 0.8916
-16.3160 -21.3267 -2.3493 0.8978
-8.4322 -19.3112 -1.8436 0.9189
-5.6716 -18.9361 -1.7294 0.9237
-3.4516 -20.0681 -1.7815 0.9215
15.0366 -24.3186 -2.5015 0.8915
17.8550 -22.3314 -2.5015 0.8915
24.6071 -14.5596 -2.5015 0.8915
26.1810 -11.4912 -2.5015 0.8915
28.1688 -4.9000 -2.5015 0.8915
28.5539 -1.4730 -2.5015 0.8915
26.3698 5.0667 -2.3493 0.8978
25.5681 8.2045 -2.3493 0.8978
24.4144 11.2322 -2.3512 0.8977
6.5966 8.5548 -0.9451 0.9576
5.0462 8.4917 -0.8642 0.9611
2.6324 8.6688 -0.7926 0.9643
-0.5816 8.6364 -0.7573 0.9658
-1.6361 8.6037 -0.7662 0.9654
-2.7259 8.5507 -0.7852 0.9646
-8.8439 8.7394 -1.0878 0.9513
-21.5344 16.6704 -2.3826 0.8964
-18.6413 8.2666 -1.7841 0.9214
-23.5196 7.1909 -2.1517 0.9060
-26.4461 4.7041 -2.3501 0.8978
-26.0200 -11.8512 -2.5015 0.8915
-24.4040 -14.8976 -2.5015 0.8915
-22.4330 -17.7272 -2.5015 0.8915
-16.4777 -21.2020 -2.3493 0.8978
-11.8870 -19.8311 -2.0228 0.9113
-8.6181 -19.3347 -1.8520 0.9185
-5.9028 -19.1758 -1.7553 0.9226
-1.1926 -20.8081 -1.8235 0.9197
1.4962 -23.5563 -2.0651 0.9096
4.9161 -26.3983 -2.3493 0.8978
8.5805 -27.2739 -2.5015 0.8915
14.8511 -24.4323 -2.5015 0.8915
17.6846 -22.4666 -2.5015 0.8915
26.0928 -11.6901 -2.5015 0.8915
27.3104 -8.4637 -2.5015 0.8915
28.5377 1.7583 -2.5015 0.8915
25.6297 8.0098 -2.3493 0.8978
24.4918 11.0428 -2.3505 0.8977
14.2053 8.5977 -1.4527 0.9355
6.7049 8.5599 -0.9513 0.9573
3.4928 5.7771 -0.5906 0.9733
3.9001 8.6611 -0.8310 0.9626
1.5942 8.6752 -0.7717 0.9652
1.6822 27.5186 -2.4121 0.8952
-2.6555 8.5542 -0.7836 0.9647
-3.9068 8.7090 -0.8351 0.9624
-5.2535 8.7173 -0.8905 0.9600
-6.8158 8.7269 -0.9688 0.9565
-11.1314 8.7534 -1.2389 0.9447
-18.4181 8.3359 -1.7687 0.9220
-22.8825 7.1870 -2.0984 0.9082
-21.6984 1.3679 -1.9021 0.9164
-26.8074 -1.5493 -2.3493 0.8978
9.6880 2.5596 -1.2304 0.9604
16.0061 8.7373 -2.2390 0.9291
12.0527 8.6110 -1.8188 0.9421
9.4286 8.6271 -1.5692 0.9498
7.2948 8.5028 -1.3756 0.9559
8.7157 17.2558 -2.3737 0.9250
1.9972 8.6728 -1.0928 0.9648
0.9204 8.6794 -1.0717 0.9654
-0.1300 8.6493 -1.0621 0.9657
-1.1740 8.5977 -1.0655 0.9656
-2.2393 8.5414 -1.0842 0.9650
-6.2072 8.7232 -1.3146 0.9578
-10.1569 8.7475 -1.6459 0.9474
-17.0729 8.6641 -2.3508 0.9257
-17.9802 6.5414 -2.3493 0.9258
-18.6370 4.3292 -2.3493 0.9258
-20.3710 -0.2674 -2.5015 0.9212
-20.1907 -2.7180 -2.5015 0.9212
-18.9557 -7.4654 -2.5015 0.9212
-16.6217 -11.7800 -2.5015 0.9212
-15.0826 -13.6954 -2.5015 0.9212
-8.6909 -17.0454 -2.3493 0.9258
0.1800 -16.0392 -1.9695 0.9374
2.5165 -18.9670 -2.3493 0.9258
11.7484 -16.6441 -2.5015 0.9212
16.8820 -11.4039 -2.5015 0.9212
18.1321 -9.2885 -2.5015 0.9212
19.1185 -7.0380 -2.5015 0.9212
20.2466 -2.2641 -2.5015 0.9212
9.7197 2.4890 -1.2319 0.9604
17.8289 6.9434 -2.3493 0.9258
16.8355 9.0245 -2.3454 0.9259
12.1916 8.5708 -1.8298 0.9417
9.5729 8.6262 -1.5822 0.9494
5.7357 8.4562 -1.2546 0.9597
8.8457 17.1871 -2.3734 0.9251
3.2087 8.6653 -1.1346 0.9634
2.0667 8.6723 -1.0946 0.9647
0.9872 8.6790 -1.0725 0.9654
-0.0642 8.6524 -1.0624 0.9657
-2.1709 8.5451 -1.0825 0.9651
-6.1073 8.7226 -1.3074 0.9580
-7.8395 8.7332 -1.4410 0.9538
-12.5413 8.5414 -1.8631 0.9407
-17.0092 8.7951 -2.3512 0.9257
-18.7541 2.1694 -2.3181 0.9267
-20.3725 -0.1124 -2.5015 0.9212
-20.2108 -2.5643 -2.5015 0.9212
-13.4410 -15.3098 -2.5015 0.9212
-11.0997 -16.2312 -2.4144 0.9238
0.0580 -16.0385 -1.9693 0.9374
4.9249 -19.6991 -2.4932 0.9214
9.5223 -18.0104 -2.5015 0.9212
11.6214 -16.7330 -2.5015 0.9212
16.7947 -11.5320 -2.5015 0.9212
18.0609 -9.4262 -2.5015 0.9212
19.0644 -7.1832 -2.5015 0.9212
19.7905 -4.8358 -2.5015 0.9212
20.2288 -2.4180 -2.5015 0.9212
20.2204 2.4874 -2.5015 0.9212
9.7541 2.4189 -1.2339 0.9603
12.4454 8.6085 -1.8581 0.9408
5.8322 8.4592 -1.2616 0.9594
1.0541 8.6786 -1.0734 0.9654
-1.0419 8.6044 -1.0642 0.9657
-2.1027 8.5488 -1.0809 0.9651
-4.5644 8.7131 -1.2077 0.9611
-6.0085 8.7220 -1.3004 0.9582
-12.3813 8.5711 -1.8490 0.9411
-16.9445 8.9258 -2.3515 0.9257
-17.8786 6.8143 -2.3493 0.9258
-18.5690 4.6123 -2.3493 0.9258
-18.8139 2.3215 -2.3276 0.9264
-19.7923 -4.8284 -2.5015 0.9212
-16.7991 -11.5257 -2.5015 0.9212
-13.5571 -15.2071 -2.5015 0.9212
-6.8482 -17.8656 -2.3493 0.9258
-4.6476 -18.5602 -2.3493 0.9258
-2.3793 -18.9847 -2.3493 0.9258
2.2276 -19.0031 -2.3493 0.9258
4.6562 -19.2455 -2.4312 0.9233
7.1398 -19.0807 -2.5015 0.9212
15.1813 -13.5859 -2.5015 0.9212
16.7065 -11.6594 -2.5015 0.9212
19.0092 -7.3281 -2.5015 0.9212
20.3724 -0.1200 -2.5015 0.9212
20.2387 2.3335 -2.5015 0.9212
17.9325 6.6713 -2.3493 0.9258
16.8835 8.7221 -2.3333 0.9263
12.6482 8.6073 -1.8785 0.9402
7.6505 8.5162 -1.4056 0.9549
5.9297 8.4622 -1.2687 0.9592
2.2065 8.6715 -1.0987 0.9646
1.1211 8.6781 -1.0744 0.9654
0.0675 8.6587 -1.0632 0.9657
-0.9759 8.6078 -1.0637 0.9657
-3.1404 8.4909 -1.1116 0.9642
-4.4800 8.7126 -1.2029 0.9613
-5.9108 8.7214 -1.2936 0.9584
-9.6970 8.7446 -1.6033 0.9487
-12.2238 8.6003 -1.8352 0.9415
-17.8263 6.9501 -2.3493 0.9258
-18.8556 2.4725 -2.3350 0.9262
-20.3446 0.1973 -2.4981 0.9213
-20.2474 -2.2564 -2.5015 0.9212
-19.1211 -7.0308 -2.5015 0.9212
-18.1356 -9.2817 -2.5015 0.9212
-16.8862 -11.3976 -2.5015 0.9212
-15.3913 -13.3476 -2.5015 0.9212
-13.6724 -15.1035 -2.5015 0.9212
-11.5772 -16.3885 -2.4637 0.9223
-9.0777 -16.8427 -2.3493 0.9258
-2.5237 -18.9660 -2.3493 0.9258
2.0830 -19.0195 -2.3493 0.9258
6.9944 -19.1345 -2.5015 0.9212
16.6173 -11.7862 -2.5015 0.9212
17.9154 -9.6999 -2.5015 0.9212
18.9529 -7.4725 -2.5015 0.9212
19.7146 -5.1364 -2.5015 0.9212
20.2559 2.1794 -2.5015 0.9212
9.8817 2.2915 -1.2455 0.9599
17.0652 8.6521 -2.3493 0.9258
6.0284 8.4653 -1.2760 0.9590
9.2326 16.9751 -2.3726 0.9251
3.4350 8.6639 -1.1444 0.9631
2.2768 8.6710 -1.1008 0.9645
-0.9099 8.6111 -1.0632 0.9657
-3.0687 8.4950 -1.1090 0.9643
-4.3962 8.7120 -1.1982 0.9614
-5.8140 8.7208 -1.2869 0.9586
-7.4767 8.7215 -1.4105 0.9548
-12.0685 8.6291 -1.8216 0.9420
-16.0506 8.7694 -2.2457 0.9289
-18.9513 2.6318 -2.3493 0.9258
-20.3239 0.3518 -2.4958 0.9213
-19.8635 -4.5267 -2.5015 0.9212
-18.2057 -9.1435 -2.5015 0.9212
-15.4924 -13.2301 -2.5015 0.9212
-13.7869 -14.9991 -2.5015 0.9212
-9.2056 -16.7731 -2.3493 0.9258
-7.1193 -17.7594 -2.3493 0.9258
-2.6679 -18.9463 -2.3493 0.9258
-0.3675 -19.1297 -2.3493 0.9258
1.9382 -19.0348 -2.3493 0.9258
4.2158 -18.6630 -2.3493 0.9258
6.8487 -19.1871 -2.5015 0.9212
11.2365 -16.9939 -2.5015 0.9212
13.2006 -15.5175 -2.5015 0.9212
14.9728 -13.8154 -2.5015 0.9212
16.5272 -11.9123 -2.5015 0.9212
19.6750 -5.2862 -2.5015 0.9212
20.2719 2.0253 -2.5015 0.9212
9.6711 3.4313 -1.2600 0.9595
7.9372 8.5694 -1.4342 0.9540
0.1994 8.6648 -1.0642 0.9657
-0.8441 8.6144 -1.0628 0.9657
-1.8993 8.5598 -1.0766 0.9653
-2.9973 8.4991 -1.1065 0.9643
-4.3131 8.7115 -1.1936 0.9616
-9.4032 8.7428 -1.5765 0.9496
-15.6975 8.7322 -2.2056 0.9302
-18.9308 2.7760 -2.3493 0.9258
-20.2794 -1.9481 -2.5015 0.9212
-18.2747 -9.0046 -2.5015 0.9212
-15.5926 -13.1118 -2.5015 0.9212
-11.9784 -16.4204 -2.4956 0.9214
-9.3330 -16.7026 -2.3493 0.9258
-7.2542 -17.7047 -2.3493 0.9258
-4.1303 -15.0299 -1.9139 0.9391
-0.5130 -19.1263 -2.3493 0.9258
1.7933 -19.0490 -2.3493 0.9258
8.9699 -18.2918 -2.5015 0.9212
16.4360 -12.0377 -2.5015 0.9212
17.7657 -9.9714 -2.5015 0.9212
19.6342 -5.4358 -2.5015 0.9212
20.3644 -0.5850 -2.5015 0.9212
10.2236 2.2074 -1.2842 0.9587
10.3322 8.6215 -1.6523 0.9472
3.5881 8.6630 -1.1513 0.9629
1.3230 8.6769 -1.0777 0.9652
0.2655 8.6679 -1.0648 0.9657
-0.7782 8.6177 -1.0624 0.9657
-1.8319 8.5633 -1.0752 0.9653
-2.9262 8.5031 -1.1041 0.9644
-7.2561 8.7296 -1.3938 0.9553
-9.2600 8.7419 -1.5636 0.9500
-15.4371 8.7418 -2.1782 0.9310
-18.4200 5.1752 -2.3493 0.9258
-18.9091 2.9199 -2.3493 0.9258
-19.2766 -6.5926 -2.5015 0.9212
-17.1420 -11.0092 -2.5015 0.9212
-9.4597 -16.6311 -2.3493 0.9258
-4.2611 -15.0565 -1.9213 0.9389
-2.9559 -18.9035 -2.3493 0.9258
3.9313 -18.7250 -2.3493 0.9258
12.9630 -15.7165 -2.5015 0.9212
14.7608 -14.0416 -2.5015 0.9212
16.3440 -12.1624 -2.5015 0.9212
18.7774 -7.9031 -2.5015 0.9212
19.5923 -5.5849 -2.5015 0.9212
20.3593 -0.7399 -2.5015 0.9212
10.4262 2.1683 -1.3076 0.9580
17.2582 8.2604 -2.3493 0.9258
10.4923 8.6205 -1.6673 0.9467
8.2358 8.6248 -1.4643 0.9531
3.6653 8.6625 -1.1549 0.9628
0.3317 8.6709 -1.0654 0.9656
-1.7646 8.5669 -1.0740 0.9654
-2.8553 8.5072 -1.1018 0.9645
-4.1488 8.7105 -1.1846 0.9619
-9.1191 8.7411 -1.5510 0.9504
-11.6161 8.7130 -1.7829 0.9432
-17.6065 7.4893 -2.3493 0.9258
-19.6239 0.7879 -2.4115 0.9239
-19.9617 -4.0721 -2.5015 0.9212
-19.3262 -6.4458 -2.5015 0.9212
-18.4096 -8.7255 -2.5015 0.9212
-14.1256 -14.6805 -2.5015 0.9212
-4.3897 -15.0722 -1.9276 0.9387
-3.0996 -18.8805 -2.3493 0.9258
3.7887 -18.7543 -2.3493 0.9258
6.4089 -19.3384 -2.5015 0.9212
10.8456 -17.2459 -2.5015 0.9212
14.6536 -14.1535 -2.5015 0.9212
16.2510 -12.2864 -2.5015 0.9212
17.6120 -10.2405 -2.5015 0.9212
18.7167 -8.0458 -2.5015 0.9212
20.3531 -0.8948 -2.5015 0.9212
9.6071 3.1636 -1.2419 0.9601
6.4348 8.4776 -1.3068 0.9580
4.9233 8.4302 -1.1987 0.9614
0.3966 8.6458 -1.0627 0.9657
-7.0332 8.7283 -1.3763 0.9558
-11.4695 8.7402 -1.7706 0.9435
-17.5491 7.6230 -2.3493 0.9258
-18.8625 3.2073 -2.3493 0.9258
-19.3016 0.9222 -2.3726 0.9251
-20.3186 -1.4848 -2.5015 0.9212
-19.9920 -3.9202 -2.5015 0.9212
-18.4755 -8.5853 -2.5015 0.9212
-12.3789 -16.1806 -2.5015 0.9212
-9.7117 -16.4852 -2.3493 0.9258
-7.6564 -17.5345 -2.3493 0.9258
-3.2432 -18.8563 -2.3493 0.9258
-0.9494 -19.1096 -2.3493 0.9258
8.5501 -18.4918 -2.5015 0.9212
10.7142 -17.3279 -2.5015 0.9212
14.5455 -14.2646 -2.5015 0.9212
16.1571 -12.4097 -2.5015 0.9212
18.6550 -8.1879 -2.5015 0.9212
19.5050 -5.8825 -2.5015 0.9212
20.3457 -1.0496 -2.5015 0.9212
20.3241 1.4075 -2.5015 0.9212
11.0834 2.1296 -1.3858 0.9555
17.3819 7.9968 -2.3493 0.9258
10.8214 8.6185 -1.6986 0.9458
6.5395 8.4807 -1.3149 0.9578
3.8213 8.6615 -1.1624 0.9626
1.5261 8.6757 -1.0816 0.9651
1.0362 19.3689 -2.3816 0.9248
-1.6305 8.5740 -1.0716 0.9654
-2.7145 8.5151 -1.0974 0.9646
-6.9238 8.7276 -1.3679 0.9561
-8.8439 8.7394 -1.5266 0.9511
-13.9053 8.2991 -1.9883 0.9368
-18.2971 5.5942 -2.3493 0.9258
-19.1039 1.0584 -2.3493 0.9258
-20.0213 -3.7679 -2.5015 0.9212
-19.4220 -6.1510 -2.5015 0.9212
-17.3888 -10.6151 -2.5015 0.9212
-9.8369 -16.4108 -2.3493 0.9258
-7.7895 -17.4758 -2.3493 0.9258
-5.6290 -18.2864 -2.3493 0.9258
-1.0948 -19.1019 -2.3493 0.9258
3.5029 -18.8098 -2.3493 0.9258
10.5820 -17.4089 -2.5015 0.9212
12.6009 -16.0083 -2.5015 0.9212
14.4366 -14.3748 -2.5015 0.9212
16.0621 -12.5323 -2.5015 0.9212
17.4541 -10.5073 -2.5015 0.9212
19.4597 -6.0307 -2.5015 0.9212
20.3342 1.2528 -2.5015 0.9212
9.6068 3.0023 -1.2358 0.9602
17.4423 7.8643 -2.3493 0.9258
10.9906 8.6175 -1.7148 0.9453
3.9001 8.6611 -1.1663 0.9624
1.5942 8.6752 -1.0830 0.9651
1.1835 19.3603 -2.3816 0.9248
-1.5636 8.5775 -1.0705 0.9655
-3.9068 8.7090 -1.1720 0.9623
-5.2535 8.7173 -1.2497 0.9598
-6.8158 8.7269 -1.3596 0.9564
-13.7499 8.3488 -1.9751 0.9372
-17.4310 7.8891 -2.3493 0.9258
-18.2540 5.7333 -2.3493 0.9258
-19.0953 1.2038 -2.3493 0.9258
9.1846 2.4266 -1.5046 0.9623
13.0192 7.1068 -2.3493 0.9417
9.4286 8.6271 -2.0241 0.9496
5.5827 8.3671 -1.5931 0.9601
6.7146 13.2940 -2.3589 0.9415
3.1341 8.6658 -1.4595 0.9634
-2.2204 8.4693 -1.3867 0.9652
-4.7353 8.7141 -1.5708 0.9606
-7.9610 8.7340 -1.8718 0.9533
-10.1569 8.7475 -2.1231 0.9472
-13.9388 5.0711 -2.3493 0.9417
-15.2849 -3.9761 -2.5015 0.9380
-14.6950 -5.7874 -2.5015 0.9380
-11.6925 -10.6171 -2.5015 0.9380
-10.3293 -11.9476 -2.5015 0.9380
-8.8158 -13.1042 -2.5015 0.9380
-7.1740 -14.0702 -2.5015 0.9380
-1.6301 -14.8330 -2.3635 0.9414
3.9471 -15.2924 -2.5015 0.9380
5.7594 -14.7060 -2.5015 0.9380
10.5949 -11.7127 -2.5015 0.9380
11.9279 -10.3520 -2.5015 0.9380
13.0874 -8.8406 -2.5015 0.9380
14.8212 -5.4561 -2.5015 0.9380
15.7929 0.1472 -2.5015 0.9380
15.6603 2.0475 -2.5015 0.9380
9.2280 3.5938 -1.5685 0.9607
3.2086 8.6653 -1.4635 0.9633
2.0667 8.6723 -1.4120 0.9645
0.9872 8.6790 -1.3835 0.9652
-0.0638 8.5963 -1.3616 0.9658
-1.0987 8.5298 -1.3621 0.9658
-2.1526 8.4731 -1.3846 0.9652
-3.2109 8.2913 -1.4082 0.9646
-6.1073 8.7226 -1.6865 0.9578
-7.8395 8.7332 -1.8588 0.9536
-13.8998 5.1770 -2.3493 0.9417
-14.4220 3.4659 -2.3493 0.9417
-15.6784 1.8137 -2.4998 0.9381
-15.7934 -0.0871 -2.5015 0.9380
-14.7386 -5.6754 -2.5015 0.9380
-11.7729 -10.5278 -2.5015 0.9380
-8.9152 -13.0368 -2.5015 0.9380
-5.5238 -14.7451 -2.4939 0.9382
-3.5408 -14.6112 -2.3812 0.9409
5.6474 -14.7494 -2.5015 0.9380
7.3820 -13.9622 -2.5015 0.9380
10.5054 -11.7929 -2.5015 0.9380
11.8488 -10.4424 -2.5015 0.9380
13.0198 -8.9400 -2.5015 0.9380
14.0014 -7.3075 -2.5015 0.9380
14.7793 -5.5687 -2.5015 0.9380
15.3422 -3.7489 -2.5015 0.9380
15.6820 -1.8745 -2.5015 0.9380
15.7936 0.0271 -2.5015 0.9380
12.1987 8.4379 -2.3493 0.9417
9.7196 8.6253 -2.0582 0.9487
7.5114 8.4904 -1.7955 0.9551
5.7721 8.3720 -1.6106 0.9597
4.5275 8.6347 -1.5442 0.9613
3.2836 8.6648 -1.4676 0.9632
2.1365 8.6719 -1.4146 0.9645
1.0541 8.6786 -1.3847 0.9652
0.0016 8.6084 -1.3634 0.9657
-1.0332 8.5331 -1.3614 0.9658
-2.0850 8.4769 -1.3826 0.9653
-3.1454 8.3095 -1.4072 0.9647
-12.1956 8.4425 -2.3493 0.9417
-13.1233 6.9128 -2.3493 0.9417
-13.8601 5.2826 -2.3493 0.9417
-14.3952 3.5756 -2.3493 0.9417
-15.6827 -1.8686 -2.5015 0.9380
-15.3436 -3.7431 -2.5015 0.9380
-14.7814 -5.5631 -2.5015 0.9380
-14.0041 -7.3022 -2.5015 0.9380
-13.0231 -8.9351 -2.5015 0.9380
-11.8527 -10.4380 -2.5015 0.9380
-10.5099 -11.7890 -2.5015 0.9380
-9.0141 -12.9685 -2.5015 0.9380
-7.3873 -13.9594 -2.5015 0.9380
-5.6380 -14.7083 -2.4949 0.9382
-0.0611 -15.2933 -2.4222 0.9399
1.8388 -15.6862 -2.5015 0.9380
5.5350 -14.7919 -2.5015 0.9380
10.4154 -11.8725 -2.5015 0.9380
11.7690 -10.5322 -2.5015 0.9380
13.9454 -7.4138 -2.5015 0.9380
14.7365 -5.6810 -2.5015 0.9380
15.6672 -1.9938 -2.5015 0.9380
15.7933 -0.0931 -2.5015 0.9380
15.6897 1.8090 -2.5015 0.9380
9.2578 2.2212 -1.5079 0.9622
9.1693 3.4112 -1.5495 0.9612
9.8687 8.6244 -2.0758 0.9483
5.8683 8.3746 -1.6196 0.9594
7.0145 13.1339 -2.3583 0.9415
3.3591 8.6644 -1.4718 0.9631
2.2065 8.6715 -1.4172 0.9644
1.1211 8.6781 -1.3859 0.9652
-2.0177 8.4806 -1.3807 0.9653
-3.0800 8.3276 -1.4063 0.9647
-5.9108 8.7214 -1.6687 0.9582
-9.6969 8.7446 -2.0681 0.9485
-13.0703 7.0125 -2.3493 0.9417
-13.8195 5.3879 -2.3493 0.9417
-14.3676 3.6850 -2.3493 0.9417
-15.6267 2.0491 -2.4962 0.9382
-15.7929 0.1532 -2.5015 0.9380
-15.6965 -1.7493 -2.5015 0.9380
-15.3717 -3.6263 -2.5015 0.9380
-14.8233 -5.4505 -2.5015 0.9380
-13.0907 -8.8357 -2.5015 0.9380
-11.9318 -10.3475 -2.5015 0.9380
-10.5992 -11.7087 -2.5015 0.9380
-7.4932 -13.9029 -2.5015 0.9380
-1.9656 -14.7722 -2.3603 0.9414
3.5970 -15.3785 -2.5015 0.9380
8.8108 -13.1075 -2.5015 0.9380
10.3248 -11.9514 -2.5015 0.9380
11.6885 -10.6215 -2.5015 0.9380
12.8823 -9.1370 -2.5015 0.9380
13.8886 -7.5197 -2.5015 0.9380
14.6928 -5.7929 -2.5015 0.9380
15.2834 -3.9819 -2.5015 0.9380
15.6516 -2.1130 -2.5015 0.9380
15.7922 -0.2132 -2.5015 0.9380
15.7030 1.6896 -2.5015 0.9380
9.3420 2.1664 -1.5189 0.9619
12.3257 8.2513 -2.3493 0.9417
10.0205 8.6234 -2.0939 0.9479
7.1136 13.0791 -2.3581 0.9415
3.4350 8.6639 -1.4761 0.9630
-0.9024 8.5398 -1.3601 0.9658
-4.3962 8.7120 -1.5456 0.9613
-7.4767 8.7215 -1.8195 0.9545
-13.0166 7.1117 -2.3493 0.9417
-14.3392 3.7942 -2.3493 0.9417
-15.5997 2.1664 -2.4945 0.9382
-15.7912 0.2733 -2.5015 0.9380
-15.7093 -1.6298 -2.5015 0.9380
-15.3988 -3.5092 -2.5015 0.9380
-14.8643 -5.3376 -2.5015 0.9380
-7.5988 -13.8454 -2.5015 0.9380
-3.8947 -14.6068 -2.3943 0.9406
-2.0773 -14.7520 -2.3595 0.9415
7.0614 -14.1271 -2.5015 0.9380
8.7108 -13.1742 -2.5015 0.9380
11.6074 -10.7101 -2.5015 0.9380
13.8310 -7.6251 -2.5015 0.9380
14.6483 -5.9045 -2.5015 0.9380
15.2527 -4.0980 -2.5015 0.9380
15.6351 -2.2320 -2.5015 0.9380
15.7901 -0.3334 -2.5015 0.9380
15.7154 1.5700 -2.5015 0.9380
13.2801 6.6065 -2.3493 0.9417
12.3881 8.1573 -2.3493 0.9417
7.2122 13.0234 -2.3579 0.9415
-0.8371 8.5431 -1.3596 0.9658
-5.7183 8.7202 -1.6516 0.9586
-11.9997 8.7186 -2.3493 0.9417
-12.9621 7.2106 -2.3493 0.9417
-14.3099 3.9032 -2.3493 0.9417
-14.9044 -5.2245 -2.5015 0.9380
-14.1672 -6.9807 -2.5015 0.9380
-12.0879 -10.1647 -2.5015 0.9380
-10.7762 -11.5461 -2.5015 0.9380
-5.9793 -14.5932 -2.4978 0.9381
-4.0150 -14.6102 -2.3998 0.9405
3.3626 -15.4315 -2.5015 0.9380
5.1959 -14.9144 -2.5015 0.9380
6.9538 -14.1804 -2.5015 0.9380
8.6104 -13.2400 -2.5015 0.9380
11.5256 -10.7981 -2.5015 0.9380
13.7725 -7.7301 -2.5015 0.9380
14.6030 -6.0158 -2.5015 0.9380
15.2210 -4.2140 -2.5015 0.9380
15.6177 -2.3508 -2.5015 0.9380
9.6213 2.0774 -1.5590 0.9609
9.0909 3.1478 -1.5237 0.9618
10.3322 8.6215 -2.1313 0.9470
4.6101 8.1773 -1.4868 0.9627
3.5881 8.6630 -1.4851 0.9627
2.4181 8.6702 -1.4256 0.9642
0.2652 8.6573 -1.3718 0.9655
-2.8843 8.3815 -1.4039 0.9647
-4.2307 8.7110 -1.5338 0.9615
-9.2600 8.7419 -2.0170 0.9497
-14.2798 4.0120 -2.3493 0.9417
-15.1853 2.3449 -2.4336 0.9397
-15.7323 -1.3906 -2.5015 0.9380
-14.2198 -6.8727 -2.5015 0.9380
-13.2890 -8.5346 -2.5015 0.9380
-12.1648 -10.0725 -2.5015 0.9380
-10.8637 -11.4638 -2.5015 0.9380
-7.8086 -13.7282 -2.5015 0.9380
-6.0928 -14.5535 -2.4989 0.9381
-4.1357 -14.6137 -2.4055 0.9403
1.3586 -15.7108 -2.4976 0.9381
5.0824 -14.9535 -2.5015 0.9380
6.8456 -14.2329 -2.5015 0.9380
10.0493 -12.1839 -2.5015 0.9380
12.6704 -9.4286 -2.5015 0.9380
13.7133 -7.8347 -2.5015 0.9380
15.1885 -4.3296 -2.5015 0.9380
15.5993 -2.4696 -2.5015 0.9380
15.7374 1.3307 -2.5015 0.9380
10.4923 8.6205 -2.1508 0.9465
8.2358 8.6248 -1.8888 0.9529
3.6653 8.6625 -1.4898 0.9626
2.4892 8.6697 -1.4286 0.9641
1.3905 8.6765 -1.3918 0.9650
0.3316 8.6696 -1.3741 0.9655
-1.7499 8.4953 -1.3738 0.9655
-2.8191 8.3993 -1.4033 0.9648
-5.5296 8.7190 -1.6353 0.9590
-9.1191 8.7411 -2.0007 0.9501
-15.7809 0.6336 -2.5015 0.9380
-15.4749 -3.1568 -2.5015 0.9380
-14.9822 -4.9970 -2.5015 0.9380
-13.3535 -8.4333 -2.5015 0.9380
-12.2411 -9.9796 -2.5015 0.9380
-9.5008 -12.6164 -2.5015 0.9380
-7.9128 -13.6684 -2.5015 0.9380
-6.2060 -14.5131 -2.5000 0.9381
-4.2571 -14.6171 -2.4113 0.9402
-2.4132 -14.6996 -2.3594 0.9415
-0.6350 -15.0988 -2.3935 0.9406
1.2385 -15.7141 -2.4966 0.9382
11.3599 -10.9722 -2.5015 0.9380
13.6533 -7.9388 -2.5015 0.9380
10.0470 2.0098 -1.6228 0.9594
10.6553 8.6195 -2.1707 0.9460
4.7977 8.2152 -1.5068 0.9622
3.7431 8.6620 -1.4945 0.9625
2.5606 8.6693 -1.4317 0.9641
1.4583 8.6761 -1.3934 0.9650
0.3966 8.6458 -1.3708 0.9656
-1.6833 8.4989 -1.3722 0.9655
-2.7540 8.4171 -1.4027 0.9648
-4.0676 8.7100 -1.5225 0.9618
-7.0332 8.7283 -1.7754 0.9556
-8.9804 8.7402 -1.9848 0.9505
-11.7976 8.9902 -2.3493 0.9417
-13.6046 5.9096 -2.3493 0.9417
-15.4984 -3.0391 -2.5015 0.9380
-14.3227 -6.6556 -2.5015 0.9380
-12.3167 -9.8862 -2.5015 0.9380
-9.5965 -12.5437 -2.5015 0.9380
-6.3191 -14.4718 -2.5011 0.9380
-4.3790 -14.6205 -2.4173 0.9401
1.1185 -15.7168 -2.4956 0.9382
4.8542 -15.0291 -2.5015 0.9380
6.6283 -14.3354 -2.5015 0.9380
8.3060 -13.4331 -2.5015 0.9380
9.8628 -12.3354 -2.5015 0.9380
11.2761 -11.0583 -2.5015 0.9380
12.5254 -9.6203 -2.5015 0.9380
15.5599 -2.7067 -2.5015 0.9380
15.7726 -0.8137 -2.5015 0.9380
10.4837 2.0143 -1.6908 0.9577
13.4750 6.1994 -2.3493 0.9417
1.5261 8.6757 -1.3952 0.9650
-2.6890 8.4348 -1.4022 0.9648
-3.9869 8.7095 -1.5171 0.9620
-12.7367 7.6016 -2.3493 0.9417
-13.5592 6.0129 -2.3493 0.9417
-14.1845 4.3368 -2.3493 0.9417
-15.7599 -1.0311 -2.5015 0.9380
-15.5211 -2.9210 -2.5015 0.9380
-15.0566 -4.7684 -2.5015 0.9380
-14.3730 -6.5464 -2.5015 0.9380
-12.3916 -9.7922 -2.5015 0.9380
-11.1225 -11.2128 -2.5015 0.9380
-9.6917 -12.4704 -2.5015 0.9380
-4.5021 -14.6255 -2.4237 0.9399
-0.8611 -15.0243 -2.3835 0.9409
0.9985 -15.7188 -2.4946 0.9382
2.8915 -15.5267 -2.5015 0.9380
4.7397 -15.0656 -2.5015 0.9380
9.7686 -12.4101 -2.5015 0.9380
11.1917 -11.1438 -2.5015 0.9380
12.4519 -9.7154 -2.5015 0.9380
15.0858 -4.6752 -2.5015 0.9380
15.5389 -2.8250 -2.5015 0.9380
15.7660 -0.9337 -2.5015 0.9380
15.7637 0.9712 -2.5015 0.9380
9.0753 2.8362 -1.5060 0.9622
13.5218 6.0967 -2.3493 0.9417
10.9906 8.6175 -2.2120 0.9450
3.9001 8.6611 -1.5044 0.9623
0.9110 14.9037 -2.3649 0.9413
-0.5110 8.5593 -1.3581 0.9659
-2.6220 8.4464 -1.4007 0.9648
-3.9068 8.7090 -1.5118 0.9621
-5.2535 8.7173 -1.6120 0.9596
-8.7096 8.7386 -1.9541 0.9513
-14.1511 4.4446 -2.3493 0.9417
-15.5429 -2.8029 -2.5015 0.9380
12.7472 1.7653 -2.5015 0.9489
9.1135 2.4078 -1.8323 0.9623
9.1855 3.6580 -1.9219 0.9605
8.9166 8.1586 -2.3493 0.9519
5.4316 8.1406 -1.9023 0.9609
5.4495 10.7892 -2.3495 0.9519
1.9972 8.6728 -1.7299 0.9644
0.9204 8.6794 -1.6966 0.9651
-0.1290 8.5842 -1.6688 0.9656
-1.1546 8.4554 -1.6588 0.9658
-2.1997 8.3904 -1.6861 0.9653
-4.7353 8.7141 -1.9278 0.9604
-8.1416 8.9321 -2.3493 0.9519
-9.1578 7.8870 -2.3493 0.9519
-10.0407 6.7271 -2.3493 0.9519
-10.7775 5.4693 -2.3493 0.9519
-12.7539 -1.7169 -2.5015 0.9489
-11.9738 -4.7157 -2.5015 0.9489
-11.3189 -6.1229 -2.5015 0.9489
-9.5273 -8.6510 -2.5015 0.9489
-8.4165 -9.7351 -2.5015 0.9489
-4.4227 -12.0850 -2.5015 0.9489
-1.4058 -12.7919 -2.5015 0.9489
0.1444 -12.8681 -2.5015 0.9489
6.1014 -11.3306 -2.5015 0.9489
7.4211 -10.5136 -2.5015 0.9489
8.6329 -9.5437 -2.5015 0.9489
10.6639 -7.2035 -2.5015 0.9489
12.0766 -4.4457 -2.5015 0.9489
12.7892 -1.4301 -2.5015 0.9489
12.8683 0.1200 -2.5015 0.9489
12.7603 1.6684 -2.5015 0.9489
9.1341 2.3390 -1.8328 0.9623
9.1234 3.5531 -1.9031 0.9609
10.6521 5.7099 -2.3493 0.9519
