ply
format ascii 1.0
element vertex 681
property float32 x
property float32 y
property float32 z
property float32 I
end_header
42.8984 19.1660 12.5896 0.8232
33.0120 19.8269 10.3183 0.8526
31.7688 24.7346 10.7882 0.8464
31.5282 39.9696 13.6407 0.8099
32.6117 53.5278 16.7950 0.7714
-12.2956 27.6592 8.1106 0.8822
-14.9726 25.0354 7.8164 0.8862
-17.9891 23.1942 7.8650 0.8855
-22.4943 22.7220 8.5672 0.8760
-60.9913 -10.7876 16.5962 0.7738
-61.5327 -18.7480 17.2359 0.7661
-53.5297 -23.6763 15.6836 0.7848
-12.8848 -28.0766 8.2775 0.8799
48.9829 -82.6026 25.7322 0.6719
56.9386 -26.2587 16.8009 0.7713
33.5722 19.8235 10.4468 0.8509
-12.0481 27.6577 8.0835 0.8826
-14.8927 25.3296 7.8732 0.8854
-17.3281 22.6902 7.6500 0.8885
-60.8545 -10.2949 16.5376 0.7745
-54.4330 -23.5910 15.8961 0.7822
-8.1480 -40.9643 11.1914 0.8412
42.8984 19.1660 10.8474 0.8246
32.8472 19.7279 8.8460 0.8545
32.4028 41.0783 12.0790 0.8067
32.6117 53.5278 14.4708 0.7731
-11.7942 38.4519 9.2855 0.8478
-14.9726 25.0354 6.7346 0.8871
-22.4943 22.7220 7.3816 0.8770
-58.8546 -17.9320 14.2043 0.7768
-19.4131 -31.5977 8.5617 0.8588
-7.9952 -41.8277 9.8315 0.8396
24.1189 -40.6730 10.9169 0.8236
56.9386 -26.2587 14.4759 0.7731
31.9329 24.4813 9.2895 0.8477
32.2100 69.5011 17.6850 0.7302
-11.7878 39.4814 9.5126 0.8444
-12.0481 27.6577 6.9648 0.8835
-14.8927 25.3296 6.7837 0.8864
-17.3281 22.6902 6.5913 0.8894
-22.2597 22.8237 7.3604 0.8773
-14.7820 -31.5859 8.0512 0.8666
-6.7455 -33.9132 7.9829 0.8677
-6.5028 -85.7887 19.8627 0.7024
57.0166 17.6051 11.5992 0.7841
42.8985 19.1661 9.1330 0.8258
33.0121 19.8270 7.4853 0.8548
32.4377 25.2554 7.9910 0.8458
32.3905 32.1860 8.8759 0.8302
32.5361 41.2473 10.2118 0.8073
3.9355 8.6608 1.8491 0.9620
1.6246 8.6750 1.7156 0.9647
-0.4892 8.6880 1.6915 0.9652
-1.5546 8.6946 1.7169 0.9646
-3.8714 8.7088 1.8526 0.9619
-14.9726 25.0354 5.6703 0.8879
-17.9891 23.1942 5.7056 0.8873
-82.1903 26.1184 16.7634 0.7037
-61.9294 -10.9535 12.2247 0.7739
-14.4961 -31.5877 6.7557 0.8679
-10.7700 -33.6733 6.8721 0.8658
-6.0687 -88.8697 17.3148 0.6956
38.5009 -87.4883 18.5799 0.6774
46.8972 -47.7273 13.0064 0.7614
56.7910 -45.3158 14.1227 0.7437
71.8538 -44.3310 16.4113 0.7089
56.7476 -26.1707 12.1471 0.7752
93.1432 16.1156 18.3742 0.6803
43.7620 19.1608 9.2861 0.8231
32.4779 31.7940 8.8345 0.8309
31.5245 39.3563 9.8017 0.8143
32.6062 52.6293 12.0343 0.7770
2.8080 8.6678 1.7711 0.9636
0.6254 8.6812 1.6918 0.9652
-1.4875 8.6942 1.7145 0.9647
-2.5978 8.7010 1.7651 0.9637
-3.7935 8.7083 1.8464 0.9620
-17.3281 22.6902 5.5496 0.8902
-81.6112 26.6075 16.6854 0.7048
-20.7181 -33.1635 7.6009 0.8527
-14.7820 -31.5860 6.7788 0.8675
42.8985 19.1661 7.4418 0.8267
32.4377 25.2554 6.5112 0.8466
6.8178 8.6431 1.7436 0.9564
5.2716 8.6526 1.6048 0.9598
1.6246 8.6750 1.3979 0.9649
-1.5546 8.6946 1.3989 0.9649
-3.8714 8.7088 1.5095 0.9621
-55.8477 17.7472 9.2813 0.7887
-26.5235 -20.4920 5.3086 0.8731
-65.8344 -64.9316 14.6455 0.6876
-26.7074 -33.5990 6.7980 0.8404
-14.4960 -31.5877 5.5047 0.8687
-6.0478 -31.6394 5.1019 0.8777
28.4488 -94.0014 15.5553 0.6718
18.6338 -42.3429 7.3271 0.8292
32.4395 -42.1502 8.4242 0.8062
57.1755 -45.6226 11.5853 0.7436
57.1964 -26.3776 9.9760 0.7749
77.7344 13.4496 12.4948 0.7265
57.4646 17.2741 9.5038 0.7843
33.4047 19.7245 6.1443 0.8546
31.9329 24.4813 6.3730 0.8496
8.7812 8.5963 1.9463 0.9515
6.9227 8.6425 1.7538 0.9561
4.0136 8.6604 1.5118 0.9621
2.8080 8.6678 1.4431 0.9638
-0.4240 8.6876 1.3776 0.9654
-1.4875 8.6942 1.3970 0.9649
-3.7935 8.7083 1.5045 0.9623
-6.6639 8.7260 1.7390 0.9565
-8.5215 8.7374 1.9331 0.9518
-66.6247 53.5713 13.5405 0.7074
-81.2329 6.0049 12.9011 0.7190
-62.8480 -18.6366 10.3826 0.7668
-26.5835 -20.2229 5.2902 0.8735
-27.1175 -33.5965 6.8383 0.8396
-19.7387 -31.5957 5.9005 0.8600
-10.3835 -31.6478 5.2754 0.8738
-6.2929 -31.6379 5.1091 0.8775
61.3073 -11.3628 7.6558 0.7778
61.3799 -3.8459 7.5512 0.7805
63.8023 11.5308 7.9608 0.7701
42.8985 19.1661 5.7691 0.8275
32.3905 32.1860 5.6067 0.8319
3.9355 8.6608 1.1681 0.9624
1.6246 8.6750 1.0837 0.9651
0.5603 8.6816 1.0682 0.9655
-0.4892 8.6880 1.0684 0.9655
-1.5546 8.6946 1.0845 0.9650
-6.7682 8.7266 1.3560 0.9565
-11.0581 8.7563 1.7319 0.9447
-69.9034 -30.9184 9.3851 0.7349
-25.1754 -31.6718 4.9677 0.8495
-20.5705 -33.4816 4.8249 0.8535
-10.7700 -33.6733 4.3409 0.8672
-5.8433 -85.5691 10.5310 0.7078
24.4282 -80.7164 10.3547 0.7119
23.8027 -40.1398 5.7299 0.8286
32.4394 -42.1500 6.5306 0.8071
41.8326 -42.5731 7.3285 0.7862
56.6960 -34.9792 8.1797 0.7645
59.7141 -19.2219 7.7025 0.7766
61.3307 -11.8420 7.6696 0.7775
77.1017 3.9075 9.4790 0.7326
11.2385 8.6160 1.7388 0.9445
5.3603 8.6521 1.2497 0.9598
4.0136 8.6604 1.1720 0.9623
2.8080 8.6678 1.1187 0.9639
-5.1249 8.7165 1.2415 0.9601
-6.6639 8.7260 1.3481 0.9567
-10.8638 8.7353 1.7116 0.9454
-25.4477 -31.5276 4.9748 0.8494
-14.7820 -31.5860 4.2820 0.8689
61.1365 -11.3312 5.4398 0.7791
61.1826 -3.8336 5.3633 0.7818
57.0166 17.6051 5.2207 0.7869
42.8985 19.1661 4.1107 0.8281
33.0121 19.8270 3.3691 0.8567
31.4748 31.2760 3.8820 0.8368
5.2716 8.6526 0.8864 0.9601
3.9355 8.6608 0.8323 0.9625
1.6246 8.6750 0.7722 0.9652
0.5603 8.6816 0.7611 0.9657
-0.4892 8.6880 0.7613 0.9657
-3.8714 8.7088 0.8338 0.9625
-5.2133 8.7171 0.8886 0.9600
-8.6506 8.7382 1.0758 0.9518
-11.0581 8.7563 1.2340 0.9449
-14.3396 8.7732 1.4707 0.9347
-19.2783 8.8035 1.8542 0.9184
-26.7074 -33.5990 3.7551 0.8417
-20.5705 -33.4816 3.4379 0.8540
-14.4961 -31.5878 3.0407 0.8697
-7.5656 -23.6545 2.1728 0.9051
25.4814 -84.1964 7.6962 0.7024
19.3983 -44.0802 4.2134 0.8242
56.9471 -26.2627 5.4865 0.7774
61.1798 -4.2926 5.3657 0.7817
61.2253 3.1029 5.3634 0.7818
55.9357 9.6780 4.9664 0.7962
57.0138 17.1385 5.2085 0.7874
-1.4875 8.6942 0.7717 0.9652
-2.5978 8.7010 0.7944 0.9642
-6.6639 8.7260 0.9606 0.9569
-8.5215 8.7374 1.0678 0.9522
-14.0994 8.7717 1.4528 0.9355
-20.7181 -33.1635 3.4211 0.8547
66.1889 -12.2676 3.5279 0.7637
66.1350 -4.1439 3.4728 0.7669
49.7830 8.9972 2.6513 0.8166
27.5495 8.5065 1.5111 0.8909
42.8986 19.1661 2.4624 0.8284
32.8472 19.7279 2.0081 0.8577
11.0676 8.6170 0.7351 0.9454
6.8177 8.6431 0.5769 0.9569
5.2716 8.6526 0.5310 0.9602
3.9355 8.6608 0.4986 0.9626
2.7334 8.6577 0.4758 0.9643
-1.5522 8.6814 0.4622 0.9653
-27.8694 8.8563 1.5325 0.8895
-18.7789 -30.5654 1.8800 0.8662
-7.4805 -23.3886 1.2869 0.9063
22.1852 -50.4130 2.8865 0.8020
24.6602 -41.5858 2.5338 0.8239
32.4393 -42.1499 2.7874 0.8081
40.2368 -40.9490 3.0087 0.7946
56.7956 -35.0407 3.4974 0.7654
66.2496 -21.3256 3.6474 0.7567
66.1383 -4.6405 3.4747 0.7668
66.0858 3.3492 3.4678 0.7672
49.6349 8.5878 2.6399 0.8173
28.3131 8.5110 1.5494 0.8883
31.6252 18.6738 1.9248 0.8632
11.2385 8.6160 0.7422 0.9449
8.7812 8.5963 0.6440 0.9520
6.9226 8.6425 0.5803 0.9566
5.3604 8.6521 0.5334 0.9601
4.0136 8.6604 0.5002 0.9625
2.8050 8.6584 0.4770 0.9642
1.6891 8.6612 0.4625 0.9653
0.6249 8.6744 0.4558 0.9658
-0.4237 8.6811 0.4555 0.9658
-1.4854 8.6815 0.4616 0.9653
-2.5945 8.6899 0.4753 0.9643
-3.7935 8.7083 0.4978 0.9627
-5.1249 8.7165 0.5299 0.9603
-6.6639 8.7260 0.5754 0.9570
-10.8638 8.7353 0.7306 0.9457
-14.0994 8.7717 0.8702 0.9357
-27.1508 8.8519 1.4966 0.8919
-25.4462 -31.5258 2.1232 0.8502
-14.7820 -31.5860 1.8277 0.8696
-7.6465 -23.3056 1.2855 0.9064
-6.6740 -33.5540 1.7929 0.8719
-5.8696 -77.4344 4.0698 0.7327
27.5495 8.5065 0.5033 0.8911
45.1064 20.1525 0.8623 0.8207
32.8473 19.7280 0.6688 0.8579
11.0676 8.6170 0.2448 0.9454
11.3197 11.2482 0.2785 0.9382
5.2716 8.6526 0.1769 0.9603
3.9263 8.6408 0.1657 0.9627
2.7286 8.6423 0.1582 0.9644
0.5603 8.6816 0.1519 0.9658
-1.5546 8.6946 0.1542 0.9653
-6.7393 8.6894 0.1919 0.9570
-8.6506 8.7382 0.2146 0.9520
-19.2638 8.7969 0.3697 0.9188
-27.8694 8.8563 0.5104 0.8896
-66.5135 -29.4190 1.2695 0.7475
-24.7766 -31.1700 0.6950 0.8527
-9.9793 -31.2013 0.5718 0.8772
-6.6701 -34.8950 0.6201 0.8675
-4.4699 -65.4575 1.1452 0.7691
31.2816 -31.8353 0.7791 0.8365
31.3236 -24.9944 0.6995 0.8519
39.4232 -24.3225 0.8086 0.8308
28.3131 8.5110 0.5161 0.8885
46.0144 20.1469 0.8768 0.8179
6.9226 8.6425 0.1933 0.9567
1.6835 8.6324 0.1535 0.9654
-0.4240 8.6876 0.1518 0.9658
-1.4875 8.6942 0.1540 0.9653
-2.5978 8.7010 0.1585 0.9643
-5.1117 8.6940 0.1760 0.9605
-10.8638 8.7353 0.2433 0.9458
-27.1507 8.8519 0.4985 0.8920
-67.8844 -29.4208 1.2914 0.7438
-25.1571 -31.1677 0.6991 0.8519
-6.6740 -33.5540 0.5972 0.8721
95.8564 -17.7663 -1.7017 0.6770
73.8467 4.2961 -1.2912 0.7438
11.0676 8.6170 -0.2448 0.9454
6.8178 8.6431 -0.1922 0.9569
5.2716 8.6526 -0.1769 0.9603
1.6090 8.5917 -0.1526 0.9656
0.5603 8.6816 -0.1519 0.9658
-0.4892 8.6880 -0.1519 0.9658
-1.5546 8.6946 -0.1542 0.9653
-2.6690 8.7014 -0.1589 0.9642
-5.1834 8.6671 -0.1763 0.9604
-6.6991 8.6375 -0.1908 0.9572
-11.0581 8.7563 -0.2462 0.9451
-14.3396 8.7732 -0.2934 0.9350
-27.8694 8.8563 -0.5104 0.8896
-90.1271 17.0531 -1.6011 0.6928
-57.6299 3.8272 -1.0081 0.7937
-67.0059 -29.6368 -1.2789 0.7459
-16.2306 -20.4188 -0.4553 0.9009
-6.5640 -20.5231 -0.3761 0.9174
-1.7594 -25.7645 -0.4508 0.9018
27.5944 -91.1782 -1.6628 0.6831
38.1246 -86.6331 -1.6521 0.6848
31.3236 -24.9944 -0.6995 0.8519
95.3668 -18.4138 -1.6954 0.6780
48.8830 8.4577 -0.8659 0.8200
41.7698 18.2885 -0.7959 0.8333
33.4047 19.7246 -0.6771 0.8562
8.7812 8.5963 -0.2145 0.9520
0.6254 8.6812 -0.1519 0.9658
-0.4240 8.6876 -0.1518 0.9658
-2.5978 8.7010 -0.1585 0.9643
-3.7797 8.6768 -0.1652 0.9628
-5.0983 8.6712 -0.1756 0.9606
-8.5215 8.7374 -0.2130 0.9523
-10.8638 8.7353 -0.2433 0.9458
-18.6558 8.6884 -0.3592 0.9210
-57.8329 4.2751 -1.0122 0.7929
-62.8742 -36.8092 -1.2717 0.7472
-16.5902 -20.5539 -0.4611 0.8997
-11.0002 -33.5275 -0.6159 0.8683
-1.9506 -25.7335 -0.4505 0.9019
47.6436 -2.9852 -2.5018 0.8260
47.6564 2.7725 -2.5018 0.8260
44.1181 7.9734 -2.3496 0.8356
27.5495 8.5065 -1.5111 0.8909
26.4084 11.7987 -1.5159 0.8906
26.5766 15.9618 -1.6247 0.8832
6.8177 8.6431 -0.5769 0.9569
5.2716 8.6526 -0.5310 0.9602
2.7151 8.5995 -0.4726 0.9645
1.6014 8.5508 -0.4559 0.9658
0.5603 8.6816 -0.4559 0.9658
-1.5546 8.6946 -0.4629 0.9652
-3.8556 8.6732 -0.4974 0.9627
-6.6594 8.5863 -0.5695 0.9574
-8.6506 8.7382 -0.6444 0.9519
-11.0581 8.7563 -0.7392 0.9451
-25.4287 8.0807 -1.3983 0.8986
-44.6335 8.4451 -2.3806 0.8336
-42.8864 -13.0668 -2.3496 0.8356
-41.0149 -24.4253 -2.5018 0.8260
-37.7760 -29.1856 -2.5018 0.8260
-31.9197 -31.4820 -2.3496 0.8356
-12.0794 -19.6611 -1.2093 0.9117
-4.1073 -21.4877 -1.1465 0.9161
8.2264 -47.0229 -2.5018 0.8260
27.3437 -35.5290 -2.3496 0.8356
40.7120 -18.7754 -2.3496 0.8356
46.8713 -9.0501 -2.5018 0.8260
47.6199 -3.3412 -2.5018 0.8260
44.1765 7.6434 -2.3496 0.8356
26.3789 11.5497 -1.5092 0.8911
11.2385 8.6160 -0.7422 0.9449
5.3604 8.6521 -0.5334 0.9601
2.7870 8.6028 -0.4739 0.9644
1.6676 8.5509 -0.4566 0.9657
0.6254 8.6812 -0.4561 0.9657
-3.7797 8.6768 -0.4960 0.9628
-18.4637 8.5989 -1.0674 0.9217
-25.4274 8.2900 -1.4016 0.8984
-36.8199 7.2522 -1.9667 0.8604
-45.0699 3.3316 -2.3685 0.8344
-37.9930 -28.9025 -2.5018 0.8260
-32.1541 -31.2425 -2.3496 0.8356
-16.3738 -20.2858 -1.3662 0.9008
-6.6433 -20.2481 -1.1168 0.9182
-4.2475 -21.3545 -1.1411 0.9165
-1.8772 -24.7647 -1.3016 0.9053
28.5396 -1.7882 -2.5018 0.8915
6.8177 8.6431 -0.9631 0.9568
5.2716 8.6526 -0.8864 0.9601
1.5970 8.5273 -0.7590 0.9658
-0.4892 8.6880 -0.7613 0.9657
-2.6690 8.7014 -0.7963 0.9641
-3.8556 8.6732 -0.8304 0.9626
-5.1561 8.6214 -0.8789 0.9605
-6.6290 8.5471 -0.9463 0.9575
-8.6506 8.7382 -1.0758 0.9518
-14.3396 8.7732 -1.4707 0.9347
-18.1590 8.2924 -1.7465 0.9230
-25.1230 7.9836 -2.3063 0.8996
-26.3877 4.9929 -2.3496 0.8978
-24.6278 1.6355 -2.1594 0.9056
-28.1585 -4.9804 -2.5018 0.8915
-27.3541 -8.3343 -2.5018 0.8915
-26.1517 -11.5670 -2.5018 0.8915
-24.5689 -14.6313 -2.5018 0.8915
-22.6287 -17.4829 -2.5018 0.8915
-15.9321 -20.0432 -2.2401 0.9023
-8.6574 -18.8652 -1.8160 0.9200
-6.3773 -19.9391 -1.8315 0.9194
-1.6953 -24.8258 -2.1770 0.9049
1.3545 -25.7728 -2.2579 0.9016
4.9278 -28.1678 -2.5018 0.8915
11.5181 -26.1733 -2.5018 0.8915
14.5854 -24.5962 -2.5018 0.8915
22.3100 -17.8021 -2.4971 0.8917
24.3365 -15.0147 -2.5018 0.8915
28.0770 -5.4212 -2.5018 0.8915
28.5254 -2.0015 -2.5018 0.8915
28.5589 1.4474 -2.5018 0.8915
25.7190 7.7312 -2.3496 0.8978
24.6026 10.7720 -2.3497 0.8978
8.7812 8.5963 -1.0751 0.9519
6.9226 8.6425 -0.9688 0.9565
5.3604 8.6521 -0.8905 0.9600
3.9964 8.6232 -0.8315 0.9626
2.7800 8.5814 -0.7892 0.9644
1.6636 8.5304 -0.7604 0.9657
0.6254 8.6812 -0.7615 0.9657
-1.4875 8.6942 -0.7717 0.9652
-2.5978 8.7010 -0.7944 0.9642
-3.7797 8.6768 -0.8280 0.9627
-5.0715 8.6257 -0.8754 0.9606
-10.8638 8.7353 -1.2196 0.9456
-14.0994 8.7717 -1.4528 0.9355
-17.9468 8.3581 -1.7321 0.9236
-26.3497 5.1899 -2.3496 0.8978
-24.2138 1.7899 -2.1242 0.9071
-27.7704 -1.3034 -2.4323 0.8944
-28.1950 -4.7698 -2.5018 0.8915
-26.2374 -11.3712 -2.5018 0.8915
-24.6776 -14.4473 -2.5018 0.8915
-12.0531 -19.2934 -1.9903 0.9127
-8.8395 -18.8881 -1.8245 0.9197
20.3410 1.1834 -2.5018 0.9212
11.6564 2.1066 -1.4544 0.9534
6.8178 8.6431 -1.3517 0.9566
5.2716 8.6526 -1.2441 0.9600
3.9019 8.5869 -1.1581 0.9627
2.6970 8.5424 -1.0999 0.9645
-2.6690 8.7014 -1.1175 0.9640
-3.8415 8.6415 -1.1612 0.9626
-5.1216 8.5638 -1.2252 0.9606
-8.6506 8.7382 -1.5097 0.9517
-11.0581 8.7563 -1.7319 0.9447
-14.3396 8.7732 -2.0641 0.9345
-18.8022 3.5576 -2.3496 0.9258
-20.3307 1.3502 -2.5018 0.9212
-20.3453 -1.1073 -2.5018 0.9212
-19.4908 -5.9385 -2.5018 0.9212
-17.5063 -10.4254 -2.5018 0.9212
-16.1238 -12.4572 -2.5018 0.9212
-14.5067 -14.3078 -2.5018 0.9212
-10.0172 -16.3045 -2.3496 0.9258
-7.9814 -17.3919 -2.3496 0.9258
-5.8295 -18.2263 -2.3496 0.9258
-1.3037 -19.0914 -2.3496 0.9258
3.5112 -20.0706 -2.5018 0.9212
8.2071 -18.6495 -2.5018 0.9212
12.4270 -16.1471 -2.5018 0.9212
14.2807 -14.5334 -2.5018 0.9212
18.5026 -8.5330 -2.5018 0.9212
20.0059 -3.8628 -2.5018 0.9212
20.3493 1.0313 -2.5018 0.9212
18.3258 5.5088 -2.3496 0.9258
17.5293 7.6750 -2.3496 0.9258
5.3603 8.6521 -1.2497 0.9598
3.9809 8.5897 -1.1624 0.9626
2.7683 8.5451 -1.1029 0.9644
0.6254 8.6812 -1.0687 0.9655
-0.4240 8.6876 -1.0680 0.9656
-1.4875 8.6942 -1.0830 0.9651
-3.7663 8.6459 -1.1579 0.9627
-5.0382 8.5690 -1.2205 0.9607
-8.5215 8.7374 -1.4986 0.9520
-10.8638 8.7353 -1.7116 0.9454
-17.3469 8.0787 -2.3496 0.9258
-18.7751 3.6980 -2.3496 0.9258
-20.3530 -0.9553 -2.5018 0.9212
-17.5837 -10.2943 -2.5018 0.9212
-16.2164 -12.3363 -2.5018 0.9212
-14.6133 -14.1990 -2.5018 0.9212
-10.1388 -16.2292 -2.3496 0.9258
-8.1112 -17.3318 -2.3496 0.9258
-5.9655 -18.1823 -2.3496 0.9258
-3.7331 -18.7682 -2.3496 0.9258
-1.4464 -19.0811 -2.3496 0.9258
15.7647 -0.9878 -2.5018 0.9380
15.7690 0.9174 -2.5018 0.9380
11.5717 2.0913 -1.8625 0.9535
6.1029 2.7266 -1.0587 0.9733
12.7173 7.6380 -2.3496 0.9417
10.5229 10.4565 -2.3496 0.9417
5.2716 8.6526 -1.6048 0.9598
2.6733 8.4673 -1.4063 0.9647
0.5603 8.6816 -1.3779 0.9654
-0.4892 8.6880 -1.3782 0.9654
-1.5546 8.6946 -1.3989 0.9649
-2.6690 8.7014 -1.4415 0.9638
-3.8175 8.5875 -1.4885 0.9627
-6.4097 8.2643 -1.6565 0.9585
-12.6542 7.7420 -2.3496 0.9417
-13.4943 6.1622 -2.3496 0.9417
-14.1380 4.4928 -2.3496 0.9417
-15.5542 -2.7511 -2.5018 0.9380
-15.1099 -4.6037 -2.5018 0.9380
-12.4996 -9.6572 -2.5018 0.9380
-9.8289 -12.3651 -2.5018 0.9380
-4.7661 -14.9018 -2.4780 0.9386
-1.0761 -15.7590 -2.5018 0.9380
2.7220 -15.5594 -2.5018 0.9380
11.0708 -11.2668 -2.5018 0.9380
12.3467 -9.8519 -2.5018 0.9380
13.4430 -8.2938 -2.5018 0.9380
15.5092 -2.9946 -2.5018 0.9380
15.7754 0.7995 -2.5018 0.9380
11.6176 2.0101 -1.8674 0.9534
7.4381 2.2359 -1.2302 0.9690
6.1161 2.6779 -1.0575 0.9733
6.0317 3.5615 -1.1094 0.9720
11.2271 8.6072 -2.2406 0.9443
8.7812 8.5963 -1.9463 0.9515
6.9227 8.6425 -1.7538 0.9561
0.6254 8.6812 -1.3785 0.9654
-1.4875 8.6942 -1.3970 0.9649
-2.5978 8.7010 -1.4382 0.9639
-6.3299 8.2886 -1.6518 0.9586
-8.5215 8.7374 -1.9331 0.9518
-10.8638 8.7353 -2.2079 0.9451
-12.5960 7.8364 -2.3496 0.9417
-15.5744 -2.6348 -2.5018 0.9380
-15.1439 -4.4907 -2.5018 0.9380
-14.4931 -6.2812 -2.5018 0.9380
-12.5715 -9.5635 -2.5018 0.9380
-11.3286 -11.0075 -2.5018 0.9380
-9.9210 -12.2913 -2.5018 0.9380
-8.3691 -13.3963 -2.5018 0.9380
-6.6882 -14.2913 -2.4991 0.9381
-3.0731 -15.4504 -2.4950 0.9382
-1.1939 -15.7505 -2.5018 0.9380
11.5780 2.0925 -2.2870 0.9532
6.9435 2.1439 -1.4125 0.9708
5.5922 2.4985 -1.1906 0.9754
5.3836 3.2334 -1.2207 0.9747
8.5742 8.5201 -2.3496 0.9519
6.8178 8.6431 -2.1398 0.9561
5.2716 8.6526 -1.9695 0.9596
0.5603 8.6816 -1.6910 0.9652
-0.4892 8.6880 -1.6915 0.9652
-3.8175 8.5875 -1.8268 0.9624
-5.0265 8.4047 -1.9036 0.9609
-6.2770 8.0933 -1.9909 0.9591
-8.5041 8.5901 -2.3496 0.9519
-9.4764 7.5038 -2.3496 0.9519
-10.9954 5.0211 -2.3496 0.9519
-12.1977 3.8762 -2.4878 0.9492
-12.8516 -0.6995 -2.5018 0.9489
-12.6739 -2.2416 -2.5018 0.9489
-11.7706 -5.2062 -2.5018 0.9489
-11.0582 -6.5854 -2.5018 0.9489
-10.1849 -7.8689 -2.5018 0.9489
-9.1635 -9.0378 -2.5018 0.9489
-8.0087 -10.0753 -2.5018 0.9489
-6.7375 -10.9662 -2.5018 0.9489
-5.3682 -11.6976 -2.5018 0.9489
-3.9208 -12.2588 -2.5018 0.9489
-2.4164 -12.6417 -2.5018 0.9489
0.6755 -12.8528 -2.5018 0.9489
3.7282 -12.3188 -2.5018 0.9489
6.5647 -11.0705 -2.5018 0.9489
10.9536 -6.7579 -2.5018 0.9489
12.6372 -2.4400 -2.5018 0.9489
12.8541 0.6514 -2.5018 0.9489
11.7679 2.0361 -2.3214 0.9525
8.6377 8.4558 -2.3496 0.9519
6.9226 8.6425 -2.1524 0.9559
5.3604 8.6521 -1.9784 0.9594
3.9471 8.5168 -1.8246 0.9625
2.7196 8.3949 -1.7153 0.9647
1.6118 8.2647 -1.6368 0.9663
-6.1992 8.1175 -1.9854 0.9592
-12.6280 2.4873 -2.5018 0.9489
-12.8564 -0.6034 -2.5018 0.9489
-12.3395 -3.6591 -2.5018 0.9489
-10.2435 -7.7925 -2.5018 0.9489
-9.2308 -8.9691 -2.5018 0.9489
-8.0838 -10.0152 -2.5018 0.9489
-5.4555 -11.6572 -2.5018 0.9489
-4.0123 -12.2292 -2.5018 0.9489
-2.5108 -12.6233 -2.5018 0.9489
-0.9728 -12.8338 -2.5018 0.9489
10.8152 -0.6777 -2.5018 0.9565
10.6637 1.9272 -2.5018 0.9565
5.2526 2.3467 -1.3282 0.9767
4.9841 2.9934 -1.3422 0.9764
7.2191 7.1735 -2.3496 0.9591
5.2951 8.6912 -2.3496 0.9591
3.8629 8.5012 -2.1558 0.9624
2.6219 8.3043 -2.0105 0.9649
1.5127 8.0773 -1.8972 0.9668
-5.2236 8.7343 -2.3496 0.9591
-9.3728 4.2801 -2.3788 0.9586
-10.3275 3.2819 -2.5018 0.9565
-10.8204 -0.5889 -2.5018 0.9565
-9.9103 -4.3834 -2.5018 0.9565
-9.3105 -5.5446 -2.5018 0.9565
-7.7152 -7.6094 -2.5018 0.9565
-3.3012 -10.3214 -2.5018 0.9565
-2.0345 -10.6437 -2.5018 0.9565
0.5687 -10.8215 -2.5018 0.9565
4.3648 -9.9185 -2.5018 0.9565
6.6092 -8.5876 -2.5018 0.9565
7.5950 -7.7294 -2.5018 0.9565
8.4703 -6.7588 -2.5018 0.9565
9.8404 -4.5382 -2.5018 0.9565
10.3152 -3.3204 -2.5018 0.9565
10.6399 -2.0544 -2.5018 0.9565
10.8099 -0.7585 -2.5018 0.9565
10.8225 0.5485 -2.5018 0.9565
10.6778 1.8475 -2.5018 0.9565
5.2934 2.3177 -1.3341 0.9766
4.9919 2.9476 -1.3384 0.9765
8.0768 6.1920 -2.3496 0.9591
7.2725 7.1194 -2.3496 0.9591
6.3625 7.9432 -2.3496 0.9591
3.9471 8.5168 -2.1672 0.9622
2.6950 8.3187 -2.0188 0.9647
0.6254 8.6812 -2.0094 0.9649
-0.4240 8.6876 -2.0081 0.9649
-1.4875 8.6942 -2.0364 0.9644
-2.5978 8.7010 -2.0964 0.9634
-3.7466 8.6007 -2.1658 0.9622
-6.1769 8.0883 -2.3496 0.9591
-7.1058 7.2858 -2.3496 0.9591
-10.6322 2.0941 -2.5018 0.9565
-10.8245 -0.5080 -2.5018 0.9565
-10.6846 -1.8076 -2.5018 0.9565
-9.3517 -5.4749 -2.5018 0.9565
-7.7719 -7.5516 -2.5018 0.9565
-4.5933 -9.8148 -2.5018 0.9565
-2.1140 -10.6282 -2.5018 0.9565
9.1804 -1.7015 -2.5018 0.9621
9.3210 0.5423 -2.5018 0.9621
6.2201 6.1808 -2.3496 0.9643
5.4307 6.8847 -2.3496 0.9643
4.5623 7.4884 -2.3496 0.9643
3.6276 7.9833 -2.3496 0.9643
2.6400 8.3619 -2.3496 0.9643
0.5647 8.7506 -2.3496 0.9643
-0.4929 8.7549 -2.3496 0.9643
-1.5434 8.6319 -2.3496 0.9643
-2.5714 8.3833 -2.3496 0.9643
-3.5620 8.0127 -2.3496 0.9643
-5.3740 6.9290 -2.3496 0.9643
-7.4799 4.5763 -2.3496 0.9643
-8.4932 3.8784 -2.5018 0.9621
-8.8983 2.8277 -2.5018 0.9621
-9.1740 1.7358 -2.5018 0.9621
-9.1941 -1.6262 -2.5018 0.9621
-8.9314 -2.7213 -2.5018 0.9621
-8.0220 -4.7773 -2.5018 0.9621
-4.8876 -7.9553 -2.5018 0.9621
-3.8943 -8.4859 -2.5018 0.9621
-2.8443 -8.8930 -2.5018 0.9621
-1.7530 -9.1708 -2.5018 0.9621
0.4900 -9.3239 -2.5018 0.9621
1.6090 -9.1971 -2.5018 0.9621
2.7046 -8.9365 -2.5018 0.9621
3.7608 -8.5459 -2.5018 0.9621
4.7623 -8.0309 -2.5018 0.9621
6.5439 -6.6598 -2.5018 0.9621
7.9462 -4.9025 -2.5018 0.9621
9.1675 -1.7701 -2.5018 0.9621
9.3139 -0.6535 -2.5018 0.9621
9.3248 0.4726 -2.5018 0.9621
9.2001 1.5918 -2.5018 0.9621
6.6714 2.0055 -1.8666 0.9716
5.0619 2.2163 -1.4806 0.9774
4.7881 2.8273 -1.4899 0.9772
5.4820 6.8439 -2.3496 0.9643
4.6182 7.4542 -2.3496 0.9643
3.6871 7.9559 -2.3496 0.9643
1.6785 8.6066 -2.3496 0.9643
-0.4275 8.7584 -2.3496 0.9643
-2.5086 8.4023 -2.3496 0.9643
-2.5391 5.8289 -1.7036 0.9740
-5.3221 6.9690 -2.3496 0.9643
-6.1224 6.2775 -2.3496 0.9643
-6.8337 5.4948 -2.3496 0.9643
-7.4455 4.6321 -2.3496 0.9643
-8.4611 3.9405 -2.5010 0.9621
-9.1608 1.8043 -2.5018 0.9621
-9.3114 0.6883 -2.5018 0.9621
-9.2060 -1.5574 -2.5018 0.9621
-8.5668 -3.7128 -2.5018 0.9621
-6.6964 -6.5065 -2.5018 0.9621
-1.8215 -9.1574 -2.5018 0.9621
-0.7057 -9.3101 -2.5018 0.9621
