ply
format ascii 1.0
element vertex 562
property float32 x
property float32 y
property float32 z
property float32 I
end_header
34.0198 19.8207 10.5499 0.8496
32.1304 24.3465 10.8017 0.8463
31.7217 39.1817 13.5081 0.8116
32.4055 69.0515 20.4384 0.7292
-11.9376 27.6570 8.0715 0.8827
-14.7518 25.2717 7.8408 0.8859
-41.0957 -12.1475 11.4825 0.8374
-53.3477 -23.0787 15.5748 0.7861
-20.5180 -32.8706 10.3827 0.8517
-8.1056 -40.9646 11.1892 0.8412
48.3981 -82.5990 25.6518 0.6727
57.1199 -26.6339 16.8873 0.7703
44.0867 19.1587 12.8802 0.8195
33.7660 19.8223 10.4914 0.8503
32.1314 24.5146 10.8292 0.8459
32.8052 52.7485 16.6443 0.7732
32.4092 69.6560 20.5856 0.7275
-11.5933 38.8671 10.8678 0.8454
-12.0463 27.6577 8.0833 0.8826
-22.1837 22.7200 8.5085 0.8768
-60.6649 -10.4017 16.4923 0.7750
-38.5270 -11.5265 10.7754 0.8466
-53.3327 -23.2814 15.5927 0.7859
33.8500 19.7218 9.0445 0.8514
32.6753 31.6418 10.5010 0.8297
31.7217 39.1817 11.6388 0.8131
32.7018 52.1975 14.2204 0.7766
-11.5905 39.3307 9.4663 0.8451
-14.7518 25.2717 6.7557 0.8868
-17.2222 22.6895 6.5764 0.8896
-22.0795 22.7631 7.3213 0.8779
-66.2351 53.5340 19.6618 0.7050
-57.7881 -17.0815 13.9121 0.7808
-19.7223 -31.5958 8.5989 0.8582
-14.8503 -31.7800 8.0985 0.8659
-8.9427 -27.3291 6.6386 0.8887
23.9964 -40.9537 10.9584 0.8230
33.5998 -44.1150 12.8024 0.7964
44.0867 19.1587 11.0978 0.8209
32.6766 31.8526 10.5351 0.8292
31.7234 39.4491 11.6870 0.8124
32.8052 52.7485 14.3410 0.7749
-11.5933 38.8671 9.3638 0.8466
-14.8226 25.2018 6.7500 0.8869
-17.7250 23.1926 6.7391 0.8871
-58.8770 -17.6148 14.1881 0.7770
32.6753 31.6418 8.8414 0.8308
31.7217 39.1817 9.7993 0.8143
0.6619 8.6810 1.6923 0.9651
-0.3894 8.6874 1.6904 0.9652
-2.5641 8.7008 1.7632 0.9637
-3.7587 8.7081 1.8436 0.9621
-5.0879 8.7163 1.9618 0.9597
-17.2222 22.6895 5.5370 0.8904
-22.0795 22.7631 6.1642 0.8788
-66.2785 53.5692 16.5651 0.7066
-20.5180 -32.8706 7.5320 0.8539
-15.7270 -33.6562 7.2211 0.8595
-11.0181 -33.6718 6.8866 0.8656
-6.6679 -33.6984 6.6773 0.8694
23.6754 -40.4058 9.1030 0.8263
32.1798 -42.2505 10.3235 0.8054
71.9788 -44.8472 16.4848 0.7078
33.7076 19.7880 7.5977 0.8528
32.1314 24.5146 7.8559 0.8482
32.6766 31.8526 8.8701 0.8303
31.7234 39.4491 9.8399 0.8136
2.8204 8.6677 1.7718 0.9635
0.6331 8.6811 1.6919 0.9652
-22.1836 22.7200 6.1723 0.8786
-61.7426 -10.5865 12.1767 0.7747
-60.0077 -17.9531 12.1752 0.7747
-66.5133 -29.0352 14.1071 0.7440
32.6753 31.6418 7.2041 0.8318
4.0641 8.6600 1.5151 0.9620
1.7313 8.6744 1.4010 0.9648
-0.3894 8.6874 1.3773 0.9654
-2.5641 8.7008 1.4367 0.9639
-3.7587 8.7081 1.5022 0.9623
-6.6232 8.7257 1.7351 0.9566
-8.4747 8.7371 1.9279 0.9519
-54.4892 17.8799 9.0830 0.7927
-80.5326 -13.5349 12.9340 0.7184
-26.4806 -20.1342 5.2688 0.8740
-26.9914 -33.4516 6.8078 0.8402
-19.7223 -31.5958 5.8992 0.8600
-14.7621 -31.5912 5.5229 0.8683
-10.3559 -31.6479 5.2741 0.8738
-6.2602 -31.6382 5.1081 0.8776
42.4607 -43.6311 9.6427 0.7815
57.2962 -46.1531 11.6528 0.7423
56.8914 -35.4468 10.6166 0.7623
57.3923 -26.7609 10.0297 0.7738
75.5950 -24.6673 12.5944 0.7247
32.1314 24.5146 6.4011 0.8490
32.6766 31.8526 7.2275 0.8313
2.8204 8.6677 1.4437 0.9638
-0.4181 8.6876 1.3776 0.9654
-5.1267 8.7165 1.6017 0.9599
-8.5312 8.7375 1.9341 0.9517
-83.5794 -14.3307 13.4309 0.7093
33.8500 19.7218 4.8102 0.8540
11.3695 8.6151 1.7515 0.9441
32.6753 31.6418 5.5848 0.8325
5.4203 8.6517 1.2536 0.9597
4.0641 8.6600 1.1746 0.9622
1.7313 8.6744 1.0861 0.9650
0.6619 8.6810 1.0690 0.9655
-0.3894 8.6874 1.0678 0.9656
-2.5641 8.7008 1.1137 0.9641
-5.0879 8.7163 1.2392 0.9601
-6.6232 8.7257 1.3451 0.9568
-8.4747 8.7371 1.4945 0.9521
-66.2785 53.5691 10.4637 0.7093
-54.6799 17.9425 7.0659 0.7930
-25.4390 -31.5277 4.9741 0.8494
-11.0182 -33.6718 4.3501 0.8669
-6.6679 -33.6985 4.2179 0.8707
-6.3826 -85.5687 10.5357 0.7077
25.9998 -87.6932 11.2306 0.6917
20.7795 -47.9243 6.4137 0.8102
53.3384 -42.9651 8.4096 0.7588
56.8914 -35.4468 8.2303 0.7633
56.9628 -26.5606 7.7171 0.7762
59.3574 -19.3688 7.6664 0.7775
61.5325 -12.1227 7.7005 0.7767
61.4303 -4.5312 7.5632 0.7802
64.3484 3.0438 7.9098 0.7713
61.5224 10.4443 7.6621 0.7776
6.9498 8.6423 1.3617 0.9563
5.3808 8.6520 1.2510 0.9598
4.0294 8.6603 1.1728 0.9622
2.8204 8.6677 1.1192 0.9639
1.7016 8.6746 1.0854 0.9650
0.6331 8.6811 1.0687 0.9655
-0.4181 8.6876 1.0679 0.9656
-2.5953 8.7010 1.1149 0.9641
-3.7929 8.7083 1.1663 0.9624
-5.1267 8.7165 1.2416 0.9601
-8.5312 8.7375 1.4994 0.9520
-10.8767 8.7319 1.7126 0.9453
-70.0213 -30.5665 9.3810 0.7350
34.0200 19.8208 3.4447 0.8538
31.6693 30.6676 3.8569 0.8378
6.9966 8.6420 0.9728 0.9563
5.4203 8.6517 0.8932 0.9598
4.0641 8.6600 0.8369 0.9623
2.8520 8.6675 0.7983 0.9640
1.7313 8.6744 0.7739 0.9651
0.6619 8.6810 0.7617 0.9656
-0.3894 8.6874 0.7608 0.9657
-3.7587 8.7081 0.8298 0.9626
-14.0261 8.7712 1.4473 0.9357
-18.7897 8.7990 1.8152 0.9201
-54.6724 17.9400 5.0337 0.7937
-14.7621 -31.5912 3.0507 0.8693
-10.3559 -31.6480 2.9133 0.8748
-6.2671 -31.6730 2.8248 0.8784
2.7290 -58.7198 5.1429 0.7898
21.6404 -49.9099 4.7593 0.8038
23.3373 -39.8289 4.0387 0.8308
52.4794 -42.2731 5.8957 0.7629
56.8914 -35.4468 5.8644 0.7640
56.4003 -18.4039 5.1904 0.7880
61.4224 2.9053 5.3798 0.7812
56.0566 9.5164 4.9745 0.7959
44.0869 19.1588 4.2056 0.8245
33.7661 19.8223 3.4256 0.8545
11.2926 8.6156 1.2427 0.9446
31.6706 30.8720 3.8694 0.8373
6.9498 8.6423 0.9703 0.9564
4.0294 8.6603 0.8357 0.9624
2.8204 8.6677 0.7975 0.9641
0.6331 8.6811 0.7615 0.9657
-1.4833 8.6941 0.7716 0.9652
-3.7929 8.7083 0.8310 0.9626
-5.1267 8.7165 0.8847 0.9602
-14.1305 8.7719 1.4551 0.9354
33.8500 19.7218 2.0531 0.8548
11.3695 8.6151 0.7476 0.9445
12.1381 11.7542 0.8855 0.9346
4.0641 8.6600 0.5013 0.9624
-0.3891 8.6810 0.4554 0.9658
-2.5606 8.6891 0.4747 0.9644
-3.7587 8.7081 0.4971 0.9627
-6.6232 8.7257 0.5741 0.9571
-8.4747 8.7371 0.6379 0.9524
-18.7897 8.7990 1.0873 0.9203
-25.4375 -31.5258 2.1230 0.8502
-19.0780 -30.5635 1.8882 0.8656
-14.7158 -31.4921 1.8217 0.8700
-7.6630 -23.4183 1.2913 0.9060
-6.6394 -33.5542 1.7926 0.8720
-5.7759 -77.4350 4.0695 0.7327
4.5873 -98.7063 5.1786 0.6731
31.0790 -40.8053 2.6881 0.8143
39.8126 -40.9100 2.9917 0.7956
31.5195 -25.3896 2.1211 0.8503
56.4930 -18.4341 3.1144 0.7882
66.3927 -13.0802 3.5464 0.7626
66.2856 3.1354 3.4778 0.7666
49.9131 8.4734 2.6533 0.8165
12.1468 11.8405 0.8890 0.9343
6.9498 8.6423 0.5812 0.9566
5.3808 8.6520 0.5340 0.9600
-2.5920 8.6898 0.4752 0.9643
-3.7929 8.7083 0.4978 0.9627
-5.1267 8.7165 0.5300 0.9603
-14.1305 8.7719 0.8716 0.9356
-27.2823 8.8527 1.5032 0.8915
11.5174 11.1531 0.2798 0.9379
6.9966 8.6420 0.1941 0.9565
2.8420 8.6371 0.1587 0.9643
1.7228 8.6322 0.1536 0.9654
0.6619 8.6810 0.1520 0.9658
-1.4538 8.6940 0.1539 0.9654
-6.5947 8.6883 0.1904 0.9573
-8.4747 8.7371 0.2125 0.9525
-63.1841 51.0681 1.4181 0.7225
-14.0261 8.7712 0.2888 0.9360
-18.7897 8.7990 0.3622 0.9203
-68.0152 -29.4240 1.2935 0.7434
-25.1486 -31.1677 0.6990 0.8520
-10.2093 -31.1999 0.5730 0.8769
-6.6394 -33.5542 0.5970 0.8721
-4.9556 -66.4381 1.1629 0.7660
37.9311 -87.4816 1.6643 0.6829
27.3615 -46.6967 0.9447 0.8053
31.5195 -25.3896 0.7065 0.8505
52.3531 -24.4112 1.0083 0.7937
47.6032 8.0813 0.8428 0.8243
28.6135 8.5092 0.5211 0.8874
46.3559 20.1448 0.8822 0.8169
11.2926 8.6156 0.2479 0.9448
6.9498 8.6423 0.1936 0.9566
5.3808 8.6520 0.1778 0.9601
4.0201 8.6402 0.1663 0.9626
2.8100 8.6355 0.1585 0.9643
0.6331 8.6811 0.1519 0.9658
-0.4181 8.6876 0.1518 0.9658
-2.5953 8.7010 0.1585 0.9643
-10.8767 8.7319 0.2435 0.9457
-18.9444 8.7954 0.3646 0.9198
-59.9044 -17.9221 1.0914 0.7787
33.8501 19.7218 -0.6838 0.8549
11.3695 8.6151 -0.2490 0.9445
11.9852 11.6061 -0.2912 0.9354
6.9966 8.6420 -0.1941 0.9565
5.4203 8.6517 -0.1782 0.9600
4.0443 8.6179 -0.1662 0.9626
2.8349 8.6155 -0.1583 0.9644
-1.4538 8.6940 -0.1539 0.9654
-6.5557 8.6369 -0.1893 0.9575
-57.3851 11.4040 -1.0212 0.7913
-75.9150 -12.7588 -1.3437 0.7349
-75.9507 -32.8570 -1.4444 0.7182
-16.6545 -20.6407 -0.4629 0.8993
-9.0017 -19.2640 -0.3712 0.9185
-6.6677 -20.3768 -0.3742 0.9178
-1.8346 -24.5950 -0.4305 0.9060
37.9324 -87.4847 -1.6644 0.6829
31.4768 -32.3444 -0.7878 0.8348
38.9968 -24.2974 -0.8020 0.8321
94.5060 -18.6189 -1.6813 0.6802
73.9521 3.4980 -1.2923 0.7437
49.0805 8.3321 -0.8690 0.8194
28.6135 8.5092 -0.5211 0.8874
42.0469 18.2723 -0.8002 0.8324
11.2926 8.6156 -0.2479 0.9448
6.9498 8.6423 -0.1936 0.9566
5.3808 8.6520 -0.1778 0.9601
4.0098 8.6181 -0.1659 0.9627
-0.4181 8.6876 -0.1518 0.9658
-8.5312 8.7375 -0.2132 0.9523
-18.9444 8.7954 -0.3646 0.9198
-27.2823 8.8527 -0.5007 0.8916
-57.6353 4.1557 -1.0086 0.7936
-76.0145 -13.0335 -1.3462 0.7345
-61.0615 -18.2683 -1.1125 0.7749
-76.0051 -33.1787 -1.4476 0.7176
27.3879 15.9568 -1.6612 0.8808
11.3695 8.6151 -0.7476 0.9445
11.9852 11.6061 -0.8744 0.9354
6.9966 8.6420 -0.5827 0.9564
4.0429 8.6149 -0.4987 0.9626
2.8279 8.5941 -0.4742 0.9644
1.7065 8.5500 -0.4569 0.9657
-2.5641 8.7008 -0.4754 0.9643
-5.0433 8.6399 -0.5243 0.9607
-8.4747 8.7371 -0.6379 0.9524
-18.3533 8.5947 -1.0621 0.9220
-36.6219 7.2778 -1.9568 0.8611
-45.0682 3.3990 -2.3686 0.8344
-44.9880 -2.0536 -2.3602 0.8349
-44.2122 -7.4306 -2.3496 0.8356
-37.9997 -28.8927 -2.5018 0.8260
-32.1549 -31.2408 -2.3496 0.8356
-12.1513 -19.4668 -1.2027 0.9122
-8.8514 -18.9424 -1.0958 0.9197
-6.6083 -20.1952 -1.1136 0.9184
-4.2236 -21.3452 -1.1403 0.9165
2.0813 -44.7839 -2.3496 0.8356
7.9508 -47.0696 -2.5018 0.8260
18.9898 -43.7967 -2.5018 0.8260
22.2388 -37.9541 -2.3054 0.8385
31.2673 -32.1292 -2.3496 0.8356
36.0530 -22.4632 -2.2262 0.8435
38.4025 -12.5311 -2.1170 0.8506
47.6071 -3.5116 -2.5018 0.8260
44.1998 7.5035 -2.3496 0.8356
27.1836 15.9581 -1.6520 0.8814
11.2926 8.6156 -0.7444 0.9447
11.9856 11.6834 -0.8772 0.9352
4.0075 8.6132 -0.4979 0.9627
0.6331 8.6811 -0.4562 0.9657
-1.4833 8.6941 -0.4622 0.9653
-2.5953 8.7010 -0.4759 0.9643
-6.5620 8.5861 -0.5663 0.9576
-8.5312 8.7375 -0.6400 0.9523
-14.1305 8.7719 -0.8716 0.9356
-25.2297 8.1867 -1.3901 0.8992
-37.1227 7.2501 -1.9823 0.8594
-41.2377 -7.0707 -2.1927 0.8457
-42.9512 -12.8501 -2.3496 0.8356
-43.7496 -19.0981 -2.5018 0.8260
11.3695 8.6151 -1.2480 0.9443
11.8475 11.4728 -1.4429 0.9359
4.0429 8.6149 -0.8326 0.9625
2.8208 8.5727 -0.7896 0.9644
0.6619 8.6810 -0.7617 0.9656
-1.4538 8.6940 -0.7712 0.9652
-2.5641 8.7008 -0.7936 0.9642
-3.7414 8.6680 -0.8260 0.9628
-6.4851 8.5438 -0.9384 0.9578
-21.1627 17.1046 -2.3806 0.8965
-26.3404 5.2346 -2.3496 0.8978
-27.4884 -1.2548 -2.4074 0.8954
-27.4223 -8.1057 -2.5018 0.8915
-26.2446 -11.3537 -2.5018 0.8915
-24.6838 -14.4359 -2.5018 0.8915
-22.7627 -17.3074 -2.5018 0.8915
-8.8383 -18.9142 -1.8265 0.9196
-1.7825 -23.8965 -2.0965 0.9083
1.2468 -26.8266 -2.3496 0.8978
8.1283 -27.4156 -2.5018 0.8915
11.3753 -26.2352 -2.5018 0.8915
14.4561 -24.6719 -2.5018 0.8915
24.2698 -15.1216 -2.5018 0.8915
28.5177 -2.1035 -2.5018 0.8915
28.5633 1.3511 -2.5018 0.8915
23.2669 13.6588 -2.3604 0.8973
11.2926 8.6156 -1.2427 0.9446
4.0075 8.6132 -0.8311 0.9626
1.6713 8.5202 -0.7596 0.9657
0.6331 8.6811 -0.7615 0.9657
-1.4833 8.6941 -0.7716 0.9652
-2.5953 8.7010 -0.7944 0.9642
-3.7747 8.6665 -0.8270 0.9628
-5.0672 8.6153 -0.8744 0.9607
-14.1305 8.7719 -1.4551 0.9354
-17.9116 8.3159 -1.7277 0.9238
-24.1438 1.7408 -2.1178 0.9074
-27.6692 -1.3546 -2.4236 0.8947
-27.3954 -8.1962 -2.5018 0.8915
16.5341 9.6331 -2.3496 0.9258
6.9966 8.6420 -1.3653 0.9562
5.4203 8.6517 -1.2536 0.9597
4.0269 8.5807 -1.1638 0.9625
2.8088 8.5361 -1.1034 0.9644
1.6948 8.4916 -1.0632 0.9657
-1.4538 8.6940 -1.0823 0.9651
-18.1818 5.9661 -2.3496 0.9258
-20.2910 1.5303 -2.4985 0.9213
-20.3540 -0.9291 -2.5018 0.9212
-20.0934 -3.3770 -2.5018 0.9212
-19.5394 -5.7756 -2.5018 0.9212
-16.2193 -12.3322 -2.5018 0.9212
-12.5832 -15.5949 -2.4604 0.9224
-10.1326 -16.2328 -2.3496 0.9258
-8.1010 -17.3363 -2.3496 0.9258
-3.1690 -16.0159 -2.0046 0.9363
5.7918 -19.5347 -2.5018 0.9212
12.3455 -16.2091 -2.5018 0.9212
18.4664 -8.6105 -2.5018 0.9212
19.3700 -6.3206 -2.5018 0.9212
19.9909 -3.9385 -2.5018 0.9212
20.3200 -1.4988 -2.5018 0.9212
20.0878 3.4102 -2.5018 0.9212
8.2337 2.4486 -1.0547 0.9660
11.2926 8.6156 -1.7440 0.9444
6.9498 8.6423 -1.3617 0.9563
2.7772 8.5349 -1.1020 0.9645
0.6331 8.6811 -1.0687 0.9655
-3.7613 8.6357 -1.1565 0.9628
-5.0338 8.5586 -1.2192 0.9608
-10.8767 8.7319 -1.7126 0.9453
-18.2014 5.9061 -2.3496 0.9258
-20.3508 -0.9963 -2.5018 0.9212
-19.5203 -5.8400 -2.5018 0.9212
12.8177 7.4679 -2.3496 0.9417
11.3521 8.6019 -2.2559 0.9439
6.9966 8.6420 -1.7611 0.9560
5.4203 8.6517 -1.6170 0.9595
0.6619 8.6810 -1.3789 0.9654
-0.3894 8.6874 -1.3773 0.9654
-1.4538 8.6940 -1.3961 0.9649
-2.5641 8.7008 -1.4367 0.9639
-3.6997 8.5714 -1.4786 0.9629
-4.9509 8.4815 -1.5555 0.9610
-8.4747 8.7371 -1.9279 0.9519
-13.4344 6.2912 -2.3496 0.9417
-14.0951 4.6251 -2.3496 0.9417
-15.4571 3.0717 -2.4960 0.9382
-15.7507 1.1879 -2.5018 0.9380
-15.7790 -0.7203 -2.5018 0.9380
-15.5770 -2.6180 -2.5018 0.9380
-15.1476 -4.4775 -2.5018 0.9380
-13.6349 -7.9741 -2.5018 0.9380
-11.3289 -11.0069 -2.5018 0.9380
-9.9188 -12.2928 -2.5018 0.9380
-8.3639 -13.3993 -2.5018 0.9380
-6.6794 -14.2942 -2.4990 0.9381
2.6308 -15.5748 -2.5018 0.9380
9.5706 -12.5658 -2.5018 0.9380
12.3010 -9.9087 -2.5018 0.9380
14.3157 -6.6751 -2.5018 0.9380
15.7527 -1.1619 -2.5018 0.9380
15.5726 2.6437 -2.5018 0.9380
7.5544 2.2466 -1.2483 0.9686
11.2741 8.6015 -2.2460 0.9442
10.6227 10.3548 -2.3496 0.9417
6.9498 8.6423 -1.7565 0.9561
2.7527 8.4596 -1.4090 0.9646
0.6331 8.6811 -1.3786 0.9654
-0.4181 8.6876 -1.3776 0.9654
-15.4719 3.0217 -2.4968 0.9382
-15.7766 -0.7724 -2.5018 0.9380
-15.5683 -2.6694 -2.5018 0.9380
-15.1327 -4.5274 -2.5018 0.9380
-14.4763 -6.3194 -2.5018 0.9380
9.6340 7.3001 -2.3496 0.9519
8.6833 8.4087 -2.3496 0.9519
6.9966 8.6420 -2.1614 0.9557
5.4203 8.6517 -1.9845 0.9593
2.7593 8.3858 -1.7160 0.9647
1.6411 8.2225 -1.6298 0.9664
-0.3894 8.6874 -1.6904 0.9652
-1.4538 8.6940 -1.7134 0.9647
-2.5641 8.7008 -1.7632 0.9637
-4.9049 8.4027 -1.8912 0.9611
-10.2485 6.4089 -2.3496 0.9519
-10.9466 5.1262 -2.3496 0.9519
-11.8910 3.9019 -2.4326 0.9503
-12.6236 2.5087 -2.5018 0.9489
-12.8570 -0.5869 -2.5018 0.9489
-12.3425 -3.6483 -2.5018 0.9489
-11.8124 -5.1102 -2.5018 0.9489
-10.2453 -7.7899 -2.5018 0.9489
-8.0820 -10.0164 -2.5018 0.9489
-0.9573 -12.8348 -2.5018 0.9489
0.5975 -12.8565 -2.5018 0.9489
2.1436 -12.6906 -2.5018 0.9489
3.6585 -12.3395 -2.5018 0.9489
5.1199 -11.8082 -2.5018 0.9489
6.5066 -11.1046 -2.5018 0.9489
7.7983 -10.2388 -2.5018 0.9489
8.9762 -9.2236 -2.5018 0.9489
10.9236 -6.8061 -2.5018 0.9489
11.6647 -5.4390 -2.5018 0.9489
12.2355 -3.9926 -2.5018 0.9489
12.6277 -2.4878 -2.5018 0.9489
12.8355 -0.9468 -2.5018 0.9489
12.8560 0.6081 -2.5018 0.9489
6.4844 2.8179 -1.3743 0.9716
10.4240 6.1194 -2.3496 0.9519
5.3808 8.6520 -1.9805 0.9593
3.9448 8.4784 -1.8177 0.9626
1.6116 8.2161 -1.6275 0.9665
-2.5953 8.7010 -1.7649 0.9637
-3.7308 8.5656 -1.8161 0.9626
-6.1723 8.0763 -1.9758 0.9594
-9.4258 7.5670 -2.3496 0.9519
-12.6318 2.4670 -2.5018 0.9489
-12.3304 -3.6890 -2.5018 0.9489
8.7934 5.1232 -2.3496 0.9591
8.1114 6.1463 -2.3496 0.9591
6.4038 7.9097 -2.3496 0.9591
0.6619 8.6810 -2.0100 0.9649
-0.3894 8.6874 -2.0077 0.9649
-1.4538 8.6940 -2.0350 0.9645
-7.0857 7.3051 -2.3496 0.9591
-8.6288 5.3960 -2.3496 0.9591
-10.2962 3.3785 -2.5018 0.9565
-10.6285 2.1122 -2.5018 0.9565
-10.8056 0.8150 -2.5018 0.9565
-10.6864 -1.7960 -2.5018 0.9565
-10.3918 -3.0717 -2.5018 0.9565
-9.9455 -4.3025 -2.5018 0.9565
-8.6260 -6.5587 -2.5018 0.9565
-7.7721 -7.5512 -2.5018 0.9565
-5.7380 -9.1925 -2.5018 0.9565
-4.5875 -9.8174 -2.5018 0.9565
-2.1034 -10.6302 -2.5018 0.9565
-0.8060 -10.8063 -2.5018 0.9565
0.5031 -10.8246 -2.5018 0.9565
3.0803 -10.3893 -2.5018 0.9565
6.5658 -8.6206 -2.5018 0.9565
9.1972 -5.7304 -2.5018 0.9565
9.8211 -4.5794 -2.5018 0.9565
10.6319 -2.0946 -2.5018 0.9565
10.8242 0.5120 -2.5018 0.9565
10.6834 1.8137 -2.5018 0.9565
6.3787 2.7720 -1.6057 0.9719
0.6331 8.6811 -2.0095 0.9649
-0.4181 8.6876 -2.0080 0.9649
-1.4833 8.6941 -2.0362 0.9644
-3.7308 8.5656 -2.1570 0.9624
-6.1797 8.0860 -2.3496 0.9591
-10.6354 2.0771 -2.5018 0.9565
-9.9313 -4.3353 -2.5018 0.9565
7.8289 4.5613 -2.4278 0.9632
6.9889 5.2958 -2.3496 0.9643
5.5176 6.8151 -2.3496 0.9643
1.7162 8.5991 -2.3496 0.9643
0.6667 8.7433 -2.3496 0.9643
-0.3926 8.7599 -2.3496 0.9643
-4.4205 7.5729 -2.3496 0.9643
-6.1052 6.2942 -2.3496 0.9643
-8.4507 3.9573 -2.5003 0.9621
-8.8713 2.9110 -2.5018 0.9621
-9.1576 1.8199 -2.5018 0.9621
-9.3270 -0.4258 -2.5018 0.9621
-9.2076 -1.5475 -2.5018 0.9621
-8.0596 -4.7135 -2.5018 0.9621
-5.8630 -7.2663 -2.5018 0.9621
-3.9526 -8.4587 -2.5018 0.9621
-2.9037 -8.8737 -2.5018 0.9621
-1.8123 -9.1591 -2.5018 0.9621
-0.6945 -9.3108 -2.5018 0.9621
0.4335 -9.3266 -2.5018 0.9621
3.7142 -8.5661 -2.5018 0.9621
4.7201 -8.0557 -2.5018 0.9621
6.5117 -6.6912 -2.5018 0.9621
7.9244 -4.9374 -2.5018 0.9621
8.8761 -2.8963 -2.5018 0.9621
9.1606 -1.8048 -2.5018 0.9621
9.3263 0.4411 -2.5018 0.9621
9.2050 1.5627 -2.5018 0.9621
6.8392 2.0339 -1.9119 0.9709
6.9714 5.3188 -2.3496 0.9643
6.2790 6.1207 -2.3496 0.9643
5.4951 6.8333 -2.3496 0.9643
3.6991 7.9503 -2.3496 0.9643
2.7133 8.3383 -2.3496 0.9643
-0.4215 8.7585 -2.3496 0.9643
-3.5015 8.0392 -2.3496 0.9643
-4.4455 7.5583 -2.3496 0.9643
-5.3245 6.9670 -2.3496 0.9643
-6.8378 5.4894 -2.3496 0.9643
-8.8808 2.8817 -2.5018 0.9621
-9.1636 1.7896 -2.5018 0.9621
-9.2024 -1.5779 -2.5018 0.9621
