ply
format ascii 1.0
element vertex 521
property float32 x
property float32 y
property float32 z
property float32 I
end_header
-58.7149 -16.1876 16.3196 0.7771
-52.7595 -29.4962 16.1962 0.7786
-20.6510 -31.5551 10.1049 0.8554
-12.5443 -25.3758 7.5849 0.8894
-4.0625 -41.3360 11.1293 0.8420
45.5939 -82.6824 25.2998 0.6764
50.7034 20.1180 14.6163 0.7978
36.3637 19.7763 11.0913 0.8425
32.0714 47.7793 15.4191 0.7880
32.1662 63.2014 19.0019 0.7455
-11.3566 29.1165 8.3742 0.8786
-13.8157 25.7608 7.8326 0.8860
-16.1543 22.9832 7.5274 0.8902
-26.0693 22.7440 9.2700 0.8665
-23.8926 2.7713 6.4449 0.9052
-59.6879 -14.9661 16.4884 0.7751
-52.7248 -27.8818 15.9813 0.7811
-28.1198 -40.8537 13.2892 0.8143
-13.4384 -25.6589 7.7611 0.8870
-11.3817 -30.0492 8.6099 0.8754
-7.0763 -28.7062 7.9221 0.8848
-21.7080 23.0060 7.3026 0.8782
-60.5560 -16.6953 14.5021 0.7727
-57.5906 -42.0043 16.4566 0.7463
-9.9592 -28.2686 6.9195 0.8842
-4.6740 -47.5578 11.0325 0.8219
23.3738 -42.3874 11.1751 0.8198
30.4254 -42.2306 12.0165 0.8076
57.3205 -28.7533 14.8051 0.7685
50.7035 20.1180 12.5936 0.7994
36.2365 19.7071 9.5230 0.8442
32.0058 37.1204 11.3156 0.8177
32.1663 63.2016 16.3723 0.7474
-11.3566 29.1165 7.2153 0.8796
-13.8157 25.7608 6.7488 0.8869
-16.1543 22.9832 6.4857 0.8911
-20.9002 23.2122 7.2112 0.8797
-59.5438 -14.9300 14.1723 0.7772
-16.5578 -31.6152 8.2394 0.8637
-11.8741 -31.3491 7.7393 0.8714
-2.9607 -12.0106 2.8559 0.9505
-64.3184 53.5222 16.2647 0.7111
-59.2102 -16.3242 11.9387 0.7786
-10.8798 -30.8815 6.3644 0.8751
-2.9994 -13.5177 2.6915 0.9451
30.4687 -42.2907 10.1317 0.8086
22.8358 -15.1358 5.3253 0.8944
50.7035 20.1180 10.6032 0.8007
36.2365 19.7071 8.0179 0.8453
32.4193 23.0706 7.7344 0.8503
32.5082 29.6157 8.5480 0.8359
33.0807 49.2829 11.5376 0.7852
3.1671 8.6656 1.7934 0.9631
-0.0933 8.6856 1.6884 0.9652
-3.3956 8.7059 1.8164 0.9626
-4.6702 8.7079 1.9207 0.9605
-16.1543 22.9832 5.4606 0.8918
-23.9242 2.7749 4.6816 0.9065
-23.1414 -33.6208 7.9337 0.8468
-11.7695 -31.0731 6.4587 0.8734
-8.2325 8.7248 1.8999 0.9526
-64.3184 53.5222 13.2527 0.7126
-54.4249 18.8180 9.1208 0.7920
-80.8091 -12.1003 12.9416 0.7183
-81.9962 -33.6472 14.0378 0.6984
-28.2846 -33.5893 6.9550 0.8371
-12.5057 -25.2979 4.4696 0.8920
-10.8786 -30.8783 5.1853 0.8758
-4.6822 -47.6418 7.5821 0.8238
39.4144 -42.7601 9.2107 0.7902
49.8978 -42.5176 10.3830 0.7668
57.2271 -28.7064 10.1404 0.7716
68.6443 -24.6351 11.5511 0.7443
50.3751 19.9877 8.5837 0.8029
36.2365 19.7071 6.5331 0.8462
32.4193 23.0706 6.3022 0.8512
5.8058 8.6494 1.6499 0.9587
4.4064 8.6579 1.5387 0.9614
2.0308 8.6725 1.4108 0.9646
-6.1310 8.7227 1.6887 0.9577
-7.8635 8.7333 1.8613 0.9535
-23.9297 2.7756 3.8155 0.9070
-82.3275 -10.3694 13.1424 0.7146
-64.3403 -16.1326 10.5060 0.7644
-60.6570 -42.1076 11.6951 0.7415
-16.5578 -31.6152 5.6525 0.8654
-11.9835 -31.6380 5.3584 0.8720
-4.2758 -35.0746 5.5964 0.8667
-64.3184 53.5222 10.2741 0.7138
-82.5854 7.6302 10.1834 0.7159
-83.8149 -12.5504 10.4059 0.7107
-82.8743 -34.0075 10.9991 0.6970
-20.6510 -31.5551 4.6304 0.8590
-12.5066 -25.2995 3.4652 0.8925
-7.4760 -33.6935 4.2377 0.8702
24.3468 -90.3641 11.4910 0.6858
20.1411 -49.9100 6.6083 0.8050
57.1233 -37.8619 8.4146 0.7587
57.2272 -28.7064 7.8611 0.7726
64.1853 -6.6865 7.9236 0.7710
59.4574 8.1948 7.3695 0.7851
57.8671 15.2295 7.3471 0.7857
50.7034 20.1180 6.6977 0.8027
36.2365 19.7071 5.0647 0.8468
12.0999 8.6107 1.8235 0.9419
5.8058 8.6494 1.2791 0.9589
4.4065 8.6579 1.1928 0.9616
0.9554 8.6792 1.0721 0.9654
-2.2352 8.6988 1.1028 0.9645
-4.6733 8.7137 1.2141 0.9609
-10.0255 8.7466 1.6336 0.9478
-12.8702 8.7484 1.9108 0.9392
-27.8481 -31.5462 5.1667 0.8440
-22.9393 -33.3272 4.9677 0.8495
-17.6208 -33.6446 4.6633 0.8581
-12.7498 -33.6612 4.4196 0.8650
-8.3045 -33.6885 4.2602 0.8695
-8.2428 8.7357 1.0508 0.9529
-13.5705 8.7684 1.4135 0.9372
-18.0580 8.7960 1.7573 0.9225
-82.6395 7.6352 7.2608 0.7166
-61.4750 -16.9486 5.5790 0.7741
-20.6510 -31.5551 3.2994 0.8595
-12.5015 -25.2893 2.4681 0.8929
-9.9458 -28.2304 2.6186 0.8868
-4.6822 -47.6419 4.1882 0.8251
23.2652 -86.3498 7.8240 0.6983
21.9912 -39.8800 3.9844 0.8329
30.0173 -41.6642 4.4926 0.8137
49.5901 -42.2554 5.7000 0.7698
56.3816 -20.2343 5.2408 0.7862
61.6149 -14.0491 5.5290 0.7759
61.6618 -6.4236 5.4239 0.7796
48.2218 19.1333 4.5388 0.8120
36.4183 19.8060 3.6269 0.8467
12.0999 8.6107 1.2993 0.9421
9.4694 8.6268 1.1207 0.9499
5.8058 8.6494 0.9114 0.9590
4.4064 8.6579 0.8499 0.9617
3.1671 8.6656 0.8072 0.9636
0.9554 8.6792 0.7639 0.9655
-2.2352 8.6988 0.7858 0.9646
-3.3956 8.7059 0.8176 0.9632
-10.0255 8.7466 1.1640 0.9480
-17.0238 8.7897 1.6762 0.9260
-23.1414 -33.6209 3.5709 0.8488
-17.6207 -33.6446 3.3228 0.8586
-7.8053 -31.6636 2.8531 0.8773
-4.2388 -34.7712 3.0646 0.8688
-59.8121 49.7724 4.0780 0.7322
-13.5705 8.7684 0.8467 0.9373
-18.0580 8.7960 1.0527 0.9227
-25.5732 8.8422 1.4181 0.8973
-61.2924 -16.8983 3.3320 0.7752
-57.6610 -42.0556 3.7401 0.7514
-26.5707 -31.5540 2.1619 0.8477
-19.9984 -30.5579 1.9139 0.8639
-4.3308 -44.0660 2.3205 0.8375
23.2899 -86.4415 4.6918 0.6987
38.8887 -42.1898 3.0071 0.7947
31.8058 -27.1015 2.1899 0.8459
57.5715 -38.1589 3.6198 0.7583
50.9864 -18.2980 2.8389 0.8049
66.7039 -15.2095 3.5855 0.7603
66.6489 -6.9431 3.5118 0.7646
66.5958 1.1043 3.4906 0.7658
57.4272 7.9150 3.0381 0.7928
57.9473 15.2506 3.1403 0.7866
3.1660 8.6625 0.4834 0.9637
0.9545 8.6710 0.4572 0.9657
-0.0933 8.6797 0.4549 0.9658
-1.1450 8.6821 0.4589 0.9655
-2.2309 8.6821 0.4698 0.9647
-7.8635 8.7333 0.6159 0.9540
-12.8936 8.7643 0.8171 0.9395
-17.0238 8.7897 1.0041 0.9261
-23.7319 8.8309 1.3270 0.9035
-23.9458 2.7774 1.2633 0.9080
-27.8482 -31.5462 2.2053 0.8449
-12.6952 -33.5171 1.8783 0.8663
-8.2302 -33.3872 1.8021 0.8713
-4.4755 -36.7127 1.9383 0.8623
-61.6906 51.3355 1.4009 0.7254
-18.0251 8.7800 0.3500 0.9229
-25.5293 8.8270 0.4715 0.8976
-82.6719 7.6382 1.4492 0.7174
-24.0574 -22.4362 0.5742 0.8767
-20.6510 -31.5551 0.6583 0.8600
-12.4915 -25.2691 0.4920 0.8934
-3.9097 -39.7816 0.6977 0.8522
33.8208 -83.8088 1.5775 0.6966
27.6371 -50.1186 0.9990 0.7954
31.7606 -34.4566 0.8180 0.8291
36.6846 -24.3149 0.7682 0.8386
48.6187 -24.3882 0.9494 0.8044
87.6667 -19.9893 1.5695 0.6979
9.4694 8.6268 0.2236 0.9500
7.4489 8.6392 0.1991 0.9554
5.8058 8.6494 0.1818 0.9592
4.3963 8.6381 0.1692 0.9620
3.1564 8.6362 0.1605 0.9639
0.9554 8.6792 0.1524 0.9657
-0.0933 8.6856 0.1516 0.9658
-4.6598 8.6887 0.1721 0.9613
-6.1041 8.6846 0.1853 0.9584
-7.8635 8.7333 0.2051 0.9541
-10.0255 8.7466 0.2322 0.9482
-12.8936 8.7643 0.2721 0.9395
-23.7319 8.8309 0.4420 0.9037
-58.1821 -14.5885 1.0470 0.7867
-23.0416 -33.4758 0.7094 0.8499
-7.6948 -31.2153 0.5612 0.8793
-4.9340 -40.4736 0.7117 0.8495
-8.2428 8.7357 -0.2096 0.9531
-17.8301 8.6850 -0.3462 0.9237
-57.0827 12.3167 -1.0193 0.7917
-57.1259 5.2779 -1.0014 0.7949
-89.7553 -2.5365 -1.5673 0.6982
-59.9370 -16.5246 -1.0852 0.7798
-61.4580 -34.3593 -1.2290 0.7545
-24.0524 -22.4316 -0.5741 0.8767
-7.0595 -20.0379 -0.3708 0.9185
-4.7197 -21.2713 -0.3803 0.9165
27.6371 -50.1186 -0.9990 0.7954
27.9984 -38.8620 -0.8361 0.8256
57.9939 -13.2235 -1.0383 0.7882
57.9473 15.2506 -1.0459 0.7868
36.2365 19.7071 -0.7200 0.8479
12.7084 9.0437 -0.2723 0.9395
2.0112 8.5890 -0.1540 0.9653
0.9554 8.6792 -0.1524 0.9657
-4.6478 8.6663 -0.1717 0.9614
-10.0255 8.7466 -0.2322 0.9482
-12.8936 8.7643 -0.2721 0.9395
-75.6529 -29.0001 -1.4142 0.7232
-65.4410 -34.6064 -1.2922 0.7437
-63.7824 -44.2772 -1.3553 0.7330
-61.0692 -54.3447 -1.4270 0.7211
-10.1565 -19.3928 -0.3821 0.9161
-17.6924 8.6180 -1.0314 0.9242
-45.0476 -1.2731 -2.3618 0.8348
-43.2200 -11.9157 -2.3496 0.8356
-41.6671 -23.2948 -2.5018 0.8260
-38.5680 -28.1300 -2.5018 0.8260
-24.0012 -22.3837 -1.7200 0.8768
-17.9016 -21.2590 -1.4565 0.8947
-12.9534 -19.7931 -1.2397 0.9096
-9.4283 -19.0727 -1.1150 0.9183
-4.6510 -20.9616 -1.1253 0.9176
-2.1774 -22.1548 -1.1667 0.9147
12.4188 -46.0930 -2.5018 0.8260
17.8643 -44.2681 -2.5018 0.8260
36.5249 -24.2090 -2.2965 0.8390
40.0734 -20.1017 -2.3496 0.8356
46.5421 -10.6123 -2.5018 0.8260
47.7301 0.7915 -2.5018 0.8260
43.4035 11.4229 -2.3521 0.8355
21.5987 8.5699 -1.2178 0.9111
26.9365 14.6494 -1.6069 0.8844
12.7084 9.0437 -0.8174 0.9394
7.4489 8.6392 -0.5978 0.9553
4.3847 8.6152 -0.5066 0.9620
2.0016 8.5478 -0.4601 0.9654
0.9554 8.6792 -0.4576 0.9656
-2.2352 8.6988 -0.4707 0.9647
-4.6358 8.6440 -0.5140 0.9615
-6.0342 8.5851 -0.5499 0.9588
-10.0255 8.7466 -0.6973 0.9481
-30.0892 7.2313 -1.6218 0.8834
-45.0955 -0.2214 -2.3634 0.8347
-43.4864 -10.9037 -2.3496 0.8356
-39.2141 -27.2221 -2.5018 0.8260
-35.6612 -31.7344 -2.5018 0.8260
-13.6449 -19.8241 -1.2612 0.9081
-10.0468 -19.1832 -1.1349 0.9169
-5.0847 -20.6269 -1.1134 0.9184
-13.5705 8.7684 -1.4135 0.9372
-24.6461 8.5216 -2.2815 0.9006
-23.0776 2.1322 -2.0276 0.9111
-27.5669 -7.6002 -2.5018 0.8915
-23.1031 -16.8505 -2.5018 0.8915
-20.7712 -19.3715 -2.4849 0.8922
-4.5783 -20.6337 -1.8491 0.9186
-2.1542 -21.9193 -1.9269 0.9154
0.6020 -26.8490 -2.3496 0.8978
10.7011 -26.5176 -2.5018 0.8915
13.8082 -25.0406 -2.5018 0.8915
16.7154 -23.2011 -2.5018 0.8915
21.7654 -18.5462 -2.5018 0.8915
25.5599 -12.8214 -2.5018 0.8915
26.9146 -9.6591 -2.5018 0.8915
28.5914 0.4741 -2.5018 0.8915
28.3276 3.9043 -2.5018 0.8915
12.7084 9.0437 -1.3646 0.9393
7.4489 8.6392 -0.9980 0.9552
4.3847 8.6152 -0.8457 0.9619
3.1325 8.5710 -0.7984 0.9640
1.9949 8.5192 -0.7655 0.9655
0.9554 8.6792 -0.7639 0.9655
-6.0110 8.5520 -0.9145 0.9589
-7.8635 8.7333 -1.0282 0.9539
-10.0255 8.7466 -1.1640 0.9480
-12.8936 8.7643 -1.3640 0.9393
-16.5230 8.5311 -1.6269 0.9281
-26.1196 6.2772 -2.3502 0.8977
-26.8554 -0.1319 -2.3496 0.8978
-28.3712 -3.5734 -2.5018 0.8915
-27.7368 -6.9547 -2.5018 0.8915
-26.7008 -10.2353 -2.5018 0.8915
-23.4902 -16.3067 -2.5018 0.8915
-17.7731 -20.1332 -2.3496 0.8978
-13.4456 -19.5345 -2.0748 0.9092
-5.0276 -20.3954 -1.8378 0.9191
-14.7699 12.2907 -2.3593 0.9255
-13.5705 8.7684 -1.9838 0.9370
-17.2034 8.3797 -2.3496 0.9258
-18.7053 4.0360 -2.3496 0.9258
-19.9025 1.8388 -2.4541 0.9226
-20.1507 -3.0174 -2.5018 0.9212
-19.6425 -5.4154 -2.5018 0.9212
-16.4619 -12.0067 -2.5018 0.9212
-14.9008 -13.8967 -2.5018 0.9212
-13.1071 -15.5653 -2.4985 0.9213
-7.4228 -15.0155 -2.0566 0.9347
-1.8716 -19.0440 -2.3496 0.9258
7.6250 -18.8948 -2.5018 0.9212
11.9104 -16.5317 -2.5018 0.9212
15.5087 -13.2149 -2.5018 0.9212
16.9835 -11.2568 -2.5018 0.9212
18.2124 -9.1357 -2.5018 0.9212
19.1777 -6.8825 -2.5018 0.9212
20.2656 -2.1112 -2.5018 0.9212
20.1845 2.7820 -2.5018 0.9212
7.8210 3.1032 -1.0331 0.9667
16.8105 9.1423 -2.3496 0.9258
12.7084 9.0437 -1.9152 0.9391
9.4694 8.6268 -1.5728 0.9497
7.4489 8.6392 -1.4006 0.9551
1.9875 8.4878 -1.0704 0.9655
0.9554 8.6792 -1.0721 0.9654
-4.5960 8.5697 -1.1940 0.9616
-5.9633 8.4841 -1.2733 0.9591
-10.0255 8.7466 -1.6336 0.9478
-12.8936 8.7643 -1.9142 0.9391
-17.0031 8.7790 -2.3496 0.9258
-20.3751 -0.1000 -2.5018 0.9212
-20.2156 -2.5462 -2.5018 0.9212
-18.0119 -9.5250 -2.5018 0.9212
-13.4844 -15.2750 -2.5018 0.9212
-8.8781 -16.9516 -2.3496 0.9258
-4.5800 -18.5796 -2.3496 0.9258
-8.2428 8.7357 -1.9023 0.9525
-11.4029 9.4889 -2.3496 0.9417
-12.4599 8.0508 -2.3496 0.9417
-13.3366 6.4962 -2.3496 0.9417
-14.0202 4.8476 -2.3496 0.9417
-14.6131 -5.9965 -2.5018 0.9380
-13.7872 -7.7080 -2.5018 0.9380
-12.7617 -9.3079 -2.5018 0.9380
-10.1742 -12.0824 -2.5018 0.9380
-8.6496 -13.2168 -2.5018 0.9380
-6.9981 -14.1564 -2.5012 0.9380
-5.1824 -14.7099 -2.4702 0.9388
0.3541 -15.7916 -2.5018 0.9380
2.2479 -15.6348 -2.5018 0.9380
4.1093 -15.2517 -2.5018 0.9380
5.9111 -14.6478 -2.5018 0.9380
10.7055 -11.6143 -2.5018 0.9380
12.0228 -10.2446 -2.5018 0.9380
13.1661 -8.7266 -2.5018 0.9380
14.1188 -7.0823 -2.5018 0.9380
14.8671 -5.3355 -2.5018 0.9380
15.7105 -1.6367 -2.5018 0.9380
15.7934 0.2619 -2.5018 0.9380
15.6476 2.1567 -2.5018 0.9380
8.2309 2.1662 -1.3480 0.9661
9.4694 8.6268 -2.0289 0.9494
5.8058 8.6494 -1.6499 0.9587
3.0904 8.4557 -1.4259 0.9642
1.9650 8.3916 -1.3650 0.9657
-1.1464 8.6921 -1.3886 0.9651
-3.3465 8.5800 -1.4587 0.9634
-4.5541 8.4916 -1.5262 0.9617
-5.8412 8.3104 -1.6088 0.9597
-7.8635 8.7333 -1.8613 0.9535
-13.9032 5.1735 -2.3496 0.9417
-14.4239 3.4665 -2.3496 0.9417
-15.6904 1.8199 -2.5018 0.9380
-15.7954 -0.0776 -2.5018 0.9380
-15.6718 -1.9739 -2.5018 0.9380
-11.7999 -10.5006 -2.5018 0.9380
-10.4535 -11.8416 -2.5018 0.9380
-8.9557 -13.0113 -2.5018 0.9380
-5.5501 -14.6531 -2.4817 0.9385
-8.2955 8.7916 -2.3496 0.9519
-9.2913 7.7317 -2.3496 0.9519
-11.4239 3.9499 -2.3496 0.9519
-12.8159 1.1841 -2.5018 0.9489
-12.8654 -0.3636 -2.5018 0.9489
-12.4076 -3.4208 -2.5018 0.9489
-11.9070 -4.8860 -2.5018 0.9489
-9.4124 -8.7781 -2.5018 0.9489
-7.0479 -10.7693 -2.5018 0.9489
-5.7036 -11.5377 -2.5018 0.9489
-4.2767 -12.1392 -2.5018 0.9489
0.2885 -12.8673 -2.5018 0.9489
1.8317 -12.7395 -2.5018 0.9489
3.3483 -12.4273 -2.5018 0.9489
4.8165 -11.9353 -2.5018 0.9489
6.2149 -11.2705 -2.5018 0.9489
7.5234 -10.4426 -2.5018 0.9489
10.7280 -7.1106 -2.5018 0.9489
12.1140 -4.3475 -2.5018 0.9489
12.5484 -2.8612 -2.5018 0.9489
12.7500 1.7573 -2.5018 0.9489
7.8159 2.0570 -1.5710 0.9676
6.3183 3.4362 -1.3980 0.9711
7.4489 8.6392 -2.2173 0.9546
5.8058 8.6494 -2.0249 0.9584
4.3217 8.4914 -1.8520 0.9619
3.0627 8.3799 -1.7343 0.9643
1.9227 8.2108 -1.6392 0.9662
0.9554 8.6792 -1.6972 0.9650
-2.2352 8.6988 -1.7458 0.9641
-3.3465 8.5800 -1.7902 0.9632
-4.5125 8.4141 -1.8559 0.9618
-9.1083 7.9465 -2.3496 0.9519
-10.7404 5.5454 -2.3496 0.9519
-12.8703 -0.0632 -2.5018 0.9489
-12.7696 -1.6084 -2.5018 0.9489
-12.4840 -3.1302 -2.5018 0.9489
-12.0178 -4.6068 -2.5018 0.9489
-11.3776 -6.0167 -2.5018 0.9489
-8.5177 -9.6488 -2.5018 0.9489
-7.2973 -10.6018 -2.5018 0.9489
-4.5589 -12.0361 -2.5018 0.9489
-1.5575 -12.7759 -2.5018 0.9489
-7.8229 6.5097 -2.3496 0.9591
-8.5480 5.5232 -2.3496 0.9591
-10.4466 -2.8801 -2.5018 0.9565
-9.4586 -5.2880 -2.5018 0.9565
-8.7551 -6.3856 -2.5018 0.9565
-7.9248 -7.3908 -2.5018 0.9565
-6.9799 -8.2890 -2.5018 0.9565
-5.9340 -9.0672 -2.5018 0.9565
-4.8021 -9.7142 -2.5018 0.9565
-3.6008 -10.2206 -2.5018 0.9565
-2.3473 -10.5791 -2.5018 0.9565
-1.0599 -10.7844 -2.5018 0.9565
0.2429 -10.8337 -2.5018 0.9565
1.5422 -10.7261 -2.5018 0.9565
2.8191 -10.4633 -2.5018 0.9565
4.0552 -10.0490 -2.5018 0.9565
6.3344 -8.7922 -2.5018 0.9565
7.3444 -7.9679 -2.5018 0.9565
8.2481 -7.0282 -2.5018 0.9565
9.0324 -5.9868 -2.5018 0.9565
9.6860 -4.8587 -2.5018 0.9565
10.1994 -3.6604 -2.5018 0.9565
10.5652 -2.4090 -2.5018 0.9565
10.7349 1.4795 -2.5018 0.9565
7.6333 2.0089 -1.8223 0.9681
7.5232 6.8538 -2.3496 0.9591
6.6457 7.7077 -2.3496 0.9591
3.0198 8.2626 -2.0310 0.9645
1.8816 8.0354 -1.9053 0.9667
-1.1464 8.6921 -2.0241 0.9646
-2.2352 8.6988 -2.0735 0.9638
-4.8100 8.9687 -2.3496 0.9591
-6.8098 7.5631 -2.3496 0.9591
-7.6688 6.6906 -2.3496 0.9591
-8.4167 5.7212 -2.3496 0.9591
-10.1473 3.7759 -2.4996 0.9565
-10.5364 2.5322 -2.5018 0.9565
-10.8362 -0.0532 -2.5018 0.9565
-10.5110 -2.6355 -2.5018 0.9565
-9.5794 -5.0658 -2.5018 0.9565
-8.9017 -6.1795 -2.5018 0.9565
-8.0952 -7.2038 -2.5018 0.9565
-7.1715 -8.1238 -2.5018 0.9565
-6.1440 -8.9263 -2.5018 0.9565
-2.5936 -10.5214 -2.5018 0.9565
-1.3113 -10.7567 -2.5018 0.9565
-8.3808 4.0822 -2.4979 0.9621
-8.8242 3.0510 -2.5018 0.9621
-9.3330 -0.2638 -2.5018 0.9621
-9.2338 -1.3827 -2.5018 0.9621
-8.6378 -3.5445 -2.5018 0.9621
-8.1496 -4.5562 -2.5018 0.9621
-6.0140 -7.1419 -2.5018 0.9621
-0.9132 -9.2920 -2.5018 0.9621
0.2093 -9.3344 -2.5018 0.9621
2.4290 -9.0153 -2.5018 0.9621
3.4940 -8.6583 -2.5018 0.9621
4.5085 -8.1761 -2.5018 0.9621
5.4578 -7.5754 -2.5018 0.9621
8.3456 -4.1864 -2.5018 0.9621
7.6069 2.0020 -2.1077 0.9680
6.1622 2.4450 -1.7764 0.9729
7.1444 5.0841 -2.3496 0.9643
6.4821 5.9053 -2.3496 0.9643
5.7260 6.6410 -2.3496 0.9643
4.8870 7.2806 -2.3496 0.9643
0.9594 8.7161 -2.3496 0.9643
-1.1465 8.6934 -2.3496 0.9643
-2.1822 8.4929 -2.3496 0.9643
-4.1444 7.7275 -2.3496 0.9643
-5.0424 7.1739 -2.3496 0.9643
-5.8674 6.5164 -2.3496 0.9643
-6.6075 5.7647 -2.3496 0.9643
-8.2731 4.2716 -2.4948 0.9622
-9.0783 2.1817 -2.5018 0.9621
-9.2746 1.0758 -2.5018 0.9621
-9.2636 -1.1668 -2.5018 0.9621
-9.0564 -2.2708 -2.5018 0.9621
-8.7182 -3.3420 -2.5018 0.9621
-8.2537 -4.3647 -2.5018 0.9621
-5.2937 -7.6910 -2.5018 0.9621
-4.3318 -8.2711 -2.5018 0.9621
-2.2347 -9.0654 -2.5018 0.9621
-1.1298 -9.2681 -2.5018 0.9621
