ply
format ascii 1.0
element vertex 683
property float32 x
property float32 y
property float32 z
property float32 I
end_header
36.1683 19.7971 11.0480 0.8430
33.6361 30.8301 12.2259 0.8278
32.6812 38.1490 13.4600 0.8122
33.3532 66.1066 19.8400 0.7359
-10.6170 40.5658 11.2357 0.8406
-10.9328 27.6509 7.9671 0.8841
-16.1116 22.6827 7.4550 0.8912
-59.3034 -15.2837 16.4095 0.7760
-51.9899 -27.9526 15.8165 0.7831
-4.5993 -40.4756 10.9152 0.8448
37.3097 19.7005 11.3052 0.8397
32.7392 47.5670 15.4727 0.7873
-10.6012 43.1367 11.9024 0.8320
-15.6029 22.6795 7.3762 0.8923
-20.4862 23.2096 8.2950 0.8797
-25.5597 22.7408 9.1670 0.8679
-23.2051 2.9016 6.2662 0.9077
-39.8804 -9.6426 10.9938 0.8437
28.1021 -50.8870 13.4206 0.7877
57.9795 -28.9806 14.9646 0.7664
33.0922 23.6927 9.3962 0.8461
33.6362 30.8302 10.5340 0.8292
32.6812 38.1490 11.5973 0.8137
-10.6170 40.5658 9.6808 0.8419
-10.9328 27.6509 6.8646 0.8851
-13.7343 25.3168 6.6495 0.8885
-62.0289 53.5431 18.9177 0.7143
-58.9213 -15.1853 14.0475 0.7790
-16.2506 -31.6171 8.2071 0.8642
-11.6473 -31.4939 7.7522 0.8712
-8.0073 -33.6393 7.9832 0.8677
-4.5993 -40.4756 9.4047 0.8460
29.5098 -42.2124 11.8908 0.8094
57.9309 -30.0506 15.0667 0.7650
52.5748 20.1065 12.9952 0.7937
32.6250 29.0150 10.0799 0.8359
32.6741 37.0027 11.3966 0.8166
32.8324 62.7171 16.3434 0.7478
-20.4862 23.2096 7.1471 0.8807
-23.2246 2.9040 5.4036 0.9084
35.3343 -87.4428 18.3324 0.6809
48.0350 -52.0140 13.7624 0.7494
52.5170 -44.6496 13.3990 0.7551
47.8711 19.1355 10.0211 0.8105
33.6362 30.8302 8.8691 0.8303
33.7582 50.6581 11.8331 0.7803
0.9204 8.6794 1.6966 0.9651
-0.1294 8.6858 1.6885 0.9652
-1.1845 8.6923 1.7052 0.9649
-2.2767 8.6990 1.7479 0.9640
-3.4423 8.7062 1.8198 0.9626
-21.0246 23.1115 6.0732 0.8805
-23.4759 2.5785 4.5908 0.9082
-56.5669 -39.8614 13.4513 0.7543
-22.7722 -33.6231 7.8936 0.8475
-17.2938 -33.6466 7.3536 0.8571
-12.3962 -33.5190 6.9467 0.8645
-8.0195 -33.6902 6.7317 0.8684
-4.5993 -40.4756 7.9183 0.8471
33.8171 -87.4414 18.2237 0.6825
29.3921 -42.0441 9.9715 0.8114
48.0253 -53.5944 13.9883 0.7458
50.6993 -44.4313 13.1038 0.7598
72.9967 -49.8393 17.1809 0.6976
37.3098 19.7005 8.2012 0.8420
33.0876 22.9467 7.8269 0.8487
33.0526 29.3953 8.5980 0.8351
32.6741 37.0027 9.5954 0.8178
4.5278 8.6490 1.8976 0.9610
1.0521 8.6786 1.6993 0.9650
-1.0519 8.6915 1.7018 0.9650
-4.5495 8.6949 1.9075 0.9608
-15.6029 22.6795 5.3510 0.8939
-60.1276 53.4965 15.6439 0.7204
-59.0298 -14.2726 11.8049 0.7808
-83.7251 -31.3018 17.3747 0.6947
20.9643 -51.8810 8.8627 0.7972
22.8104 -41.3050 7.4734 0.8261
30.2866 -41.9688 8.1973 0.8109
50.0236 -42.5296 10.3994 0.7665
58.1220 -38.4182 11.0349 0.7542
57.9945 -28.9881 10.2690 0.7691
33.0922 23.6927 6.4462 0.8480
7.4013 8.6396 1.8018 0.9550
4.3684 8.6582 1.5360 0.9615
-2.2767 8.6990 1.4242 0.9642
-3.4423 8.7062 1.4828 0.9628
-4.7274 8.7141 1.5702 0.9606
-6.1960 8.7231 1.6947 0.9576
-84.0482 -11.1327 13.4282 0.7094
-59.8631 -42.1841 11.5990 0.7434
-21.3923 -31.5857 6.0421 0.8568
-11.7013 -31.6397 5.3430 0.8723
-3.5942 -31.6308 5.0421 0.8790
21.0363 -54.3939 9.2370 0.7896
22.0895 -41.4570 7.4401 0.8268
28.9946 -41.4755 8.0151 0.8147
37.7999 -42.1832 8.9711 0.7950
48.3427 -42.3661 10.1809 0.7708
57.8324 -39.4858 11.0911 0.7531
57.9903 -30.0814 10.3470 0.7675
66.3343 -24.8155 11.2174 0.7506
37.3277 19.7100 6.6857 0.8429
33.7482 49.0331 9.4278 0.7858
4.5320 8.6572 1.5477 0.9612
3.2786 8.6649 1.4673 0.9632
1.0521 8.6786 1.3846 0.9652
-1.0519 8.6915 1.3866 0.9652
-2.1376 8.6982 1.4186 0.9644
-3.2918 8.7053 1.4741 0.9630
-7.7077 8.7324 1.8448 0.9539
-59.9314 -14.4905 9.7657 0.7790
-83.6590 -31.2771 14.1460 0.6965
30.2866 -41.9688 6.3548 0.8117
39.0755 -42.3123 7.0718 0.7929
49.7559 -42.3021 8.0188 0.7686
57.8401 -38.2319 8.5131 0.7562
57.8948 -28.9383 7.9471 0.7704
62.4130 -22.2872 8.1373 0.7656
64.8054 -14.6577 8.1581 0.7651
47.8712 19.1355 6.3300 0.8124
36.0065 19.7085 5.0400 0.8475
3.1312 8.6658 1.1314 0.9635
14.9441 64.9387 8.1819 0.7645
0.9204 8.6794 1.0717 0.9654
-1.1845 8.6923 1.0771 0.9653
-3.4423 8.7062 1.1495 0.9630
-4.7274 8.7141 1.2173 0.9608
-7.9452 8.7339 1.4497 0.9535
-23.3540 2.5651 2.8848 0.9097
-82.7262 -32.3506 10.9065 0.6991
-27.4094 -31.5137 5.1282 0.8451
-22.6740 -33.4781 4.9646 0.8496
-12.3963 -33.5190 4.3880 0.8659
-8.0195 -33.6902 4.2522 0.8697
-4.5683 -40.2029 4.9681 0.8495
22.0150 -41.3172 5.7483 0.8281
29.2644 -41.8614 6.2714 0.8140
37.7997 -42.1830 6.9547 0.7959
48.2068 -42.2470 7.8704 0.7723
57.8325 -39.4858 8.5982 0.7541
62.4887 -7.3381 7.7254 0.7760
52.5748 20.1065 6.9113 0.7970
37.3098 19.7005 5.1805 0.8436
9.6986 8.6254 1.5936 0.9490
7.6277 8.6381 1.4149 0.9546
33.7483 49.0332 7.3087 0.7867
4.5320 8.6572 1.1998 0.9614
3.2786 8.6649 1.1375 0.9634
0.0009 8.6850 1.0664 0.9656
-1.0519 8.6915 1.0750 0.9653
-2.1376 8.6982 1.0998 0.9645
-3.2918 8.7053 1.1427 0.9632
-4.5590 8.7131 1.2074 0.9611
-5.9768 8.6875 1.2948 0.9584
-7.7077 8.7324 1.4301 0.9541
-60.1671 53.5316 9.8883 0.7228
-12.6297 8.7627 1.8874 0.9399
-59.8325 -14.4666 7.5582 0.7803
20.6517 -51.1073 4.8226 0.8015
30.2751 -41.9528 4.5263 0.8124
49.7019 -42.2562 5.7075 0.7696
58.1220 -38.4182 6.0955 0.7560
57.9945 -28.9881 5.6724 0.7708
58.6167 -13.2580 5.2579 0.7856
56.9687 7.9810 5.0328 0.7938
58.1676 15.4571 5.2656 0.7853
47.8712 19.1355 4.5104 0.8130
36.1872 19.8074 3.6092 0.8473
9.4124 8.6272 1.1171 0.9500
3.1312 8.6658 0.8061 0.9637
0.9204 8.6794 0.7636 0.9656
-1.1845 8.6923 0.7675 0.9654
-2.2767 8.6990 0.7867 0.9645
-7.9452 8.7339 1.0330 0.9537
-10.1336 8.7473 1.1712 0.9477
-13.0469 8.7652 1.3751 0.9388
-17.2938 -33.6467 3.3098 0.8591
-7.5375 -31.6653 2.8478 0.8775
22.1125 -41.5000 4.1140 0.8279
29.6101 -42.3559 4.5214 0.8126
57.8325 -39.4858 6.1265 0.7549
62.2272 -23.2790 5.8127 0.7658
62.2777 -15.0713 5.6059 0.7732
62.3718 0.2275 5.4569 0.7785
57.4504 7.1717 5.0653 0.7926
58.1619 14.5252 5.2448 0.7861
37.3277 19.7100 3.6931 0.8441
9.6986 8.6254 1.1355 0.9492
4.5320 8.6572 0.8549 0.9615
3.2786 8.6649 0.8105 0.9635
2.1229 8.6306 0.7776 0.9649
0.0009 8.6850 0.7598 0.9657
-2.1376 8.6982 0.7836 0.9647
-4.5590 8.7131 0.8603 0.9613
-57.7047 51.3408 6.7574 0.7334
-16.6335 8.7873 1.6458 0.9272
-23.3191 2.9158 2.0560 0.9100
-59.7156 -14.4383 5.3750 0.7814
21.7925 -53.9306 3.0484 0.7922
24.3851 -44.1564 2.6436 0.8171
32.4597 -27.5970 2.2329 0.8431
58.1220 -38.4182 3.6513 0.7565
51.6295 -18.4365 2.8731 0.8028
67.3179 -6.8832 3.5464 0.7626
67.2643 1.2544 3.5258 0.7638
51.7120 7.2446 2.7366 0.8113
47.8712 19.1355 2.7018 0.8134
9.4124 8.6272 0.6691 0.9501
7.4013 8.6396 0.5962 0.9555
4.3684 8.6582 0.5082 0.9619
3.1297 8.6617 0.4827 0.9638
0.9196 8.6717 0.4570 0.9657
-1.1832 8.6824 0.4592 0.9655
-2.2724 8.6826 0.4704 0.9647
-4.7274 8.7141 0.5196 0.9611
-6.1960 8.7231 0.5607 0.9580
-10.1336 8.7473 0.7016 0.9478
-13.0469 8.7652 0.8237 0.9390
-24.1636 8.8335 1.3483 0.9021
-23.3128 2.5605 1.2291 0.9103
-27.4134 -31.5183 2.1892 0.8459
-21.3699 -31.5526 1.9972 0.8584
-15.7197 -30.5841 1.8022 0.8713
-10.7101 -28.9596 1.6182 0.8837
21.6233 -55.9118 3.1417 0.7865
46.7716 -40.9892 3.2593 0.7795
57.8325 -39.4858 3.6699 0.7554
67.3806 -16.3062 3.6332 0.7575
67.3247 -7.9059 3.5526 0.7622
67.2709 0.2454 3.5255 0.7638
67.2177 8.3909 3.5501 0.7624
50.0015 19.1224 2.8056 0.8070
37.3098 19.7005 2.2112 0.8445
9.6986 8.6254 0.6802 0.9493
32.7392 47.5671 3.0263 0.7935
4.5320 8.6572 0.5121 0.9616
3.2781 8.6636 0.4855 0.9636
2.1229 8.6306 0.4658 0.9650
0.0009 8.6795 0.4549 0.9658
-1.0508 8.6825 0.4583 0.9656
-2.1331 8.6798 0.4684 0.9648
-4.5590 8.7131 0.5154 0.9614
-7.7077 8.7324 0.6104 0.9544
-55.7859 49.6336 3.9133 0.7415
-16.6335 8.7873 0.9859 0.9274
32.2167 -79.7276 1.5010 0.7089
28.2993 -51.2442 1.0218 0.7912
30.4084 -42.1375 0.9070 0.8123
31.9444 8.4887 0.5769 0.8761
36.0065 19.7086 0.7165 0.8486
9.4124 8.6272 0.2229 0.9502
3.1162 8.6244 0.1601 0.9640
14.9441 64.9388 1.1631 0.7660
-0.1294 8.6858 0.1516 0.9658
-2.2732 8.6857 0.1567 0.9647
-4.7057 8.6742 0.1723 0.9613
-13.0469 8.7652 0.2744 0.9391
-17.2280 8.7734 0.3375 0.9256
-23.3180 2.5611 0.4095 0.9104
-22.6740 -33.4781 0.7058 0.8506
-18.1664 -35.3445 0.6937 0.8530
-11.5356 -31.1918 0.5805 0.8754
33.8241 -87.4595 1.6368 0.6872
28.2880 -53.0900 1.0500 0.7861
29.8505 -42.6997 0.9095 0.8119
32.4169 -36.1760 0.8479 0.8234
32.4666 -28.4527 0.7535 0.8414
35.6028 -24.3082 0.7525 0.8416
37.3098 19.7005 0.7365 0.8447
12.4133 8.6087 0.2637 0.9414
9.6986 8.6254 0.2266 0.9494
7.6277 8.6381 0.2011 0.9549
2.1227 8.6299 0.1551 0.9651
1.0521 8.6786 0.1526 0.9656
0.0009 8.6850 0.1516 0.9659
-7.7077 8.7324 0.2033 0.9545
-16.5973 8.7682 0.3276 0.9277
-23.0663 8.8268 0.4311 0.9059
-23.3709 2.9223 0.4111 0.9101
70.7478 -25.2635 -1.3113 0.7404
58.6195 -13.2586 -1.0490 0.7863
31.9444 8.4887 -0.5769 0.8761
36.0065 19.7086 -0.7165 0.8486
9.4124 8.6272 -0.2229 0.9502
4.3470 8.6159 -0.1684 0.9621
3.1007 8.5815 -0.1593 0.9642
0.9204 8.6794 -0.1523 0.9657
-0.1294 8.6858 -0.1516 0.9658
-1.1845 8.6923 -0.1531 0.9655
-4.6811 8.6289 -0.1714 0.9615
-17.0482 8.6818 -0.3339 0.9263
-24.1636 8.8335 -0.4491 0.9022
-23.3232 2.5617 -0.4096 0.9104
-89.0324 -0.9925 -1.5541 0.7003
-75.0665 -9.9430 -1.3217 0.7386
-58.1666 -14.9907 -1.0485 0.7864
-74.9386 -29.3053 -1.4045 0.7248
-63.1257 -44.4832 -1.3480 0.7342
-60.2568 -54.4042 -1.4170 0.7227
-20.1311 -23.1456 -0.5354 0.8845
-13.4959 -19.9267 -0.4201 0.9082
-2.4895 -21.9086 -0.3849 0.9156
35.6028 -24.3082 -0.7525 0.8416
58.1619 14.5252 -1.0464 0.7868
52.0961 19.9234 -0.9736 0.8000
9.6986 8.6254 -0.2266 0.9494
24.8890 36.1615 -0.7663 0.8389
3.2477 8.5832 -0.1602 0.9640
2.1229 8.6306 -0.1551 0.9651
1.0521 8.6786 -0.1526 0.9656
-1.0519 8.6915 -0.1528 0.9656
-2.1362 8.6921 -0.1562 0.9648
-3.2759 8.6632 -0.1617 0.9636
-4.5190 8.6366 -0.1701 0.9618
-7.7077 8.7324 -0.2033 0.9545
-12.6297 8.7627 -0.2683 0.9404
-23.0663 8.8268 -0.4311 0.9059
-52.7494 13.1850 -0.9491 0.8045
-23.3967 2.9255 -0.4116 0.9100
-89.0681 0.3431 -1.5547 0.7002
-57.2892 -13.8517 -1.0288 0.7899
-74.9948 -28.0379 -1.3975 0.7259
17.8822 -44.2536 -2.5014 0.8260
22.2812 -40.3466 -2.4155 0.8314
24.0217 -33.2873 -2.1513 0.8484
30.4120 -32.9312 -2.3492 0.8356
32.3674 -27.5185 -2.2265 0.8435
35.4024 -23.4008 -2.2240 0.8437
40.0960 -20.0417 -2.3492 0.8356
42.2150 -15.0747 -2.3492 0.8356
46.5540 -10.5296 -2.5014 0.8260
47.4824 -4.8550 -2.5014 0.8260
47.7217 0.8899 -2.5014 0.8260
44.3923 6.2191 -2.3492 0.8356
31.9444 8.4887 -1.7322 0.8760
29.1327 15.9461 -1.7405 0.8754
12.0274 8.6111 -0.7752 0.9425
7.4013 8.6396 -0.5962 0.9555
4.3357 8.5935 -0.5044 0.9622
3.0910 8.5547 -0.4767 0.9642
8.2997 36.0661 -1.9395 0.8622
-1.1845 8.6923 -0.4598 0.9655
-2.2732 8.6857 -0.4705 0.9647
-3.4170 8.6423 -0.4870 0.9635
-4.6690 8.6066 -0.5131 0.9615
-7.9452 8.7339 -0.6188 0.9538
-10.1336 8.7473 -0.7016 0.9478
-13.0469 8.7652 -0.8237 0.9390
-16.9352 8.6243 -0.9960 0.9267
-42.6620 -5.6508 -2.2553 0.8417
-43.4074 -11.1870 -2.3492 0.8356
-44.4296 -17.3745 -2.5002 0.8261
-42.0390 -22.6025 -2.5014 0.8260
-39.0160 -27.4937 -2.5014 0.8260
-19.6674 -22.6124 -1.5706 0.8869
-13.4252 -19.8224 -1.2547 0.9086
-9.9002 -19.2618 -1.1350 0.9169
-4.8596 -20.4156 -1.0998 0.9194
0.2070 -27.9791 -1.4664 0.8940
22.2564 -41.7701 -2.4804 0.8273
25.6832 -36.7386 -2.3492 0.8356
35.4478 -24.2024 -2.2494 0.8420
39.7909 -20.6408 -2.3492 0.8356
47.4043 -5.5667 -2.5014 0.8260
47.7297 0.1741 -2.5014 0.8260
43.4994 10.8635 -2.3497 0.8356
27.6187 14.5834 -1.6368 0.8824
12.4133 8.6087 -0.7917 0.9413
9.6986 8.6254 -0.6802 0.9493
4.4980 8.5922 -0.5083 0.9619
3.2395 8.5615 -0.4797 0.9640
2.1229 8.6306 -0.4658 0.9650
0.0009 8.6850 -0.4552 0.9658
-5.9768 8.6875 -0.5526 0.9586
-7.7077 8.7324 -0.6104 0.9544
-29.4768 26.2260 -2.0677 0.8538
-21.5341 8.2405 -1.2084 0.9118
-28.9009 7.2240 -1.5612 0.8875
-42.1576 -4.9418 -2.2245 0.8436
-40.0039 -9.6724 -2.1569 0.8480
16.7312 -23.1848 -2.5014 0.8915
25.5745 -12.7832 -2.5014 0.8915
27.8869 -6.3075 -2.5014 0.8915
28.4431 -2.9083 -2.5014 0.8915
28.5864 0.5331 -2.5014 0.8915
25.9511 6.8961 -2.3492 0.8978
12.0274 8.6111 -1.2941 0.9423
5.7604 8.6442 -0.9088 0.9591
3.0832 8.5331 -0.7938 0.9642
6.1759 26.8371 -2.4093 0.8953
-1.1845 8.6923 -0.7675 0.9654
-2.2732 8.6857 -0.7855 0.9646
-4.6570 8.5844 -0.8544 0.9615
-6.1960 8.7231 -0.9361 0.9579
-16.6111 8.4592 -1.6309 0.9279
-26.1578 6.1230 -2.3504 0.8977
-21.2905 2.3384 -1.8739 0.9176
-26.8500 -0.2993 -2.3492 0.8978
-23.3715 -16.4693 -2.5014 0.8915
-17.6218 -20.2605 -2.3492 0.8978
-13.2756 -19.6015 -2.0712 0.9093
-4.8035 -20.1797 -1.8148 0.9201
-2.4340 -21.4202 -1.8861 0.9171
0.1986 -26.8510 -2.3492 0.8978
3.4260 -26.6322 -2.3492 0.8978
7.0316 -27.7132 -2.5014 0.8915
13.4449 -25.2329 -2.5014 0.8915
16.3816 -23.4331 -2.5014 0.8915
21.5026 -18.8442 -2.5014 0.8915
23.6126 -16.1218 -2.5014 0.8915
26.7789 -10.0179 -2.5014 0.8915
27.7892 -6.7250 -2.5014 0.8915
28.3962 -3.3346 -2.5014 0.8915
25.0802 9.5916 -2.3492 0.8978
9.6986 8.6254 -1.1355 0.9492
7.6277 8.6381 -1.0082 0.9548
3.2313 8.5398 -0.7988 0.9640
1.0521 8.6786 -0.7648 0.9655
-1.0519 8.6915 -0.7660 0.9655
-2.1362 8.6921 -0.7831 0.9647
-3.2668 8.6390 -0.8081 0.9636
-20.3574 18.1123 -2.3839 0.8964
-26.0756 6.5177 -2.3515 0.8977
-28.3969 -3.3288 -2.5014 0.8915
-26.7809 -10.0124 -2.5014 0.8915
7.6326 -18.8886 -2.5014 0.9212
11.9216 -16.5200 -2.5014 0.9212
19.8705 -4.4943 -2.5014 0.9212
20.2668 -2.0723 -2.5014 0.9212
20.1754 2.8265 -2.5014 0.9212
18.4911 4.9137 -2.3492 0.9258
7.8051 3.1199 -1.0321 0.9667
12.0274 8.6111 -1.8163 0.9421
9.4124 8.6272 -1.5677 0.9498
5.7497 8.6281 -1.2731 0.9591
4.3464 18.8872 -2.3797 0.9249
-3.4023 8.6050 -1.1362 0.9634
-7.9452 8.7339 -1.4497 0.9535
-17.0494 8.6824 -2.3492 0.9258
-18.6293 4.3607 -2.3492 0.9258
-20.3712 -0.2271 -2.5014 0.9212
-20.1961 -2.6751 -2.5014 0.9212
-19.7278 -5.0843 -2.5014 0.9212
-18.9733 -7.4196 -2.5014 0.9212
-17.9434 -9.6473 -2.5014 0.9212
-16.6531 -11.7351 -2.5014 0.9212
-10.7291 -15.8415 -2.3492 0.9258
-8.7463 -17.0167 -2.3492 0.9258
-4.4305 -18.6128 -2.3492 0.9258
-2.1602 -19.0105 -2.3492 0.9258
0.1415 -19.1324 -2.3492 0.9258
5.0103 -19.7467 -2.5014 0.9212
9.5800 -17.9794 -2.5014 0.9212
13.5956 -15.1722 -2.5014 0.9212
15.3214 -13.4272 -2.5014 0.9212
16.8249 -11.4874 -2.5014 0.9212
19.8009 -4.7919 -2.5014 0.9212
20.2334 -2.3760 -2.5014 0.9212
7.8390 2.9979 -1.0305 0.9667
12.4133 8.6087 -1.8548 0.9409
9.6986 8.6254 -1.5936 0.9490
7.6277 8.6381 -1.4149 0.9546
4.4731 8.5445 -1.1842 0.9619
1.0521 8.6786 -1.0734 0.9654
-2.1324 8.6770 -1.0971 0.9646
-7.7077 8.7324 -1.4301 0.9541
-17.8692 6.8380 -2.3492 0.9258
-18.9850 2.3739 -2.3492 0.9258
-20.3723 0.0785 -2.5014 0.9212
-19.8019 -4.7878 -2.5014 0.9212
5.9170 -14.6430 -2.5014 0.9380
9.2420 -12.8068 -2.5014 0.9380
13.1752 -8.7087 -2.5014 0.9380
14.8735 -5.3112 -2.5014 0.9380
15.4042 -3.4841 -2.5014 0.9380
15.7114 -1.6065 -2.5014 0.9380
6.7941 2.7158 -1.1589 0.9708
4.2675 8.4582 -1.5005 0.9624
3.0418 8.4186 -1.4177 0.9644
3.3465 14.5422 -2.3635 0.9414
0.9204 8.6794 -1.3824 0.9653
-6.1960 8.7231 -1.6947 0.9576
-7.9452 8.7339 -1.8701 0.9533
-10.1336 8.7473 -2.1203 0.9472
-13.9307 5.0927 -2.3492 0.9417
-14.4420 3.3806 -2.3492 0.9417
-15.6989 1.7243 -2.5014 0.9380
-15.6566 -2.0738 -2.5014 0.9380
-7.2197 -14.0466 -2.5014 0.9380
-5.4008 -14.6035 -2.4661 0.9389
0.1168 -15.7929 -2.5014 0.9380
3.8841 -15.3083 -2.5014 0.9380
7.4267 -13.9382 -2.5014 0.9380
9.0489 -12.9440 -2.5014 0.9380
10.5397 -11.7619 -2.5014 0.9380
11.8776 -10.4092 -2.5014 0.9380
13.0432 -8.9054 -2.5014 0.9380
14.7921 -5.5337 -2.5014 0.9380
15.3502 -3.7148 -2.5014 0.9380
15.6856 -1.8420 -2.5014 0.9380
15.7932 0.0576 -2.5014 0.9380
15.6717 1.9563 -2.5014 0.9380
6.8348 2.6139 -1.1590 0.9708
13.1162 6.9257 -2.3492 0.9417
12.1882 8.4527 -2.3492 0.9417
9.6986 8.6254 -2.0557 0.9488
7.6277 8.6381 -1.8252 0.9544
4.4304 8.4631 -1.5130 0.9621
2.1229 8.6306 -1.4077 0.9646
1.0521 8.6786 -1.3846 0.9652
-1.0519 8.6915 -1.3866 0.9652
-2.1324 8.6770 -1.4152 0.9645
-3.2289 8.5387 -1.4459 0.9637
-5.6416 8.2003 -1.5765 0.9605
-7.7077 8.7324 -1.8448 0.9539
-13.1148 6.9284 -2.3492 0.9417
-13.8528 5.3010 -2.3492 0.9417
-15.7932 0.0608 -2.5014 0.9380
-15.6859 -1.8388 -2.5014 0.9380
-15.3510 -3.7117 -2.5014 0.9380
4.8213 -11.9314 -2.5014 0.9489
6.2211 -11.2651 -2.5014 0.9489
9.8042 -8.3355 -2.5014 0.9489
10.7354 -7.0960 -2.5014 0.9489
11.5108 -5.7536 -2.5014 0.9489
12.1192 -4.3277 -2.5014 0.9489
12.5516 -2.8389 -2.5014 0.9489
12.8019 -1.3090 -2.5014 0.9489
12.8665 0.2399 -2.5014 0.9489
7.7635 2.0630 -1.5615 0.9678
6.3439 2.5358 -1.3280 0.9725
6.2223 3.4059 -1.3788 0.9715
9.8268 7.0356 -2.3492 0.9519
5.7497 8.6281 -2.0154 0.9586
4.2271 8.3781 -1.8241 0.9625
2.9880 8.2694 -1.7091 0.9648
0.9204 8.6794 -1.6966 0.9651
-0.1294 8.6858 -1.6885 0.9652
-1.1845 8.6923 -1.7052 0.9649
-2.2646 8.6525 -1.7385 0.9642
-4.5219 8.3353 -1.8433 0.9621
-5.6744 7.9887 -1.9047 0.9609
-10.7696 5.4844 -2.3492 0.9519
-11.3510 4.1496 -2.3492 0.9519
-11.9849 -4.6868 -2.5014 0.9489
-11.3343 -6.0940 -2.5014 0.9489
-4.4637 -12.0697 -2.5014 0.9489
-2.9799 -12.5189 -2.5014 0.9489
-1.4529 -12.7864 -2.5014 0.9489
0.0952 -12.8683 -2.5014 0.9489
7.3732 -10.5470 -2.5014 0.9489
8.5880 -9.5838 -2.5014 0.9489
9.6781 -8.4816 -2.5014 0.9489
11.4232 -5.9256 -2.5014 0.9489
12.0529 -4.5090 -2.5014 0.9489
12.5077 -3.0269 -2.5014 0.9489
12.7696 1.5940 -2.5014 0.9489
8.2265 2.0545 -1.6482 0.9660
6.3926 2.4447 -1.3304 0.9725
9.9312 6.8874 -2.3492 0.9519
7.6217 8.6314 -2.2383 0.9542
6.8521 9.9555 -2.3492 0.9519
4.3882 8.3824 -1.8391 0.9622
2.1229 8.6306 -1.7276 0.9644
1.0521 8.6786 -1.6993 0.9650
0.0009 8.6850 -1.6882 0.9652
-2.1324 8.6770 -1.7368 0.9642
-4.3827 8.3761 -1.8376 0.9622
-7.7019 8.7259 -2.2623 0.9537
-9.9298 6.8894 -2.3492 0.9519
-10.6862 5.6454 -2.3492 0.9519
-12.7692 1.5967 -2.5014 0.9489
-12.7812 -1.4983 -2.5014 0.9489
-12.0538 -4.5065 -2.5014 0.9489
5.2378 -9.4846 -2.5014 0.9565
6.3404 -8.7860 -2.5014 0.9565
10.2038 -3.6437 -2.5014 0.9565
10.5679 -2.3903 -2.5014 0.9565
10.7786 -1.1021 -2.5014 0.9565
10.7301 1.5032 -2.5014 0.9565
7.5706 2.0117 -1.8085 0.9684
6.0945 2.4362 -1.5153 0.9734
8.2737 5.9236 -2.3492 0.9591
7.5013 6.8755 -2.3492 0.9591
5.6428 8.4677 -2.3492 0.9591
4.3654 8.6523 -2.2374 0.9610
2.2820 9.9164 -2.3492 0.9591
-0.1294 8.6858 -2.0055 0.9650
-2.2646 8.6525 -2.0649 0.9639
-6.8474 7.5270 -2.3492 0.9591
-7.7028 6.6490 -2.3492 0.9591
-8.4465 5.6745 -2.3492 0.9591
-10.1646 3.7159 -2.4986 0.9565
-10.5497 2.4694 -2.5014 0.9565
-10.7701 1.1829 -2.5014 0.9565
-10.8342 -0.1208 -2.5014 0.9565
-10.7410 -1.4227 -2.5014 0.9565
-10.0907 -3.9460 -2.5014 0.9565
-9.5430 -5.1308 -2.5014 0.9565
-8.8567 -6.2412 -2.5014 0.9565
-7.1105 -8.1752 -2.5014 0.9565
-6.0758 -8.9709 -2.5014 0.9565
-3.7582 -10.1622 -2.5014 0.9565
-1.2233 -10.7656 -2.5014 0.9565
1.3824 -10.7463 -2.5014 0.9565
3.9082 -10.1054 -2.5014 0.9565
5.0950 -9.5621 -2.5014 0.9565
6.2079 -8.8801 -2.5014 0.9565
7.2307 -8.0691 -2.5014 0.9565
8.1485 -7.1411 -2.5014 0.9565
9.6179 -4.9891 -2.5014 0.9565
10.7609 -1.2637 -2.5014 0.9565
10.8348 0.0395 -2.5014 0.9565
10.7514 1.3421 -2.5014 0.9565
8.3616 5.7988 -2.3492 0.9591
7.6036 6.7623 -2.3492 0.9591
4.5230 8.6398 -2.2515 0.9608
2.1229 8.6306 -2.0519 0.9642
-1.0519 8.6915 -2.0212 0.9647
-3.2059 8.4779 -2.0925 0.9635
-5.7675 8.3833 -2.3492 0.9591
-10.0983 3.8643 -2.4963 0.9566
-10.5114 2.6274 -2.5014 0.9565
-10.7511 1.3443 -2.5014 0.9565
-10.5314 -2.5463 -2.5014 0.9565
3.4975 -8.6555 -2.5014 0.9621
4.5130 -8.1721 -2.5014 0.9621
5.4629 -7.5701 -2.5014 0.9621
6.3336 -6.8583 -2.5014 0.9621
7.1124 -6.0469 -2.5014 0.9621
7.7879 -5.1477 -2.5014 0.9621
8.3504 -4.1739 -2.5014 0.9621
8.7917 -3.1395 -2.5014 0.9621
7.5190 1.9980 -2.0846 0.9683
5.9621 3.2634 -1.8212 0.9722
7.1287 5.1038 -2.3492 0.9643
4.8619 7.2958 -2.3492 0.9643
3.9493 7.8275 -2.3492 0.9643
2.9794 8.2457 -2.3492 0.9643
1.9662 8.5441 -2.3492 0.9643
-4.1807 7.7064 -2.3492 0.9643
-5.0771 7.1478 -2.3492 0.9643
-5.8998 6.4854 -2.3492 0.9643
-7.2776 4.8892 -2.3492 0.9643
-8.2945 4.2240 -2.4941 0.9622
-8.7679 3.2053 -2.5014 0.9621
-9.0897 2.1277 -2.5014 0.9621
-9.2796 1.0192 -2.5014 0.9621
-9.2546 -1.2258 -2.5014 0.9621
-9.0400 -2.3298 -2.5014 0.9621
-6.9291 -6.2561 -2.5014 0.9621
-6.1265 -7.0439 -2.5014 0.9621
-5.2350 -7.7295 -2.5014 0.9621
-4.2675 -8.3029 -2.5014 0.9621
-2.1618 -9.0817 -2.5014 0.9621
-1.0540 -9.2757 -2.5014 0.9621
0.0691 -9.3352 -2.5014 0.9621
4.3899 -8.2389 -2.5014 0.9621
5.3488 -7.6512 -2.5014 0.9621
7.7098 -5.2640 -2.5014 0.9621
8.2868 -4.2987 -2.5014 0.9621
8.7436 -3.2710 -2.5014 0.9621
9.0735 -2.1958 -2.5014 0.9621
9.2717 -1.0888 -2.5014 0.9621
9.2635 1.1564 -2.5014 0.9621
8.1147 2.0266 -2.2411 0.9660
7.2044 4.9964 -2.3492 0.9643
6.5514 5.8264 -2.3492 0.9643
4.9708 7.2221 -2.3492 0.9643
4.0663 7.7674 -2.3492 0.9643
3.1027 8.2000 -2.3492 0.9643
2.0941 8.5136 -2.3492 0.9643
1.0552 8.7037 -2.3492 0.9643
0.0009 8.7674 -2.3492 0.9643
-1.0534 8.7039 -2.3492 0.9643
-2.0924 8.5141 -2.3492 0.9643
-3.1010 8.2007 -2.3492 0.9643
-4.9693 7.2231 -2.3492 0.9643
-6.5502 5.8278 -2.3492 0.9643
-8.0848 4.2711 -2.4500 0.9628
-9.3354 0.0359 -2.5014 0.9621
-8.7443 -3.2692 -2.5014 0.9621
