ply
format ascii 1.0
element vertex 736
property float32 x
property float32 y
property float32 z
property float32 I
end_header
37.4677 19.6995 11.3425 0.8392
34.7035 23.9752 11.3021 0.8397
35.3709 51.1845 16.6710 0.7729
34.9651 66.4818 20.1272 0.7327
-12.7202 24.4378 7.3820 0.8922
-19.9532 22.7063 8.0995 0.8823
-17.9462 -33.4491 10.1712 0.8545
-12.3289 -31.6061 9.0903 0.8689
-5.4214 -41.1799 11.1293 0.8420
54.5388 19.7244 15.5400 0.7865
34.2365 29.3417 12.0817 0.8297
34.2862 37.4201 13.5991 0.8104
34.3513 47.9944 15.8146 0.7832
34.4433 62.9439 19.2257 0.7429
-9.0119 39.8539 10.9484 0.8443
-9.6042 26.9027 7.6541 0.8884
-15.3156 23.1778 7.4439 0.8913
-19.4589 22.8956 8.0512 0.8830
-24.6083 22.7350 8.9771 0.8705
-39.0788 -8.6672 10.7256 0.8472
-17.9382 -32.1482 9.8643 0.8586
-10.3333 -25.2505 7.3105 0.8932
-7.6628 -27.9126 7.7559 0.8870
52.8450 20.1049 13.0533 0.7929
34.7035 23.9753 9.7380 0.8410
-9.0290 37.0725 8.8090 0.8550
-10.1093 26.9058 6.6357 0.8887
-15.8740 23.1812 6.4863 0.8911
-19.9532 22.7063 6.9786 0.8833
-16.9609 -31.6127 8.2825 0.8631
-7.2120 -28.0791 6.6930 0.8878
29.9501 -44.5212 12.3878 0.8023
59.4428 -32.2092 15.6086 0.7576
39.0003 19.6901 10.0864 0.8358
34.2365 29.3417 10.4098 0.8310
34.2862 37.4201 11.7171 0.8119
34.3513 47.9944 13.6261 0.7848
-9.6042 26.9027 6.5949 0.8893
-15.3156 23.1778 6.4137 0.8922
-19.4589 22.8956 6.9370 0.8840
-58.9139 54.4291 18.5175 0.7194
-39.0290 -8.6562 9.2295 0.8486
-10.3386 -25.2635 6.3020 0.8940
33.6876 -87.4587 18.2178 0.6826
38.4492 -43.0325 11.2172 0.7905
63.0460 -43.1843 14.8541 0.7324
59.7231 14.8070 11.9605 0.7782
52.8450 20.1049 10.9903 0.7942
10.7759 5.6657 2.3665 0.9516
35.2375 50.9914 12.0481 0.7768
-1.0338 8.6914 1.7013 0.9650
-2.1184 8.6980 1.7402 0.9642
-3.2708 8.7051 1.8076 0.9628
-4.5265 8.6963 1.9057 0.9608
-21.6488 2.7592 4.2421 0.9149
-58.2271 -13.9267 11.6374 0.7835
-50.9959 -26.2770 11.1512 0.7915
26.1954 -38.9399 9.1225 0.8259
49.6867 -45.1496 13.0499 0.7607
59.0527 -31.9978 13.0555 0.7606
59.7668 13.7742 11.9220 0.7789
54.5388 19.7244 11.2733 0.7895
39.0004 19.6901 8.4923 0.8369
34.6983 23.1346 8.1063 0.8437
34.2365 29.3417 8.7645 0.8322
35.3600 49.4038 11.8094 0.7807
4.7306 8.6450 1.9156 0.9606
3.4622 8.6637 1.8136 0.9627
2.3036 8.6709 1.7439 0.9641
1.2154 8.6776 1.7032 0.9649
-0.8884 8.6905 1.6981 0.9650
-3.1074 8.7041 1.7965 0.9630
-4.3465 8.6982 1.8901 0.9612
-19.4589 22.8956 5.8407 0.8848
-58.5254 54.0702 15.4881 0.7228
-59.5446 -13.2062 11.8555 0.7799
-17.9382 -32.1482 7.1560 0.8607
-10.3439 -25.2763 5.3087 0.8947
21.8892 -41.2184 7.3918 0.8278
27.7550 -39.8219 7.6880 0.8215
37.6895 -42.1823 8.9594 0.7953
49.6955 -43.6811 10.4794 0.7649
61.7108 -42.2697 11.8471 0.7387
59.8631 -31.1692 10.6896 0.7608
65.4890 -24.6157 11.0810 0.7533
60.2239 14.9312 9.8273 0.7778
34.7053 23.9765 6.6810 0.8430
35.2482 31.2332 7.4591 0.8264
7.6291 8.6077 1.8217 0.9545
4.5530 8.6571 1.5492 0.9612
3.2978 8.6648 1.4684 0.9631
2.1512 8.6718 1.4151 0.9645
1.0697 8.6785 1.3849 0.9652
-1.0338 8.6914 1.3863 0.9652
-2.1184 8.6980 1.4179 0.9644
-7.6734 8.7322 1.8412 0.9540
-59.8957 53.5299 12.7231 0.7223
-61.4772 -68.2190 14.5449 0.6894
-22.1868 -31.5458 6.1084 0.8554
-16.9609 -31.6128 5.6821 0.8648
-12.3289 -31.6061 5.3733 0.8716
21.5437 -42.2373 7.5097 0.8253
36.4335 -42.1577 8.8251 0.7980
48.4113 -43.9906 10.3604 0.7673
59.6691 -42.3358 11.5878 0.7436
59.7668 13.7742 9.7143 0.7801
39.0004 19.6901 6.9197 0.8378
34.7686 23.1815 6.6186 0.8443
34.7392 29.7725 7.2464 0.8309
6.1890 8.6470 1.6842 0.9578
4.7366 8.6559 1.5628 0.9608
3.4622 8.6637 1.4777 0.9629
1.2154 8.6776 1.3878 0.9651
-0.8884 8.6905 1.3836 0.9652
-3.1073 8.7041 1.4638 0.9633
-5.7624 8.7204 1.6555 0.9586
-7.4201 8.7306 1.8147 0.9547
-79.5753 43.9720 14.3997 0.6920
-38.3558 -8.5069 6.2226 0.8529
-24.4002 -33.5030 6.5645 0.8455
-17.6177 -31.5737 5.7266 0.8638
-10.3490 -25.2889 4.3278 0.8952
29.7373 -77.2030 10.1582 0.7165
24.2844 -45.7287 6.3574 0.8117
27.8266 -39.9247 5.9753 0.8219
48.1338 -42.3084 7.8686 0.7724
61.7108 -42.2697 9.1842 0.7397
64.0116 -24.0604 8.3965 0.7591
66.4055 -16.1820 8.3922 0.7592
64.1403 0.1283 7.8755 0.7722
60.1438 14.9113 7.6083 0.7790
37.4678 19.6995 5.1976 0.8432
5.9764 8.6483 1.2908 0.9585
4.5530 8.6571 1.2010 0.9613
3.2978 8.6648 1.1383 0.9633
1.0697 8.6785 1.0736 0.9654
0.0185 8.6849 1.0664 0.9656
-1.0338 8.6914 1.0747 0.9653
-2.1184 8.6980 1.0992 0.9646
-3.2708 8.7051 1.1418 0.9632
-5.9725 8.7217 1.2979 0.9583
-7.6734 8.7322 1.4273 0.9542
-9.7851 8.7452 1.6114 0.9485
-82.8686 44.0212 11.5215 0.6851
-21.6587 2.7605 2.6809 0.9158
-23.2754 -33.0936 4.9677 0.8495
-17.9462 -33.4491 4.6608 0.8581
-8.6522 -33.6864 4.2704 0.8692
28.9402 -78.9992 10.3303 0.7124
46.5840 -42.3301 7.7286 0.7760
59.6691 -42.3358 8.9832 0.7446
64.1096 -0.9306 7.8725 0.7723
54.5388 19.7245 7.1210 0.7916
12.8881 8.5930 1.9019 0.9395
7.9131 8.6364 1.4382 0.9539
1.2154 8.6776 1.0759 0.9653
0.1619 8.6840 1.0665 0.9656
-0.8884 8.6905 1.0726 0.9654
-4.3465 8.6982 1.1939 0.9616
-7.4201 8.7306 1.4068 0.9549
-9.4636 8.7432 1.5820 0.9494
-80.1845 -52.5106 11.7687 0.6796
-60.6146 -65.0679 10.9191 0.6988
-23.8187 -32.7046 4.9677 0.8495
-9.2469 -33.6827 4.2887 0.8687
21.0307 -54.5993 5.1189 0.7906
22.6681 -42.6851 4.2284 0.8236
27.5053 -39.4637 4.2085 0.8244
63.8841 -15.5675 5.7527 0.7680
63.9331 -7.6125 5.6329 0.7722
63.9807 0.1280 5.5976 0.7734
59.7732 14.8194 5.3878 0.7809
50.2585 19.1208 4.7045 0.8058
37.6559 19.7984 3.7221 0.8430
12.4605 8.6085 1.3250 0.9410
9.7340 8.6252 1.1378 0.9491
5.9764 8.6483 0.9197 0.9587
4.5530 8.6571 0.8558 0.9615
0.0185 8.6849 0.7598 0.9657
-1.0338 8.6914 0.7658 0.9655
-2.1184 8.6980 0.7832 0.9647
-3.2708 8.7051 0.8136 0.9633
-5.9725 8.7217 0.9248 0.9584
-7.6734 8.7322 1.0170 0.9544
-9.7851 8.7452 1.1482 0.9487
-21.6635 2.7611 1.9107 0.9160
-59.7293 -14.2860 5.3730 0.7815
-23.6441 -33.6178 3.5958 0.8479
-17.9462 -33.4491 3.3210 0.8586
-4.1675 -31.6553 2.7934 0.8797
-0.9311 -89.6505 7.8438 0.6977
28.2901 -77.2248 7.1954 0.7188
22.4582 -44.0304 4.3243 0.8200
26.7585 -39.7768 4.1942 0.8249
36.4948 -42.2286 4.8830 0.7992
46.4808 -42.2364 5.4946 0.7771
59.5261 -42.2343 6.3855 0.7460
59.9351 -32.4759 5.9639 0.7605
63.3485 -25.0128 5.9587 0.7607
63.9265 -8.6847 5.6442 0.7718
64.0218 6.8117 5.6328 0.7722
52.8260 19.1050 4.9146 0.7981
7.9131 8.6364 1.0248 0.9541
3.4622 8.6637 0.8163 0.9632
1.2154 8.6776 0.7666 0.9654
0.1619 8.6840 0.7599 0.9657
-5.7624 8.7204 0.9145 0.9589
-7.4201 8.7306 1.0024 0.9550
-9.4636 8.7432 1.1272 0.9496
-15.8939 8.7827 1.5887 0.9297
-50.4403 -24.9453 4.9231 0.7978
-10.3790 -25.3620 2.3975 0.8958
21.6994 -56.3352 3.1638 0.7852
28.9211 -41.4950 2.6507 0.8166
35.4814 -24.3035 2.2539 0.8418
59.9429 -31.2108 3.5418 0.7628
52.7308 -19.8202 2.9523 0.7980
68.9369 -8.2083 3.6383 0.7572
68.8819 0.1378 3.6099 0.7589
59.9456 7.3812 3.1653 0.7851
34.0796 8.4493 1.8401 0.8688
37.4678 19.6996 2.2185 0.8440
9.7340 8.6252 0.6816 0.9492
5.9764 8.6483 0.5509 0.9588
4.5530 8.6571 0.5126 0.9616
2.1466 8.6536 0.4673 0.9649
0.0185 8.6791 0.4549 0.9658
-1.0327 8.6821 0.4582 0.9656
-2.1140 8.6798 0.4682 0.9648
-3.2708 8.7051 0.4874 0.9634
-16.5406 8.7867 0.9816 0.9277
-58.1956 -13.9192 3.1359 0.7869
-22.1881 -31.5477 2.0213 0.8569
-16.4068 -30.5800 1.8187 0.8702
-8.5748 -33.3851 1.8064 0.8710
21.0742 -89.7467 4.8314 0.6912
29.2820 -79.9324 4.4613 0.7111
27.3741 -40.6919 2.5702 0.8217
34.2489 -24.2999 2.2008 0.8452
63.3485 -25.0128 3.5695 0.7612
67.3634 -17.5989 3.6489 0.7566
68.9446 -9.3664 3.6464 0.7568
68.8349 7.3238 3.6278 0.7578
59.7668 13.7742 3.2143 0.7822
34.3444 12.4210 1.9140 0.8639
39.0004 19.6901 2.2896 0.8395
12.9072 8.6057 0.8130 0.9398
10.0617 8.6232 0.6945 0.9483
6.1890 8.6470 0.5573 0.9583
4.7366 8.6559 0.5171 0.9612
3.4622 8.6637 0.4890 0.9633
2.2990 8.6537 0.4693 0.9648
1.2140 8.6679 0.4587 0.9655
-0.8875 8.6821 0.4574 0.9656
-1.9627 8.6797 0.4664 0.9650
-4.3465 8.6982 0.5096 0.9618
-5.7624 8.7204 0.5478 0.9590
-7.4201 8.7306 0.6005 0.9551
-9.4636 8.7432 0.6752 0.9497
-21.8067 8.8190 1.2328 0.9101
-80.8070 -52.9182 5.0622 0.6792
-17.0609 -30.5760 1.8350 0.8691
-7.7602 -28.2674 1.5362 0.8892
29.9598 -42.9853 0.9146 0.8109
34.0559 -29.9342 0.7914 0.8341
46.8184 -24.3772 0.9214 0.8096
37.4679 19.6996 0.7389 0.8442
12.4605 8.6085 0.2644 0.9412
9.7340 8.6252 0.2270 0.9493
7.6291 8.6077 0.2008 0.9550
5.9633 8.6294 0.1831 0.9589
3.2978 8.6648 0.1618 0.9636
2.1512 8.6718 0.1560 0.9649
1.0697 8.6785 0.1526 0.9656
0.0185 8.6849 0.1516 0.9659
-1.0313 8.6703 0.1524 0.9657
-3.2553 8.6638 0.1615 0.9637
-7.6734 8.7322 0.2029 0.9546
-9.7851 8.7452 0.2291 0.9489
-12.5490 8.7488 0.2670 0.9406
-16.5227 8.7772 0.3266 0.9279
-21.6732 2.7623 0.3814 0.9163
-55.8573 -13.3599 1.0025 0.7947
-21.9347 -31.1875 0.6655 0.8585
-17.9462 -33.4491 0.6626 0.8591
-8.0170 -31.2134 0.5625 0.8790
-4.4193 -33.5679 0.5910 0.8733
-0.8891 -85.5995 1.4942 0.7100
44.6415 -87.5216 1.7149 0.6750
33.8636 -39.1841 0.9040 0.8129
44.9676 -24.3658 0.8927 0.8150
49.7652 -19.6494 0.9339 0.8073
90.1271 9.5893 1.5820 0.6959
59.7668 13.7742 1.0706 0.7824
12.9072 8.6057 0.2708 0.9398
10.0617 8.6232 0.2313 0.9484
7.9131 8.6364 0.2045 0.9542
4.7148 8.6162 0.1714 0.9615
2.3036 8.6709 0.1566 0.9647
0.1619 8.6840 0.1516 0.9658
-0.8862 8.6694 0.1521 0.9657
-3.0926 8.6627 0.1606 0.9639
-4.3465 8.6982 0.1697 0.9618
-5.7623 8.7204 0.1824 0.9590
-7.4201 8.7306 0.2000 0.9552
-9.4636 8.7432 0.2249 0.9498
-15.8566 8.7621 0.3162 0.9301
-21.8067 8.8190 0.4106 0.9102
-50.2639 -24.8581 0.9788 0.7990
-17.6481 -31.6282 0.6321 0.8651
-14.4734 -35.3671 0.6670 0.8582
33.6529 -87.3685 -1.6342 0.6876
28.8917 -54.4045 -1.0752 0.7816
35.4873 -24.3075 -0.7508 0.8419
46.8184 -24.3772 -0.9214 0.8096
51.4859 -19.3523 -0.9601 0.8025
52.3564 19.9190 -0.9778 0.7992
7.6291 8.6077 -0.2008 0.9550
5.9465 8.6051 -0.1826 0.9590
4.5081 8.5716 -0.1690 0.9620
3.2978 8.6648 -0.1618 0.9636
2.1512 8.6718 -0.1560 0.9649
0.0185 8.6849 -0.1516 0.9659
-5.9725 8.7217 -0.1845 0.9586
-7.6734 8.7322 -0.2029 0.9546
-87.3859 22.0607 -1.5732 0.6973
-21.6780 2.7629 -0.3814 0.9163
-73.3909 -8.4221 -1.2894 0.7441
-56.1553 -13.4312 -1.0078 0.7937
-73.5052 -27.2723 -1.3685 0.7308
-63.2090 -32.5702 -1.2412 0.7524
-14.7247 -20.9360 -0.4468 0.9027
-9.8860 -25.3436 -0.4748 0.8969
-8.6152 -33.5422 -0.6045 0.8706
-2.7525 -20.9077 -0.3681 0.9191
-0.2344 -22.5637 -0.3939 0.9137
34.0607 -30.9505 -0.8033 0.8318
44.9676 -24.3658 -0.8927 0.8150
51.4799 -20.3265 -0.9661 0.8014
49.4467 -12.9181 -0.8921 0.8151
59.7668 13.7742 -1.0706 0.7824
39.0004 19.6901 -0.7626 0.8396
12.9072 8.6057 -0.2708 0.9398
10.0617 8.6232 -0.2313 0.9484
7.9131 8.6364 -0.2045 0.9542
4.6897 8.5703 -0.1705 0.9617
2.3036 8.6709 -0.1566 0.9647
0.1619 8.6840 -0.1516 0.9658
-3.0771 8.6195 -0.1598 0.9640
-5.7623 8.7204 -0.1824 0.9590
-7.4201 8.7306 -0.2000 0.9552
-27.9193 20.1577 -0.6011 0.8713
-21.8067 8.8190 -0.4106 0.9102
-50.2862 13.5820 -0.9092 0.8119
-53.6080 7.7343 -0.9454 0.8052
-73.4363 -7.2007 -1.2880 0.7444
-35.7111 -7.9203 -0.6385 0.8639
-50.1765 -24.8148 -0.9771 0.7994
-61.0409 -39.9739 -1.2736 0.7468
-11.1175 -19.9245 -0.3983 0.9128
-8.0339 -19.6318 -0.3703 0.9186
-5.4063 -19.6931 -0.3565 0.9215
17.1584 -44.5460 -2.5018 0.8260
29.8707 -33.4315 -2.3496 0.8356
35.3328 -24.2017 -2.2445 0.8424
46.3791 -11.3018 -2.5018 0.8260
34.0796 8.4493 -1.8401 0.8688
22.5178 8.5669 -1.2626 0.9080
30.3150 15.9388 -1.7950 0.8718
12.4605 8.6085 -0.7937 0.9411
9.7340 8.6252 -0.6816 0.9492
5.9298 8.5809 -0.5466 0.9591
4.4877 8.5328 -0.5053 0.9621
3.2978 8.6648 -0.4859 0.9635
0.0185 8.6849 -0.4552 0.9658
-1.0299 8.6586 -0.4570 0.9657
-2.1032 8.6357 -0.4658 0.9650
-4.5352 8.7129 -0.5148 0.9614
-9.7851 8.7452 -0.6878 0.9488
-12.5424 8.7442 -0.8013 0.9406
-22.9046 8.8258 -1.2864 0.9064
-21.6829 2.7636 -1.1455 0.9162
-40.6645 -4.6664 -2.1451 0.8488
-37.6869 -9.0140 -2.0308 0.8562
-42.0323 -15.5951 -2.3496 0.8356
-39.4977 -26.8083 -2.5018 0.8260
-35.9883 -31.3623 -2.5018 0.8260
-30.0127 -33.3041 -2.3496 0.8356
-14.4512 -20.5471 -1.3165 0.9043
-10.5097 -19.5887 -1.1650 0.9148
10.9126 -46.4723 -2.5018 0.8260
16.4203 -44.8233 -2.5018 0.8260
21.6900 -42.5241 -2.5018 0.8260
29.3145 -33.9202 -2.3496 0.8356
33.1798 -30.1500 -2.3496 0.8356
34.0998 -24.1941 -2.1912 0.8458
39.4175 -21.3584 -2.3496 0.8356
44.5805 4.7432 -2.3496 0.8356
23.6773 8.5631 -1.3195 0.9041
29.2654 14.7752 -1.7181 0.8769
6.1404 8.5792 -0.5529 0.9586
2.3036 8.6709 -0.4702 0.9647
-0.8858 8.6654 -0.4565 0.9657
-1.9525 8.6349 -0.4640 0.9652
-5.7624 8.7204 -0.5478 0.9590
-7.4201 8.7306 -0.6005 0.9551
-26.6959 7.2104 -1.4492 0.8952
-40.3149 0.9183 -2.1134 0.8508
-44.8721 -4.3998 -2.3629 0.8348
-42.2842 -14.8988 -2.3496 0.8356
-42.7895 -21.1616 -2.5018 0.8260
-39.9351 -26.1523 -2.5018 0.8260
-30.5587 -32.8038 -2.3496 0.8356
-15.5371 -21.3334 -1.3831 0.8997
10.2783 -26.6841 -2.5018 0.8915
19.0523 -21.3235 -2.5018 0.8915
21.4777 -18.8783 -2.5018 0.8915
23.5915 -16.1593 -2.5018 0.8915
25.3631 -13.2059 -2.5018 0.8915
26.7668 -10.0610 -2.5018 0.8915
28.3946 -3.3809 -2.5018 0.8915
28.5951 0.0572 -2.5018 0.8915
26.0663 6.4626 -2.3496 0.8978
23.8386 12.5337 -2.3563 0.8975
12.4605 8.6085 -1.3250 0.9410
9.7340 8.6252 -1.1378 0.9491
7.6291 8.6077 -1.0063 0.9549
5.9197 8.5662 -0.9110 0.9591
4.4756 8.5098 -0.8412 0.9621
0.0185 8.6849 -0.7598 0.9657
-1.0299 8.6586 -0.7629 0.9656
-3.2200 8.5699 -0.8009 0.9639
-4.5352 8.7129 -0.8594 0.9613
-20.9837 2.6745 -1.8507 0.9186
-26.8550 0.1680 -2.3496 0.8978
-27.8107 -6.6518 -2.5018 0.8915
-26.8093 -9.9470 -2.5018 0.8915
-25.4191 -13.0979 -2.5018 0.8915
-21.5579 -18.7867 -2.5018 0.8915
-14.6437 -20.8208 -2.2270 0.9028
-5.0443 -19.6392 -1.7740 0.9218
-0.2259 -21.7476 -1.9028 0.9164
2.9515 -26.6928 -2.3496 0.8978
6.5369 -27.8380 -2.5018 0.8915
9.8362 -26.8502 -2.5018 0.8915
12.9928 -25.4729 -2.5018 0.8915
23.3214 -16.5468 -2.5018 0.8915
27.6666 -7.2280 -2.5018 0.8915
28.3349 -3.8494 -2.5018 0.8915
28.5921 -0.4150 -2.5018 0.8915
28.4347 3.0254 -2.5018 0.8915
26.1695 6.0312 -2.3496 0.8978
25.2546 9.1336 -2.3496 0.8978
10.0617 8.6232 -1.1593 0.9482
7.9131 8.6364 -1.0248 0.9541
2.3036 8.6709 -0.7849 0.9646
1.2154 8.6776 -0.7666 0.9654
0.1619 8.6840 -0.7599 0.9657
-1.9482 8.6155 -0.7728 0.9652
-4.3465 8.6982 -0.8507 0.9617
-5.7624 8.7204 -0.9145 0.9589
-7.4201 8.7306 -1.0024 0.9550
-9.4636 8.7432 -1.1272 0.9496
-22.0557 15.9242 -2.3800 0.8965
-15.2749 8.4406 -1.5268 0.9323
-19.9640 8.0739 -1.8841 0.9172
-25.9938 7.0208 -2.3557 0.8975
-21.1470 3.0510 -1.8693 0.9178
-27.4578 -2.6923 -2.4138 0.8951
-27.9168 -6.1916 -2.5018 0.8915
-23.9220 -15.6658 -2.5018 0.8915
-21.8652 -18.4282 -2.5018 0.8915
-18.3054 -19.6503 -2.3496 0.8978
-10.8881 -19.5133 -1.9550 0.9142
-7.8579 -19.2017 -1.8152 0.9201
-5.3115 -19.3477 -1.7553 0.9226
15.3037 -13.4515 -2.5018 0.9212
18.0722 -9.4097 -2.5018 0.9212
20.2322 -2.4090 -2.5018 0.9212
20.3751 0.0408 -2.5018 0.9212
20.2224 2.4900 -2.5018 0.9212
18.5733 4.6048 -2.3496 0.9258
17.8850 6.8043 -2.3496 0.9258
16.9372 8.9051 -2.3496 0.9258
12.4605 8.6085 -1.8596 0.9408
9.7340 8.6252 -1.5969 0.9489
2.1512 8.6718 -1.0970 0.9646
1.0697 8.6785 -1.0736 0.9654
-3.2052 8.5307 -1.1189 0.9639
-5.9725 8.7217 -1.2979 0.9583
-7.6734 8.7322 -1.4273 0.9542
-9.7851 8.7452 -1.6114 0.9485
-18.5535 4.6838 -2.3496 0.9258
-20.2423 -2.3229 -2.5018 0.9212
-19.1027 -7.0876 -2.5018 0.9212
-16.8587 -11.4425 -2.5018 0.9212
-13.6401 -15.1359 -2.5018 0.9212
-11.2510 -15.9970 -2.4013 0.9242
-9.0468 -16.8620 -2.3496 0.9258
-4.7604 -18.5340 -2.3496 0.9258
17.9143 -9.7069 -2.5018 0.9212
20.1897 -2.7429 -2.5018 0.9212
20.2608 2.1557 -2.5018 0.9212
19.2366 4.4334 -2.4239 0.9235
17.0820 8.6242 -2.3496 0.9258
12.9072 8.6057 -1.9048 0.9394
10.0617 8.6232 -1.6271 0.9480
6.0915 8.5108 -1.2851 0.9587
3.4622 8.6637 -1.1456 0.9631
2.3036 8.6709 -1.1016 0.9645
-0.8848 8.6558 -1.0683 0.9655
-1.9448 8.6007 -1.0827 0.9651
-3.0486 8.5396 -1.1133 0.9641
-4.3465 8.6982 -1.1939 0.9616
-5.7624 8.7204 -1.2834 0.9588
-9.4636 8.7432 -1.5820 0.9494
-15.5691 11.2408 -2.3578 0.9255
-17.7398 7.1743 -2.3496 0.9258
-18.4736 4.9896 -2.3496 0.9258
-18.9395 2.7325 -2.3496 0.9258
-20.2779 -1.9883 -2.5018 0.9212
-19.8918 -4.4117 -2.5018 0.9212
-18.2637 -9.0323 -2.5018 0.9212
-13.8882 -14.9086 -2.5018 0.9212
-11.7766 -16.1701 -2.4562 0.9225
-7.2475 -17.7100 -2.3496 0.9258
5.6775 -14.7398 -2.5018 0.9380
9.0318 -12.9585 -2.5018 0.9380
10.5242 -11.7787 -2.5018 0.9380
15.3464 -3.7396 -2.5018 0.9380
15.7954 0.0316 -2.5018 0.9380
15.6770 1.9303 -2.5018 0.9380
6.6276 2.5215 -1.1231 0.9717
12.2051 8.4320 -2.3496 0.9417
9.7340 8.6252 -2.0599 0.9487
7.6291 8.6077 -1.8217 0.9545
5.8162 8.4165 -1.6204 0.9594
4.3847 8.3370 -1.4919 0.9626
2.1512 8.6718 -1.4151 0.9645
-1.0201 8.5769 -1.3680 0.9656
-2.0752 8.5205 -1.3890 0.9651
-3.1775 8.4568 -1.4308 0.9641
-4.5352 8.7129 -1.5557 0.9610
-7.6734 8.7322 -1.8412 0.9540
-13.1008 6.9593 -2.3496 0.9417
-15.7951 0.0988 -2.5018 0.9380
-14.0410 -7.2350 -2.5018 0.9380
-13.0694 -8.8706 -2.5018 0.9380
-10.5742 -11.7338 -2.5018 0.9380
-9.0869 -12.9200 -2.5018 0.9380
-7.4677 -13.9187 -2.5018 0.9380
-5.7154 -14.6520 -2.4910 0.9383
-3.7579 -14.6308 -2.3925 0.9407
-0.1619 -15.5909 -2.4695 0.9388
1.7360 -15.6997 -2.5018 0.9380
5.4333 -14.8315 -2.5018 0.9380
10.3282 -11.9509 -2.5018 0.9380
11.6900 -10.6225 -2.5018 0.9380
12.8823 -9.1401 -2.5018 0.9380
15.7938 -0.2292 -2.5018 0.9380
10.0617 8.6232 -2.0988 0.9477
7.9131 8.6364 -1.8552 0.9537
6.0279 8.4220 -1.6404 0.9589
3.4622 8.6637 -1.4777 0.9629
2.3036 8.6709 -1.4210 0.9643
0.1619 8.6840 -1.3757 0.9654
-1.9285 8.5286 -1.3849 0.9652
-4.1177 8.2403 -1.4590 0.9634
-5.7624 8.7204 -1.6555 0.9586
-7.4201 8.7306 -1.8147 0.9547
-12.0273 8.6837 -2.3496 0.9417
-14.3213 3.8681 -2.3496 0.9417
-15.7201 -1.5414 -2.5018 0.9380
-14.8977 -5.2492 -2.5018 0.9380
-10.7665 -11.5575 -2.5018 0.9380
-9.2990 -12.7681 -2.5018 0.9380
-7.6965 -13.7934 -2.5018 0.9380
-4.0122 -14.6149 -2.4004 0.9405
4.6261 -12.0102 -2.5018 0.9489
6.0365 -11.3670 -2.5018 0.9489
9.6669 -8.4970 -2.5018 0.9489
10.6183 -7.2732 -2.5018 0.9489
11.4157 -5.9438 -2.5018 0.9489
12.0475 -4.5283 -2.5018 0.9489
8.2867 2.0545 -1.6595 0.9658
6.1655 2.3457 -1.2822 0.9735
5.9204 3.1128 -1.3002 0.9731
9.9449 6.8705 -2.3496 0.9519
5.7562 8.3297 -1.9681 0.9596
4.2739 8.1264 -1.7848 0.9633
2.1511 8.6718 -1.7367 0.9642
0.0185 8.6849 -1.6882 0.9652
-1.0199 8.5750 -1.6785 0.9654
-2.0577 8.4486 -1.6902 0.9652
-9.0126 8.0547 -2.3496 0.9519
-9.9156 6.9128 -2.3496 0.9519
-10.6747 5.6706 -2.3496 0.9519
-11.2790 4.3461 -2.3496 0.9519
-12.4515 3.1434 -2.4963 0.9490
-12.7671 1.6272 -2.5018 0.9489
-12.8702 0.0805 -2.5018 0.9489
-12.7865 -1.4673 -2.5018 0.9489
-12.0666 -4.4770 -2.5018 0.9489
-11.4409 -5.8952 -2.5018 0.9489
-10.6492 -7.2279 -2.5018 0.9489
-9.7030 -8.4557 -2.5018 0.9489
-8.6160 -9.5609 -2.5018 0.9489
-7.4041 -10.5274 -2.5018 0.9489
-3.2018 -12.4658 -2.5018 0.9489
-0.1337 -12.8697 -2.5018 0.9489
5.8479 -11.4651 -2.5018 0.9489
7.1839 -10.6789 -2.5018 0.9489
10.4967 -7.4475 -2.5018 0.9489
11.9710 -4.7267 -2.5018 0.9489
12.4524 -3.2532 -2.5018 0.9489
12.7982 1.3617 -2.5018 0.9489
8.8300 2.0350 -1.7614 0.9637
5.9304 2.9941 -1.2913 0.9733
9.1779 7.8658 -2.3496 0.9519
4.4670 8.1632 -1.8088 0.9628
3.4622 8.6637 -1.8136 0.9627
1.2154 8.6776 -1.7032 0.9649
-2.9901 8.3757 -1.7287 0.9644
-5.7624 8.7204 -2.0317 0.9583
-7.4201 8.7306 -2.2272 0.9544
-8.8783 8.2025 -2.3496 0.9519
-9.8001 7.0756 -2.3496 0.9519
-10.5796 5.8461 -2.3496 0.9519
-12.2784 3.3163 -2.4722 0.9495
-12.7385 1.8378 -2.5018 0.9489
-12.8090 -1.2559 -2.5018 0.9489
-10.7671 -7.0511 -2.5018 0.9489
-4.8746 -11.9116 -2.5018 0.9489
7.2200 -8.0806 -2.5018 0.9565
8.1391 -7.1540 -2.5018 0.9565
8.9401 -6.1237 -2.5018 0.9565
9.6115 -5.0044 -2.5018 0.9565
10.1434 -3.8126 -2.5018 0.9565
10.7551 1.3243 -2.5018 0.9565
8.1178 2.0126 -1.9309 0.9662
8.3731 5.7847 -2.3496 0.9591
7.6170 6.7493 -2.3496 0.9591
6.7503 7.6161 -2.3496 0.9591
4.5453 8.6423 -2.2543 0.9607
2.1512 8.6718 -2.0627 0.9640
-1.0199 8.5750 -1.9936 0.9652
-2.0422 8.3853 -1.9925 0.9652
-5.7500 8.3970 -2.3496 0.9591
-8.3484 5.8203 -2.3496 0.9591
-10.7493 1.3701 -2.5018 0.9565
-10.7656 -1.2354 -2.5018 0.9565
-10.5390 -2.5207 -2.5018 0.9565
-10.1595 -3.7694 -2.5018 0.9565
-9.6327 -4.9635 -2.5018 0.9565
-8.9661 -6.0856 -2.5018 0.9565
-8.1695 -7.1193 -2.5018 0.9565
-7.2543 -8.0498 -2.5018 0.9565
-6.2339 -8.8636 -2.5018 0.9565
-2.6958 -10.4956 -2.5018 0.9565
-0.1125 -10.8357 -2.5018 0.9565
6.0485 -8.9911 -2.5018 0.9565
7.0855 -8.1988 -2.5018 0.9565
8.8378 -6.2705 -2.5018 0.9565
9.5275 -5.1625 -2.5018 0.9565
10.0791 -3.9796 -2.5018 0.9565
10.8351 -0.1573 -2.5018 0.9565
10.7755 1.1465 -2.5018 0.9565
8.8176 2.0321 -2.0891 0.9635
6.0100 2.1736 -1.4755 0.9741
5.9232 8.2757 -2.3496 0.9591
3.4622 8.6637 -2.1540 0.9624
2.3036 8.6709 -2.0713 0.9638
1.2154 8.6776 -2.0229 0.9647
0.1619 8.6840 -2.0052 0.9650
-6.5907 7.7547 -2.3496 0.9591
-8.2512 5.9573 -2.3496 0.9591
-9.5469 3.8610 -2.3775 0.9586
-10.4614 2.8256 -2.5018 0.9565
-10.7252 1.5474 -2.5018 0.9565
-10.5792 -2.3463 -2.5018 0.9565
-8.2859 -6.9835 -2.5018 0.9565
-4.1042 -10.0290 -2.5018 0.9565
-2.8687 -10.4496 -2.5018 0.9565
3.3560 -8.7127 -2.5018 0.9621
4.3791 -8.2460 -2.5018 0.9621
8.7397 -3.2850 -2.5018 0.9621
9.0712 -2.2105 -2.5018 0.9621
8.2246 2.0391 -2.2705 0.9655
5.7356 2.1821 -1.6443 0.9749
5.5524 2.9193 -1.6809 0.9744
7.2144 4.9842 -2.3496 0.9643
6.5629 5.8153 -2.3496 0.9643
5.8162 6.5622 -2.3496 0.9643
2.1112 8.5107 -2.3496 0.9643
0.0187 8.7686 -2.3496 0.9643
-1.0357 8.7073 -2.3496 0.9643
-2.0749 8.5196 -2.3496 0.9643
-3.0841 8.2084 -2.3496 0.9643
-7.1931 5.0148 -2.3496 0.9643
-7.7667 4.1258 -2.3565 0.9642
-8.7123 3.3571 -2.5018 0.9621
-9.0527 2.2854 -2.5018 0.9621
-9.2617 1.1805 -2.5018 0.9621
-9.0805 -2.1719 -2.5018 0.9621
-8.7536 -3.2478 -2.5018 0.9621
-8.2996 -4.2766 -2.5018 0.9621
-7.7253 -5.2434 -2.5018 0.9621
-6.2504 -6.9358 -2.5018 0.9621
-5.3712 -7.6370 -2.5018 0.9621
-1.2187 -9.2568 -2.5018 0.9621
1.0261 -9.2801 -2.5018 0.9621
3.2116 -8.7669 -2.5018 0.9621
4.2423 -8.3172 -2.5018 0.9621
5.2114 -7.7469 -2.5018 0.9621
6.9100 -6.2790 -2.5018 0.9621
9.3357 -0.1355 -2.5018 0.9621
9.2843 0.9878 -2.5018 0.9621
7.2957 4.8643 -2.3496 0.9643
5.9237 6.4652 -2.3496 0.9643
5.1035 7.1304 -2.3496 0.9643
3.2540 8.1425 -2.3496 0.9643
1.2163 8.6839 -2.3496 0.9643
-3.9196 7.8439 -2.3496 0.9643
-5.6786 6.6815 -2.3496 0.9643
-7.1093 5.1329 -2.3496 0.9643
-7.6748 4.2410 -2.3496 0.9643
-9.0137 2.4346 -2.5018 0.9621
-9.2410 1.3332 -2.5018 0.9621
-9.3342 0.2126 -2.5018 0.9621
-9.2921 -0.9111 -2.5018 0.9621
-9.1152 -2.0216 -2.5018 0.9621
-8.3691 -4.1390 -2.5018 0.9621
-7.8108 -5.1151 -2.5018 0.9621
-6.3641 -6.8317 -2.5018 0.9621
-3.5362 -8.6411 -2.5018 0.9621
-2.4717 -9.0036 -2.5018 0.9621
