ply
format ascii 1.0
element vertex 1546
property float32 x
property float32 y
property float32 z
property float32 I
end_header
-0.8070 8.6900 0.1523 0.9657
-1.8821 8.6966 0.1553 0.9650
-3.0097 8.6830 0.1604 0.9639
-7.2823 8.7298 0.1984 0.9555
-15.5337 8.7701 0.3114 0.9311
-21.2161 8.8064 0.4010 0.9122
-40.3084 -8.5579 0.7193 0.8480
-65.3523 -31.5895 1.2670 0.7480
-82.7376 -53.1246 1.7163 0.6748
-61.8071 -65.1662 1.5677 0.6982
-19.8956 -34.9188 0.7015 0.8515
-13.2602 -31.5953 0.5981 0.8719
-5.9356 -37.6639 0.6655 0.8585
-3.0145 -84.2165 1.4709 0.7138
41.8747 -87.5051 1.6933 0.6783
27.9320 -43.8804 0.9079 0.8121
32.1606 -39.1746 0.8847 0.8165
32.4633 -24.2889 0.7077 0.8503
94.3299 7.6408 1.6519 0.6848
32.6605 20.6104 0.6741 0.8568
10.5844 8.6200 0.2383 0.9469
35.0828 -24.3050 -0.7450 0.8430
57.8461 14.0228 -1.0389 0.7881
52.5346 19.6757 -0.9792 0.7990
38.8887 20.1908 -0.7648 0.8392
13.0528 8.9187 -0.2759 0.9387
9.8346 8.6246 -0.2283 0.9490
3.3266 8.6090 -0.1611 0.9638
2.1765 8.5878 -0.1546 0.9652
0.0621 8.6846 -0.1516 0.9659
-2.0724 8.6978 -0.1561 0.9649
-3.2061 8.6638 -0.1612 0.9637
-4.4541 8.6618 -0.1700 0.9618
-5.8495 8.6335 -0.1820 0.9591
-9.6882 8.7446 -0.2278 0.9491
-56.8558 7.5262 -1.0011 0.7950
-57.6882 -13.5060 -1.0342 0.7890
-65.1255 -33.1664 -1.2757 0.7465
-21.1830 -23.2845 -0.5495 0.8817
-14.3298 -20.1725 -0.4319 0.9058
-7.7039 -19.4807 -0.3657 0.9196
-5.3953 -20.6079 -0.3718 0.9183
-3.0087 -22.0630 -0.3887 0.9148
-0.4204 -28.0137 -0.4890 0.8940
26.8353 -53.2093 -1.0402 0.7879
23.5264 -35.3174 -0.7407 0.8439
32.0481 -29.3865 -0.7590 0.8403
47.8125 -12.7185 -0.8636 0.8204
32.3586 16.1606 -0.6313 0.8653
13.1970 8.7165 -0.2761 0.9387
10.1495 8.6227 -0.2325 0.9481
6.2450 8.6467 -0.1862 0.9582
3.4860 8.6165 -0.1622 0.9635
2.3203 8.5869 -0.1553 0.9650
-0.8515 8.6903 -0.1524 0.9657
-7.3581 8.7302 -0.1993 0.9554
-9.3856 8.7427 -0.2239 0.9500
-21.2607 8.6987 -0.4010 0.9122
-55.6236 8.2536 -0.9815 0.7985
-75.4447 -26.2475 -1.3943 0.7265
-23.9383 -25.4971 -0.6105 0.8694
-7.9948 -19.3235 -0.3650 0.9197
23.5537 -36.5908 -0.7596 0.8402
32.3187 -38.9621 -0.8836 0.8167
32.0423 -30.3208 -0.7700 0.8382
42.8561 -24.3528 -0.8604 0.8210
47.5052 9.9481 -0.8472 0.8235
32.6620 20.8438 -0.6763 0.8564
6.4530 8.6454 -0.1883 0.9578
3.6461 8.6205 -0.1634 0.9632
0.3349 8.6830 -0.1517 0.9658
-0.7139 8.6894 -0.1522 0.9657
-1.7854 8.6960 -0.1550 0.9651
-2.9050 8.6779 -0.1597 0.9641
-4.1184 8.6679 -0.1675 0.9623
-11.6361 8.7565 -0.2542 0.9434
-20.4353 8.7380 -0.3879 0.9149
-55.6179 9.1474 -0.9839 0.7981
-89.4139 3.8007 -1.5621 0.6991
-75.4609 -5.9015 -1.3212 0.7387
-62.6940 -39.3203 -1.2917 0.7437
-15.4847 -20.4095 -0.4472 0.9026
-13.6559 -31.5929 -0.6008 0.8714
-6.0475 -20.4549 -0.3723 0.9182
-2.7209 -16.1478 -0.2858 0.9366
-1.1952 -25.7373 -0.4497 0.9021
30.0239 -64.4912 -1.2417 0.7523
22.7755 -36.6329 -0.7529 0.8415
41.3155 -24.3433 -0.8370 0.8254
57.6053 -25.1684 -1.0973 0.7776
95.9499 6.7467 -1.6789 0.6806
26.2918 8.4584 -0.4821 0.8954
40.1679 18.5086 -0.7720 0.8378
10.8152 8.6186 -0.2414 0.9462
6.6658 8.6441 -0.1905 0.9573
5.1346 8.6367 -0.1754 0.9606
3.8063 8.6195 -0.1645 0.9630
2.6116 8.5849 -0.1566 0.9647
0.4715 8.6821 -0.1518 0.9658
-2.7565 8.6849 -0.1590 0.9642
-5.2724 8.6307 -0.1765 0.9603
-6.8989 8.7274 -0.1942 0.9565
-8.8102 8.7392 -0.2166 0.9516
-11.2605 8.7542 -0.2490 0.9445
-14.5960 8.7551 -0.2971 0.9342
-19.6045 8.7493 -0.3747 0.9177
-63.8482 3.7189 -1.1164 0.7742
-49.3828 -9.1330 -0.8766 0.8180
-75.1898 -23.5398 -1.3753 0.7296
-66.0636 -29.8145 -1.2651 0.7483
-62.5205 -37.8570 -1.2758 0.7465
-12.1115 -20.0131 -0.4083 0.9107
-8.7813 -19.4705 -0.3728 0.9181
-1.4871 -23.9136 -0.4182 0.9086
31.9909 -32.2352 -0.7927 0.8339
77.8628 -24.6919 -1.4258 0.7212
41.4303 18.3073 -0.7906 0.8343
33.1623 19.7260 -0.6735 0.8570
11.1679 8.6164 -0.2462 0.9451
8.7656 8.6312 -0.2147 0.9520
6.8839 8.6427 -0.1929 0.9568
5.3254 8.6457 -0.1772 0.9602
3.9686 8.6184 -0.1656 0.9628
-2.6092 8.6918 -0.1584 0.9643
-5.0885 8.6314 -0.1749 0.9607
-6.6780 8.7261 -0.1918 0.9570
-8.5362 8.7375 -0.2132 0.9523
-27.1718 8.8520 -0.4988 0.8920
-56.8333 11.1903 -1.0111 0.7932
-75.4311 -32.6263 -1.4345 0.7198
-61.8063 -36.1106 -1.2495 0.7510
-1.8080 -23.1896 -0.4060 0.9111
27.7983 -95.3135 -1.7330 0.6722
37.4317 -87.4817 -1.6609 0.6834
32.0679 -26.1648 -0.7224 0.8474
38.4709 -24.3259 -0.7945 0.8335
51.3972 -24.4053 -0.9931 0.7964
95.0537 -19.4921 -1.6937 0.6783
29.5868 8.5032 -0.5373 0.8841
34.3666 19.7187 -0.6916 0.8534
9.0436 8.6294 -0.2182 0.9512
4.1333 8.6173 -0.1668 0.9625
2.9106 8.5895 -0.1583 0.9644
-1.3619 8.6934 -0.1536 0.9654
-1.6679 5.8906 -0.1069 0.9758
-6.4623 8.7247 -0.1895 0.9575
-10.5537 8.7499 -0.2393 0.9466
-17.9266 8.6854 -0.3477 0.9234
-25.7643 8.8434 -0.4755 0.8968
-56.8276 12.1191 -1.0142 0.7926
-57.0762 5.1267 -1.0003 0.7951
-89.5005 -2.7707 -1.5630 0.6989
-75.4363 -11.5150 -1.3320 0.7369
-61.1908 -34.4740 -1.2259 0.7550
-64.0031 -47.0183 -1.3862 0.7278
-12.9990 -20.0315 -0.4168 0.9089
-9.8470 -28.3257 -0.5234 0.8869
-4.5980 -21.1538 -0.3779 0.9170
24.2436 -88.2572 -1.5976 0.6934
35.8135 -87.4717 -1.6498 0.6851
27.8943 -49.9696 -0.9989 0.7954
28.2982 -38.8391 -0.8388 0.8251
37.1535 -24.3178 -0.7751 0.8372
70.3381 -24.7617 -1.3016 0.7421
58.2938 -12.9109 -1.0422 0.7875
31.3967 8.4921 -0.5677 0.8780
49.3853 19.9939 -0.9300 0.8080
35.6376 19.7108 -0.7109 0.8497
11.9176 8.6118 -0.2566 0.9429
9.3232 8.6207 -0.2216 0.9505
5.7102 8.6499 -0.1809 0.9594
4.3005 8.6162 -0.1681 0.9622
3.0643 8.5967 -0.1593 0.9641
0.8828 8.6796 -0.1523 0.9657
-0.1665 8.6860 -0.1516 0.9658
-3.4682 8.6643 -0.1629 0.9634
-4.7390 8.6482 -0.1721 0.9613
-8.0128 8.7343 -0.2069 0.9537
-13.1662 8.7660 -0.2761 0.9387
-56.8069 13.0502 -1.0174 0.7920
-21.7743 2.3010 -0.3822 0.9161
-89.5600 -12.2352 -1.5778 0.6965
-59.7503 -15.6586 -1.0782 0.7811
-75.5792 -29.9099 -1.4188 0.7224
-63.7890 -45.3364 -1.3660 0.7312
-19.3545 -22.4336 -0.5172 0.8882
-7.1830 -19.6619 -0.3654 0.9197
34.1808 -87.3718 -1.6376 0.6871
23.5160 -33.3639 -0.7125 0.8493
32.0108 -35.4479 -0.8337 0.8261
32.0573 -27.8778 -0.7415 0.8437
24.7709 -16.7743 -0.5222 0.8872
47.4419 -24.3810 -0.9310 0.8078
66.5866 -24.6225 -1.2392 0.7528
57.9502 14.7017 -1.0436 0.7873
36.9821 19.7025 -0.7314 0.8457
12.9552 9.0554 -0.2759 0.9387
7.5720 8.6385 -0.2005 0.9551
4.4702 8.6150 -0.1694 0.9619
2.0798 8.5885 -0.1542 0.9653
-0.0302 8.6852 -0.1516 0.9659
-1.0833 8.6917 -0.1529 0.9656
-2.1704 8.6984 -0.1565 0.9648
-3.3110 8.6634 -0.1619 0.9636
-4.5682 8.6564 -0.1708 0.9616
-5.9848 8.6341 -0.1834 0.9588
-7.7624 8.7327 -0.2039 0.9543
-9.8991 8.7459 -0.2306 0.9485
-12.7244 8.7632 -0.2697 0.9401
-16.6184 8.7061 -0.3275 0.9277
-23.3100 8.8283 -0.4351 0.9051
-53.5477 13.1899 -0.9626 0.8020
-23.7623 2.8890 -0.4178 0.9087
-57.7287 -14.1642 -1.0375 0.7884
-75.4744 -28.5065 -1.4082 0.7241
-63.3615 -43.5520 -1.3420 0.7352
-20.5879 -23.1191 -0.5404 0.8835
-8.4022 -33.5434 -0.6036 0.8708
-5.0819 -40.4727 -0.7120 0.8494
-0.1261 -28.7764 -0.5023 0.8913
29.6043 -79.3216 -1.4776 0.7127
22.6828 -33.2791 -0.7030 0.8512
32.0519 -28.7690 -0.7518 0.8417
45.6430 -24.3699 -0.9031 0.8130
57.7440 13.6881 -1.0359 0.7887
53.1605 19.6030 -0.9890 0.7972
7.8138 8.6370 -0.2033 0.9545
4.6427 8.6139 -0.1708 0.9616
2.2228 8.5875 -0.1548 0.9651
-5.7855 8.6332 -0.1814 0.9593
-7.5190 8.7312 -0.2011 0.9549
-16.0483 8.7312 -0.3189 0.9295
-21.9292 8.7014 -0.4118 0.9099
-77.0549 -8.0719 -1.3522 0.7335
-58.2750 -13.3318 -1.0435 0.7873
-75.3721 -27.1234 -1.3982 0.7258
-59.5344 -29.9394 -1.1632 0.7660
-59.8778 -51.1568 -1.3747 0.7297
-14.3732 -20.0177 -0.4301 0.9061
-7.8100 -19.4599 -0.3660 0.9195
-3.0800 -21.7608 -0.3836 0.9158
-0.5534 -27.5586 -0.4811 0.8956
28.6532 -80.6148 -1.4934 0.7102
32.0462 -29.6856 -0.7625 0.8397
33.5579 -24.2957 -0.7232 0.8473
47.5925 -12.9190 -0.8608 0.8210
95.2302 9.2208 -1.6700 0.6820
8.0626 8.6355 -0.2062 0.9538
6.3117 8.6462 -0.1869 0.9581
2.3670 8.5866 -0.1555 0.9650
0.2426 8.6835 -0.1516 0.9658
-0.8070 8.6900 -0.1523 0.9657
-1.8821 8.6966 -0.1553 0.9650
-3.0063 8.6732 -0.1602 0.9639
-5.5906 8.6322 -0.1795 0.9597
-7.2823 8.7298 -0.1984 0.9555
-11.8993 8.7582 -0.2579 0.9426
-15.4595 8.7282 -0.3099 0.9314
-29.1231 8.1514 -0.5279 0.8860
-75.4707 -6.7098 -1.3225 0.7385
-40.3356 -8.5636 -0.7197 0.8479
-64.1340 -31.0006 -1.2434 0.7520
-62.9297 -40.4062 -1.3054 0.7414
-11.2864 -19.8089 -0.3979 0.9128
-8.1533 -19.4269 -0.3677 0.9192
-5.8293 -20.5161 -0.3723 0.9182
-0.9315 -26.0228 -0.4545 0.9011
29.5083 -87.3430 -1.6092 0.6915
38.0206 -79.4511 -1.5374 0.7030
31.9836 -38.9590 -0.8798 0.8174
32.0404 -30.6286 -0.7737 0.8375
42.3489 -24.3497 -0.8527 0.8225
86.4947 -24.9432 -1.5713 0.6976
95.2209 7.7129 -1.6675 0.6824
25.2147 8.4085 -0.4639 0.8991
38.9481 18.4507 -0.7523 0.8416
10.5844 8.6200 -0.2383 0.9469
8.3186 8.6339 -0.2093 0.9532
6.5213 8.6450 -0.1890 0.9576
44.5196 5.2462 -2.3493 0.8356
43.5658 10.5611 -2.3493 0.8356
27.1258 10.1594 -1.5180 0.8905
13.0528 8.9187 -0.8285 0.9386
9.8346 8.6246 -0.6855 0.9490
6.0416 8.6479 -0.5529 0.9586
4.5849 8.6109 -0.5113 0.9617
0.0621 8.6846 -0.4552 0.9658
-3.2061 8.6638 -0.4841 0.9637
-4.4427 8.6397 -0.5091 0.9618
-5.8164 8.5846 -0.5434 0.9593
-9.6882 8.7446 -0.6840 0.9491
-16.1591 8.6855 -0.9614 0.9292
-21.8286 8.5335 -1.2283 0.9104
-28.0202 7.2185 -1.5164 0.8906
-45.1207 0.4999 -2.3648 0.8347
-44.5107 -16.2733 -2.4837 0.8271
-42.5338 -21.6611 -2.5015 0.8260
-39.6207 -26.6181 -2.5015 0.8260
-20.9999 -23.0833 -1.6355 0.8825
-10.4513 -19.2627 -1.1485 0.9160
-7.5849 -19.1797 -1.0809 0.9207
-2.9374 -21.5404 -1.1393 0.9166
-0.4134 -27.5475 -1.4439 0.8955
5.0275 -47.4663 -2.5015 0.8260
10.6983 -46.5174 -2.5015 0.8260
16.2138 -44.8936 -2.5015 0.8260
24.8523 -37.3079 -2.3493 0.8356
31.9438 -29.2908 -2.2714 0.8406
33.7745 -24.1921 -2.1773 0.8467
47.2684 -6.6350 -2.5015 0.8260
47.7233 -0.9035 -2.5015 0.8260
10.1495 8.6227 -0.6980 0.9481
7.9814 8.6360 -0.6163 0.9540
4.7645 8.6194 -0.5161 0.9613
2.3091 8.5454 -0.4639 0.9652
0.8344 5.7791 -0.3060 0.9769
-3.0548 8.6709 -0.4818 0.9638
-4.2758 8.6464 -0.5055 0.9621
-12.0277 8.7589 -0.7798 0.9421
-15.6076 8.7076 -0.9366 0.9309
-26.2644 7.2078 -1.4273 0.8966
-44.7835 -4.2108 -2.3574 0.8351
-39.2609 -8.5440 -2.1057 0.8513
-43.7138 -15.2082 -2.4256 0.8308
-40.0337 -25.9928 -2.5015 0.8260
-36.6180 -30.6178 -2.5015 0.8260
-10.9764 -19.4942 -1.1725 0.9143
-7.9675 -19.2575 -1.0922 0.9199
-3.2624 -21.4070 -1.1348 0.9169
-0.8040 -26.1769 -1.3725 0.9004
15.5070 -45.1426 -2.5015 0.8260
23.5537 -36.5908 -2.2806 0.8400
28.6197 -34.5027 -2.3493 0.8356
29.1059 -27.5422 -2.1001 0.8517
41.3548 -17.3003 -2.3493 0.8356
47.1584 -7.3763 -2.5015 0.8260
47.7032 -1.6526 -2.5015 0.8260
47.5558 4.0951 -2.5015 0.8260
43.8759 9.1881 -2.3493 0.8356
27.1709 13.0408 -1.5795 0.8863
27.2486 17.3892 -1.6941 0.8786
10.4761 8.6207 -0.7110 0.9471
8.2350 8.6344 -0.6253 0.9533
6.4530 8.6454 -0.5654 0.9577
4.9477 8.6280 -0.5212 0.9609
3.6369 8.5988 -0.4893 0.9633
1.3920 8.6765 -0.4605 0.9654
-4.1078 8.6456 -0.5016 0.9624
-5.4352 8.5911 -0.5328 0.9601
-7.1255 8.7288 -0.5905 0.9559
-15.0894 8.7319 -0.9137 0.9326
-44.8025 7.3687 -2.3795 0.8337
-45.1209 1.9179 -2.3668 0.8345
-44.8679 -3.5090 -2.3586 0.8350
-39.8014 -8.0092 -2.1277 0.8499
-42.8973 -14.1732 -2.3677 0.8345
-40.4369 -25.3611 -2.5015 0.8260
-31.1925 -32.1955 -2.3493 0.8356
-15.2041 -20.0396 -1.3183 0.9042
-11.3283 -19.4002 -1.1774 0.9139
-8.2040 -18.9801 -1.0837 0.9205
9.2325 -46.8304 -2.5015 0.8260
14.7963 -45.3806 -2.5015 0.8260
20.1454 -43.2723 -2.5015 0.8260
28.0745 -34.9477 -2.3493 0.8356
31.9322 -31.1813 -2.3390 0.8363
41.0781 -17.9475 -2.3493 0.8356
40.4582 -12.1344 -2.2136 0.8444
47.0368 -8.1157 -2.5015 0.8260
47.6714 -2.4013 -2.5015 0.8260
47.6142 3.3480 -2.5015 0.8260
44.0148 8.4981 -2.3493 0.8356
25.8048 8.3017 -1.4206 0.8971
5.1346 8.6367 -0.5266 0.9606
3.7966 8.5976 -0.4926 0.9631
6.4303 36.4146 -1.9379 0.8623
-0.5767 8.6886 -0.4564 0.9657
-2.7565 8.6849 -0.4775 0.9642
-6.8990 8.7274 -0.5830 0.9564
-8.8102 8.7392 -0.6503 0.9515
-11.2605 8.7542 -0.7475 0.9445
-19.5276 8.7150 -1.1207 0.9179
-44.7105 8.0763 -2.3811 0.8336
-45.1034 2.6271 -2.3678 0.8345
-43.5065 -19.6345 -2.5015 0.8260
-37.5612 -29.4530 -2.5015 0.8260
-31.6941 -31.7018 -2.3493 0.8356
-11.7570 -19.4273 -1.1901 0.9131
-8.5033 -18.8541 -1.0839 0.9205
-6.2705 -20.0460 -1.1008 0.9193
-1.4617 -23.5062 -1.2343 0.9100
2.2557 -38.5659 -2.0246 0.8566
8.4962 -46.9696 -2.5015 0.8260
14.0820 -45.6073 -2.5015 0.8260
19.4635 -43.5832 -2.5015 0.8260
22.7142 -29.2025 -1.9389 0.8623
31.9686 -25.2582 -2.1352 0.8494
36.7462 -22.4356 -2.2564 0.8416
39.0723 -12.3906 -2.1482 0.8486
46.9036 -8.8533 -2.5015 0.8260
47.6609 2.6001 -2.5015 0.8260
28.3412 12.5235 -1.6238 0.8833
27.2262 16.1951 -1.6602 0.8808
8.7656 8.6312 -0.6447 0.9519
3.9585 8.5964 -0.4960 0.9628
2.7519 8.5611 -0.4713 0.9646
0.6083 8.6813 -0.4561 0.9657
-5.0751 8.6087 -0.5237 0.9608
-6.6780 8.7261 -0.5759 0.9569
-14.0711 8.7436 -0.8682 0.9358
-18.8223 8.7572 -1.0880 0.9202
-44.6032 8.7822 -2.3824 0.8335
-45.0743 3.3362 -2.3687 0.8344
-42.9851 -12.7200 -2.3493 0.8356
-43.8094 -18.9489 -2.5015 0.8260
-38.0190 -28.8597 -2.5015 0.8260
-16.6213 -20.5354 -1.3846 0.8996
-9.0148 -19.1791 -1.1106 0.9186
-6.5638 -19.8825 -1.0973 0.9196
-4.2356 -21.0750 -1.1266 0.9175
-1.7670 -22.6641 -1.1914 0.9130
7.7577 -47.0972 -2.5015 0.8260
26.9634 -35.8119 -2.3493 0.8356
29.3600 -30.5283 -2.2197 0.8440
37.8886 -23.9577 -2.3493 0.8356
46.7588 -9.5886 -2.5015 0.8260
47.5725 -3.8968 -2.5015 0.8260
27.8058 15.9542 -1.6801 0.8795
11.5350 8.6141 -0.7545 0.9440
9.0436 8.6294 -0.6551 0.9512
7.1073 8.6414 -0.5864 0.9562
1.7882 8.5494 -0.4577 0.9656
-3.6188 8.6444 -0.4911 0.9632
-6.4623 8.7247 -0.5690 0.9574
-8.2705 8.7359 -0.6305 0.9530
-10.5537 8.7499 -0.7185 0.9466
-13.6295 8.7688 -0.8494 0.9371
-45.0509 -1.3947 -2.3621 0.8348
-43.9525 -6.7092 -2.3301 0.8369
-43.1795 -12.0436 -2.3493 0.8356
-23.7756 -22.3328 -1.7095 0.8775
-17.6932 -21.1710 -1.4460 0.8954
-12.7758 -19.6876 -1.2300 0.9103
-4.5708 -21.0286 -1.1278 0.9174
1.2112 -44.8113 -2.3493 0.8356
18.0856 -44.1728 -2.5015 0.8260
21.8924 -39.2179 -2.3539 0.8353
26.3978 -36.2308 -2.3493 0.8356
36.9918 -24.2119 -2.3170 0.8377
40.1875 -19.8617 -2.3493 0.8356
39.1359 -13.7774 -2.1744 0.8469
46.6025 -10.3215 -2.5015 0.8260
47.5054 -4.6433 -2.5015 0.8260
47.7191 1.1023 -2.5015 0.8260
44.3661 6.4164 -2.3493 0.8356
31.3967 8.4921 -1.7046 0.8779
21.1713 8.5713 -1.1970 0.9126
27.2090 15.0490 -1.6295 0.8829
11.9176 8.6118 -0.7706 0.9428
9.3232 8.6207 -0.6655 0.9504
7.3366 8.6399 -0.5940 0.9556
5.7102 8.6499 -0.5432 0.9593
-0.1665 8.6861 -0.4553 0.9658
-7.8433 29.4568 -1.5976 0.8851
-17.1345 8.6363 -1.0056 0.9260
-24.4829 8.8355 -1.3641 0.9010
-44.3542 10.1894 -2.3850 0.8334
-21.7704 2.3006 -1.1473 0.9160
-43.5042 -5.9433 -2.3011 0.8387
-44.3827 -17.5641 -2.5015 0.8260
-41.9489 -22.7731 -2.5015 0.8260
-35.2992 -32.1293 -2.5015 0.8260
-19.0212 -22.0473 -1.5260 0.8899
-13.4412 -20.0177 -1.2636 0.9079
-7.0824 -19.3864 -1.0817 0.9207
-4.8237 -20.6263 -1.1101 0.9187
0.5075 -44.8248 -2.3493 0.8356
6.2752 -47.3175 -2.5015 0.8260
17.3898 -44.4513 -2.5015 0.8260
21.8649 -40.6557 -2.4193 0.8312
30.0439 -33.2698 -2.3493 0.8356
31.9530 -27.7871 -2.2192 0.8440
24.7649 -16.7703 -1.5675 0.8871
39.8707 -20.4901 -2.3493 0.8356
42.0451 -15.5475 -2.3493 0.8356
46.4347 -11.0518 -2.5015 0.8260
44.4613 5.7190 -2.3493 0.8356
43.4716 11.0286 -2.3504 0.8356
22.1573 8.5681 -1.2450 0.9092
27.1955 14.4887 -1.6149 0.8839
12.9552 9.0554 -0.8284 0.9387
9.6277 8.6259 -0.6775 0.9495
7.5720 8.6385 -0.6020 0.9550
3.2119 8.5823 -0.4802 0.9640
0.6769 5.7559 -0.3037 0.9771
-0.0302 8.6852 -0.4552 0.9658
-4.5565 8.6341 -0.5116 0.9617
-7.7624 8.7327 -0.6123 0.9543
-9.8991 8.7459 -0.6923 0.9485
-16.5423 8.6662 -0.9787 0.9279
-29.3383 7.2267 -1.5835 0.8860
-45.1101 0.0204 -2.3641 0.8347
-42.6781 -5.1494 -2.2529 0.8418
-40.7696 -10.0032 -2.2000 0.8452
-39.3356 -27.0376 -2.5015 0.8260
-10.1555 -19.2016 -1.1384 0.9167
-7.4239 -19.3720 -1.0872 0.9203
-5.1488 -20.5551 -1.1105 0.9186
-2.7219 -21.6775 -1.1450 0.9162
-0.1238 -28.2564 -1.4809 0.8930
16.6899 -44.7188 -2.5015 0.8260
21.8383 -42.1803 -2.4893 0.8267
22.6828 -33.2791 -2.1107 0.8510
31.9476 -28.6754 -2.2498 0.8420
39.5441 -21.1136 -2.3493 0.8356
41.7958 -16.2058 -2.3493 0.8356
46.2555 -11.7795 -2.5015 0.8260
47.7302 -0.3964 -2.5015 0.8260
27.1235 10.0018 -1.5150 0.8907
27.1860 13.9401 -1.6011 0.8848
13.0994 8.8534 -0.8286 0.9386
7.8138 8.6370 -0.6104 0.9544
6.1068 8.6475 -0.5548 0.9585
4.6426 8.6137 -0.5128 0.9616
2.2121 8.5461 -0.4626 0.9653
0.7648 5.7270 -0.3028 0.9771
-0.9449 8.6908 -0.4582 0.9656
-2.0257 8.6975 -0.4680 0.9649
-5.7529 8.5845 -0.5416 0.9595
-9.5892 8.7440 -0.6801 0.9493
-15.9735 8.6904 -0.9530 0.9298
-21.6435 8.5880 -1.2203 0.9109
-36.5796 5.0312 -1.9351 0.8625
-45.1239 0.7290 -2.3651 0.8346
-44.2584 -15.9268 -2.4651 0.8283
-39.7553 -26.4167 -2.5015 0.8260
-36.2907 -31.0051 -2.5015 0.8260
-21.4274 -23.3143 -1.6595 0.8809
-14.3244 -19.9497 -1.2871 0.9063
-10.5722 -19.2518 -1.1511 0.9158
-7.7078 -19.2052 -1.0845 0.9205
-5.4354 -20.3391 -1.1033 0.9191
-3.0404 -21.4806 -1.1370 0.9168
10.4621 -46.5711 -2.5015 0.8260
15.9857 -44.9753 -2.5015 0.8260
21.2774 -42.7270 -2.5015 0.8260
24.6627 -37.4336 -2.3493 0.8356
28.9846 -34.1966 -2.3493 0.8356
29.7432 -27.5522 -2.1248 0.8501
39.2077 -21.7319 -2.3493 0.8356
41.5362 -16.8600 -2.3493 0.8356
46.0648 -12.5043 -2.5015 0.8260
46.9838 4.5493 -2.4738 0.8277
43.7758 9.6538 -2.3493 0.8356
27.1166 9.5184 -1.5061 0.8913
27.1769 13.4008 -1.5880 0.8857
10.2537 8.6220 -0.7021 0.9478
4.8234 8.6221 -0.5178 0.9612
2.3556 8.5450 -0.4645 0.9651
1.2977 8.6771 -0.4598 0.9655
0.2426 8.6835 -0.4553 0.9658
-1.8821 8.6966 -0.4663 0.9650
-3.0063 8.6732 -0.4811 0.9639
-4.2213 8.6461 -0.5042 0.9622
-5.5599 8.5849 -0.5360 0.9599
-15.4373 8.7156 -0.9291 0.9315
-20.8104 8.6381 -1.1809 0.9137
-25.7400 7.2045 -1.4008 0.8985
-44.8529 6.8883 -2.3782 0.8338
-44.8190 -3.9847 -2.3581 0.8351
-43.4518 -14.8702 -2.4069 0.8320
-40.1651 -25.7894 -2.5015 0.8260
-36.7729 -30.4316 -2.5015 0.8260
-30.8486 -32.5251 -2.3493 0.8356
-14.8838 -20.0565 -1.3089 0.9048
-11.0335 -19.3649 -1.1680 0.9146
-8.0504 -19.1819 -1.0902 0.9201
-3.3820 -21.4605 -1.1386 0.9167
20.6039 -43.0558 -2.5015 0.8260
28.4441 -34.6475 -2.3493 0.8356
31.6110 -30.2182 -2.2918 0.8393
32.3220 -24.1832 -2.1156 0.8507
38.6538 -22.2251 -2.3367 0.8364
35.4846 -15.0566 -2.0202 0.8569
42.4753 -12.2490 -2.3167 0.8377
47.6942 -1.8947 -2.5015 0.8260
47.5760 3.8537 -2.5015 0.8260
28.2622 5.7688 -1.5117 0.8909
27.1680 12.8702 -1.5755 0.8866
27.2449 17.1928 -1.6884 0.8789
8.3186 8.6339 -0.6283 0.9531
6.5213 8.6450 -0.5675 0.9576
23.5032 -16.2828 -2.5015 0.8915
28.3738 -3.5295 -2.5015 0.8915
28.3960 3.3462 -2.5015 0.8915
25.1470 9.4182 -2.3493 0.8978
23.8953 12.4063 -2.3555 0.8975
13.0528 8.9187 -1.3831 0.9385
7.7349 8.6375 -1.0144 0.9545
4.5849 8.6109 -0.8535 0.9616
3.3098 8.5653 -0.8034 0.9638
0.7352 5.7261 -0.5051 0.9771
0.0621 8.6846 -0.7598 0.9657
-5.7925 8.5494 -0.9035 0.9594
-7.5970 8.7317 -1.0126 0.9546
-9.6882 8.7446 -1.1418 0.9489
-12.4369 8.7615 -1.3310 0.9407
-21.1199 8.2564 -1.9839 0.9130
-26.0291 6.7056 -2.3516 0.8977
-23.1706 3.0672 -2.0448 0.9104
-27.8396 -6.5178 -2.5015 0.8915
-21.6444 -18.6829 -2.5015 0.8915
-13.9453 -19.6314 -2.1068 0.9078
-10.4093 -19.1855 -1.9097 0.9161
-5.2707 -20.1321 -1.8207 0.9198
-2.9157 -21.3811 -1.8879 0.9170
9.7124 -26.8923 -2.5015 0.8915
12.8754 -25.5294 -2.5015 0.8915
15.8516 -23.7961 -2.5015 0.8915
23.2446 -16.6498 -2.5015 0.8915
25.0779 -13.7341 -2.5015 0.8915
27.6316 -7.3502 -2.5015 0.8915
28.3149 -3.9745 -2.5015 0.8915
13.1970 8.7165 -1.3837 0.9385
10.1495 8.6227 -1.1652 0.9479
0.8344 5.7790 -0.5108 0.9768
0.1985 8.6838 -0.7599 0.9657
-3.0548 8.6709 -0.8043 0.9638
-4.2647 8.6238 -0.8417 0.9621
-5.6049 8.5588 -0.8951 0.9598
-7.3581 8.7302 -0.9989 0.9552
-9.3856 8.7427 -1.1222 0.9498
-15.4003 8.5919 -1.5429 0.9316
-25.9339 7.1170 -2.3528 0.8976
-26.8432 0.7190 -2.3493 0.8978
-28.4669 -2.6766 -2.5015 0.8915
-27.0048 -9.3951 -2.5015 0.8915
-21.9350 -18.3408 -2.5015 0.8915
-18.3799 -19.5768 -2.3493 0.8978
-14.4622 -19.6966 -2.1379 0.9065
-10.8327 -19.2388 -1.9317 0.9152
-7.9019 -19.0990 -1.8083 0.9204
12.4730 -25.7284 -2.5015 0.8915
15.4760 -24.0420 -2.5015 0.8915
20.7681 -19.6523 -2.5015 0.8915
22.9804 -17.0127 -2.5015 0.8915
24.8592 -14.1262 -2.5015 0.8915
26.3773 -11.0347 -2.5015 0.8915
28.2490 -4.4186 -2.5015 0.8915
28.5753 -0.9900 -2.5015 0.8915
28.4870 2.4530 -2.5015 0.8915
6.4530 8.6454 -0.9438 0.9576
4.9477 8.6280 -0.8702 0.9609
2.4482 8.5263 -0.7761 0.9650
-4.0972 8.6233 -0.8353 0.9624
-11.6361 8.7565 -1.2741 0.9432
-14.9329 8.6414 -1.5094 0.9331
-23.4661 3.8594 -2.0806 0.9089
-28.0306 -5.6405 -2.5015 0.8915
-27.1490 -8.9700 -2.5015 0.8915
-25.8735 -12.1692 -2.5015 0.8915
-24.2226 -15.1919 -2.5015 0.8915
-22.2203 -17.9941 -2.5015 0.8915
-15.2292 -20.0727 -2.2044 0.9038
-11.2660 -19.2935 -1.9547 0.9142
-8.2308 -19.0419 -1.8149 0.9201
-1.1256 -24.2382 -2.1228 0.9072
1.9886 -26.7791 -2.3493 0.8978
8.8633 -27.1840 -2.5015 0.8915
12.0676 -25.9211 -2.5015 0.8915
22.7104 -17.3714 -2.5015 0.8915
26.2008 -11.4475 -2.5015 0.8915
27.3872 -8.2141 -2.5015 0.8915
28.1761 -4.8615 -2.5015 0.8915
26.3659 5.0906 -2.3493 0.8978
25.5625 8.2238 -2.3493 0.8978
24.4082 11.2468 -2.3512 0.8977
8.4962 8.6328 -1.0597 0.9525
6.6658 8.6441 -0.9550 0.9571
3.7870 8.5758 -0.8202 0.9631
4.7912 27.1325 -2.4105 0.8953
0.4715 8.6821 -0.7607 0.9657
-0.5767 8.6886 -0.7618 0.9656
-1.6434 8.6951 -0.7742 0.9651
-3.9354 8.6296 -0.8298 0.9626
-5.2397 8.5772 -0.8793 0.9604
-24.6801 7.6139 -2.2596 0.9015
-26.4251 4.7733 -2.3493 0.8978
-28.1157 -5.1998 -2.5015 0.8915
-11.7099 -19.3495 -1.9787 0.9132
-8.5468 -18.9506 -1.8188 0.9199
-1.4429 -23.2037 -2.0340 0.9109
20.1409 -20.2947 -2.5015 0.8915
26.0179 -11.8574 -2.5015 0.8915
26.4425 4.6760 -2.3493 0.8978
24.5665 10.8555 -2.3498 0.8978
23.1905 13.7945 -2.3607 0.8973
11.1679 8.6164 -1.2341 0.9449
8.7656 8.6312 -1.0763 0.9518
3.9515 8.5812 -0.8265 0.9628
1.6720 8.6714 -0.7726 0.9652
0.6083 8.6813 -0.7614 0.9657
-0.4397 8.6877 -0.7611 0.9657
-1.5023 8.6943 -0.7719 0.9652
-2.6092 8.6918 -0.7940 0.9642
-6.6780 8.7261 -0.9613 0.9568
-17.6976 8.2339 -1.7077 0.9246
-24.3666 7.9382 -2.2421 0.9022
-26.3470 5.1876 -2.3493 0.8978
-23.5715 1.7446 -2.0679 0.9095
-28.1939 -4.7578 -2.5015 0.8915
-27.4172 -8.1132 -2.5015 0.8915
-24.6877 -14.4239 -2.5015 0.8915
-22.7742 -17.2876 -2.5015 0.8915
-12.1649 -19.4069 -2.0039 0.9121
-7.1190 -15.1456 -1.4660 0.9350
-4.1641 -20.7190 -1.8489 0.9186
-1.7349 -22.2520 -1.9527 0.9143
8.0055 -27.4489 -2.5015 0.8915
14.3268 -24.7441 -2.5015 0.8915
19.8197 -20.6084 -2.5015 0.8915
22.1539 -18.0758 -2.5015 0.8915
24.1665 -15.2809 -2.5015 0.8915
28.0096 -5.7438 -2.5015 0.8915
25.8081 7.4172 -2.3493 0.8978
24.7291 10.4665 -2.3493 0.8978
9.0436 8.6294 -1.0936 0.9510
14.7230 23.0830 -2.3953 0.8959
-3.6188 8.6444 -0.8199 0.9631
-4.8868 8.5949 -0.8650 0.9611
-6.4623 8.7247 -0.9499 0.9573
-8.2705 8.7359 -1.0525 0.9528
-17.2687 8.3666 -1.6788 0.9258
-27.5412 -7.6817 -2.5015 0.8915
-24.9111 -14.0345 -2.5015 0.8915
-20.7796 -19.5186 -2.4942 0.8918
-9.3213 -19.0483 -1.8553 0.9184
-6.8117 -19.5944 -1.8149 0.9201
-2.0482 -21.8412 -1.9192 0.9157
13.9366 -24.9660 -2.5015 0.8915
16.8373 -23.1091 -2.5015 0.8915
19.4938 -20.9170 -2.5015 0.8915
21.8673 -18.4214 -2.5015 0.8915
23.9236 -15.6585 -2.5015 0.8915
27.9160 -6.1828 -2.5015 0.8915
28.4568 -2.7815 -2.5015 0.8915
28.5848 0.6603 -2.5015 0.8915
28.2980 4.0926 -2.5015 0.8915
24.8903 10.0769 -2.3493 0.8978
23.5842 13.0442 -2.3579 0.8974
11.9176 8.6118 -1.2864 0.9427
9.3232 8.6207 -1.1109 0.9503
4.2910 8.5971 -0.8406 0.9622
0.8828 8.6796 -0.7633 0.9656
-3.4632 8.6517 -0.8153 0.9633
-4.7145 8.6035 -0.8583 0.9614
-6.1173 8.5359 -0.9188 0.9587
-8.0128 8.7343 -1.0370 0.9535
-20.6891 17.7083 -2.3826 0.8964
-22.7529 8.2112 -2.1163 0.9074
-26.1738 6.0129 -2.3496 0.8978
-21.6651 2.2894 -1.9060 0.9162
-26.8497 -0.4094 -2.3493 0.8978
-28.3293 -3.8702 -2.5015 0.8915
-25.1284 -13.6416 -2.5015 0.8915
-17.5412 -20.3318 -2.3493 0.8978
-13.1112 -19.5262 -2.0577 0.9099
-9.7204 -19.0986 -1.8749 0.9176
-7.0995 -19.4334 -1.8101 0.9203
-2.3757 -21.6675 -1.9070 0.9162
0.3040 -26.8511 -2.3493 0.8978
3.7590 -28.3443 -2.5015 0.8915
13.5429 -25.1817 -2.5015 0.8915
19.1629 -21.2205 -2.5015 0.8915
21.5754 -18.7625 -2.5015 0.8915
23.6749 -16.0321 -2.5015 0.8915
25.4308 -13.0692 -2.5015 0.8915
27.8155 -6.6203 -2.5015 0.8915
28.5917 0.2115 -2.5015 0.8915
28.3588 3.6477 -2.5015 0.8915
26.0283 6.6033 -2.3493 0.8978
25.0455 9.6849 -2.3493 0.8978
23.7718 12.6647 -2.3565 0.8975
12.9552 9.0554 -1.3829 0.9385
7.5720 8.6385 -1.0050 0.9549
4.4652 8.6053 -0.8482 0.9618
3.2038 8.5605 -0.7997 0.9640
0.6769 5.7559 -0.5070 0.9770
-1.0833 8.6917 -0.7663 0.9654
-2.1704 8.6984 -0.7843 0.9646
-5.9215 8.5429 -0.9094 0.9591
-7.7624 8.7327 -1.0222 0.9542
-9.8991 8.7459 -1.1557 0.9483
-12.7244 8.7632 -1.3517 0.9398
-21.9557 8.3154 -2.0540 0.9100
-26.0893 6.4263 -2.3507 0.8977
-23.0729 2.8052 -2.0335 0.9109
-26.8528 0.0121 -2.3493 0.8978
-27.7688 -6.8133 -2.5015 0.8915
-26.7482 -10.1027 -2.5015 0.8915
-25.3394 -13.2455 -2.5015 0.8915
-10.1282 -19.1500 -1.8953 0.9167
-7.4396 -19.4131 -1.8189 0.9199
-2.6991 -21.4960 -1.8954 0.9167
-0.1176 -26.8525 -2.3493 0.8978
6.7042 -27.7954 -2.5015 0.8915
9.9977 -26.7876 -2.5015 0.8915
13.1460 -25.3912 -2.5015 0.8915
16.1035 -23.6263 -2.5015 0.8915
18.8275 -21.5187 -2.5015 0.8915
26.6587 -10.3365 -2.5015 0.8915
27.7081 -7.0562 -2.5015 0.8915
28.3555 -3.6735 -2.5015 0.8915
28.5915 -0.2375 -2.5015 0.8915
28.4126 3.2020 -2.5015 0.8915
26.1287 6.1938 -2.3493 0.8978
23.9533 12.2824 -2.3551 0.8976
4.6426 8.6137 -0.8561 0.9615
3.3607 8.5676 -0.8052 0.9637
0.1062 8.6844 -0.7598 0.9657
-2.0257 8.6975 -0.7813 0.9648
-3.1570 8.6661 -0.8069 0.9636
-4.3776 8.6203 -0.8458 0.9619
-5.7314 8.5524 -0.9007 0.9595
-15.7497 8.5687 -1.5687 0.9305
-20.9452 8.3109 -1.9715 0.9135
-25.9990 6.8387 -2.3520 0.8977
-26.8493 0.4338 -2.3493 0.8978
-28.4368 -2.9789 -2.5015 0.8915
-27.8724 -6.3765 -2.5015 0.8915
-26.9035 -9.6815 -2.5015 0.8915
-18.1709 -19.7710 -2.3493 0.8978
-14.1108 -19.6523 -2.1167 0.9074
-7.6942 -19.1713 -1.8073 0.9204
-5.3665 -20.0813 -1.8185 0.9199
-3.0186 -21.3265 -1.8844 0.9171
-0.5260 -26.1928 -2.2920 0.9002
6.2670 -27.8972 -2.5015 0.8915
12.7457 -25.5945 -2.5015 0.8915
18.4873 -21.8117 -2.5015 0.8915
20.9757 -19.4306 -2.5015 0.8915
25.0079 -13.8612 -2.5015 0.8915
26.4931 -10.7538 -2.5015 0.8915
26.2227 5.7829 -2.3493 0.8978
24.1285 11.8977 -2.3537 0.8976
14.0003 9.1454 -1.4631 0.9351
10.2537 8.6220 -1.1721 0.9476
8.0626 8.6355 -1.0336 0.9537
6.3117 8.6462 -0.9366 0.9579
3.5198 8.5748 -0.8109 0.9635
-0.8070 8.6900 -0.7635 0.9656
-3.0063 8.6732 -0.8031 0.9638
-5.5450 8.5618 -0.8924 0.9599
-9.2900 8.7421 -1.1160 0.9501
-15.2374 8.6027 -1.5309 0.9322
-20.4180 8.4751 -1.9341 0.9151
-23.3650 3.5883 -2.0681 0.9094
-26.8392 0.8553 -2.3493 0.8978
-25.7428 -12.4433 -2.5015 0.8915
-22.0278 -18.2292 -2.5015 0.8915
-18.4790 -19.4833 -2.3493 0.8978
-7.9543 -18.9529 -1.7983 0.9208
-5.6698 -19.9547 -1.8149 0.9201
-3.3345 -21.1590 -1.8740 0.9176
-0.8946 -24.9912 -2.1878 0.9045
2.1857 -25.7284 -2.2591 0.9015
9.1516 -27.0883 -2.5015 0.8915
15.3538 -24.1203 -2.5015 0.8915
20.6681 -19.7574 -2.5015 0.8915
22.8938 -17.1290 -2.5015 0.8915
27.4729 -7.9226 -2.5015 0.8915
28.2262 -4.5619 -2.5015 0.8915
28.4991 2.3084 -2.5015 0.8915
26.3103 5.3704 -2.3493 0.8978
25.4737 8.4949 -2.3493 0.8978
13.9978 8.8333 -1.4481 0.9357
8.3186 8.6339 -1.0489 0.9530
16.7469 -11.6021 -2.5015 0.9212
20.3731 -0.0658 -2.5015 0.9212
20.2332 2.3843 -2.5015 0.9212
17.9182 6.7109 -2.3493 0.9258
16.9813 8.8166 -2.3493 0.9258
7.7349 8.6375 -1.4236 0.9543
6.0416 8.6479 -1.2953 0.9584
0.7351 5.7261 -0.7088 0.9770
0.0621 8.6846 -1.0664 0.9656
-2.0724 8.6978 -1.0978 0.9646
-4.4056 8.5676 -1.1829 0.9619
-5.7469 8.4820 -1.2580 0.9596
-9.6882 8.7446 -1.6025 0.9488
-12.4369 8.7615 -1.8679 0.9405
-16.8529 9.0584 -2.3492 0.9258
-18.5287 4.7733 -2.3493 0.9258
-20.2513 -2.2254 -2.5015 0.9212
-19.8368 -4.6442 -2.5015 0.9212
-18.1546 -9.2456 -2.5015 0.9212
-16.9112 -11.3613 -2.5015 0.9212
-15.4225 -13.3122 -2.5015 0.9212
-13.7099 -15.0700 -2.5015 0.9212
-11.0807 -15.5986 -2.3493 0.9258
-4.8460 -18.5098 -2.3493 0.9258
-0.2871 -19.1315 -2.3493 0.9258
2.0870 -19.7045 -2.4329 0.9233
9.1742 -18.1907 -2.5015 0.9212
11.2949 -16.9557 -2.5015 0.9212
13.2516 -15.4746 -2.5015 0.9212
15.0161 -13.7690 -2.5015 0.9212
16.5627 -11.8636 -2.5015 0.9212
17.8690 -9.7861 -2.5015 0.9212
19.6885 -5.2373 -2.5015 0.9212
20.1754 -2.8320 -2.5015 0.9212
20.3696 -0.3856 -2.5015 0.9212
20.2682 2.0664 -2.5015 0.9212
18.0213 6.4287 -2.3493 0.9258
13.1970 8.7165 -1.9419 0.9383
10.1495 8.6227 -1.6352 0.9477
4.7403 8.5756 -1.2031 0.9613
3.4512 8.5306 -1.1299 0.9636
0.8344 5.7789 -0.7169 0.9767
0.1985 8.6838 -1.0665 0.9656
-0.8515 8.6903 -1.0721 0.9654
-4.2418 8.5775 -1.1749 0.9622
-7.3581 8.7302 -1.4019 0.9550
-18.9264 2.8084 -2.3493 0.9258
-20.3659 0.5455 -2.5015 0.9212
-20.2838 -1.9072 -2.5015 0.9212
-19.9073 -4.3322 -2.5015 0.9212
-18.2975 -8.9594 -2.5015 0.9212
-17.0875 -11.0944 -2.5015 0.9212
-15.6295 -13.0685 -2.5015 0.9212
-13.9449 -14.8529 -2.5015 0.9212
-2.8826 -18.9153 -2.3493 0.9258
-0.5874 -19.1246 -2.3493 0.9258
1.7194 -19.0902 -2.3535 0.9257
4.2540 -19.9241 -2.5015 0.9212
6.6188 -19.2681 -2.5015 0.9212
14.7981 -14.0030 -2.5015 0.9212
17.7131 -10.0654 -2.5015 0.9212
18.7949 -7.8626 -2.5015 0.9212
19.6039 -5.5457 -2.5015 0.9212
20.1285 -3.1484 -2.5015 0.9212
20.2981 1.7479 -2.5015 0.9212
18.1200 6.1450 -2.3493 0.9258
13.9985 8.9334 -2.0390 0.9353
8.2350 8.6344 -1.4650 0.9531
4.9211 8.5816 -1.2146 0.9609
3.6105 8.5364 -1.1380 0.9633
1.3920 8.6765 -1.0790 0.9652
-0.7139 8.6894 -1.0705 0.9655
-1.7854 8.6960 -1.0900 0.9649
-4.0801 8.5872 -1.1673 0.9624
-5.3822 8.5073 -1.2361 0.9602
-11.6361 8.7565 -1.7881 0.9430
-17.5928 7.5226 -2.3493 0.9258
-18.3697 5.3527 -2.3493 0.9258
-18.8800 3.1052 -2.3493 0.9258
-20.3548 0.8652 -2.5015 0.9212
-20.3112 -1.5885 -2.5015 0.9212
-19.3447 -6.3915 -2.5015 0.9212
-15.8328 -12.8215 -2.5015 0.9212
-14.1763 -14.6322 -2.5015 0.9212
-11.7898 -15.5394 -2.3950 0.9244
-9.6483 -16.5229 -2.3493 0.9258
-5.4248 -18.3485 -2.3493 0.9258
-0.8876 -19.1130 -2.3493 0.9258
6.3154 -19.3696 -2.5015 0.9212
8.5986 -18.4698 -2.5015 0.9212
14.5764 -14.2336 -2.5015 0.9212
18.6691 -8.1567 -2.5015 0.9212
19.5144 -5.8529 -2.5015 0.9212
20.3474 -1.0250 -2.5015 0.9212
20.3230 1.4290 -2.5015 0.9212
19.8984 3.8419 -2.4883 0.9216
18.2143 5.8598 -2.3493 0.9258
17.3776 8.0073 -2.3493 0.9258
10.8152 8.6186 -1.6980 0.9458
8.4962 8.6328 -1.4872 0.9524
3.7721 8.5422 -1.1466 0.9631
3.3715 19.0924 -2.3805 0.9248
0.4715 8.6821 -1.0676 0.9656
-1.6434 8.6951 -1.0865 0.9650
-5.2038 8.5184 -1.2257 0.9606
-6.8989 8.7274 -1.3660 0.9562
-8.8102 8.7392 -1.5237 0.9512
-11.2605 8.7542 -1.7513 0.9441
-17.4726 7.7978 -2.3493 0.9258
-18.2834 5.6404 -2.3493 0.9258
-20.3299 1.1842 -2.5004 0.9212
-20.3336 -1.2694 -2.5015 0.9212
-20.0335 -3.7050 -2.5015 0.9212
-19.4427 -6.0869 -2.5015 0.9212
-16.0321 -12.5713 -2.5015 0.9212
-12.2872 -15.6776 -2.4457 0.9229
-9.9065 -16.3694 -2.3493 0.9258
-2.9617 -16.0361 -2.0023 0.9364
-1.1875 -19.0968 -2.3493 0.9258
3.6264 -20.0479 -2.5015 0.9212
8.3075 -18.6025 -2.5015 0.9212
12.5083 -16.0814 -2.5015 0.9212
17.3884 -10.6166 -2.5015 0.9212
18.5388 -8.4488 -2.5015 0.9212
19.4201 -6.1585 -2.5015 0.9212
20.0197 -3.7788 -2.5015 0.9212
20.3288 -1.3443 -2.5015 0.9212
20.3429 1.1098 -2.5015 0.9212
20.0620 3.5477 -2.5015 0.9212
18.3040 5.5731 -2.3493 0.9258
17.5011 7.7334 -2.3493 0.9258
16.4443 9.7817 -2.3493 0.9258
11.1679 8.6164 -1.7319 0.9447
6.8839 8.6427 -1.3567 0.9564
3.9362 8.5480 -1.1555 0.9628
2.7334 8.5037 -1.0967 0.9646
0.6083 8.6813 -1.0685 0.9655
-1.5023 8.6943 -1.0833 0.9651
-3.7626 8.6060 -1.1533 0.9629
-8.5362 8.7375 -1.4998 0.9520
-14.0711 8.7436 -2.0341 0.9354
-18.1926 5.9268 -2.3493 0.9258
-18.7732 3.6964 -2.3493 0.9258
-20.2707 1.5004 -2.4957 0.9214
-20.3511 -0.9500 -2.5015 0.9212
-20.0892 -3.3901 -2.5015 0.9212
-19.5358 -5.7809 -2.5015 0.9212
-18.6990 -8.0879 -2.5015 0.9212
-16.2275 -12.3181 -2.5015 0.9212
-12.7807 -15.7902 -2.4943 0.9214
-10.1622 -16.2119 -2.3493 0.9258
-5.9982 -18.1692 -2.3493 0.9258
3.3112 -20.1023 -2.5015 0.9212
8.0145 -18.7306 -2.5015 0.9212
12.2543 -16.2758 -2.5015 0.9212
15.7855 -12.8797 -2.5015 0.9212
17.2196 -10.8883 -2.5015 0.9212
19.9579 -4.0927 -2.5015 0.9212
20.3052 -1.6633 -2.5015 0.9212
20.3579 0.7902 -2.5015 0.9212
17.6204 7.4577 -2.3493 0.9258
16.5959 9.5223 -2.3493 0.9258
7.1073 8.6414 -1.3738 0.9559
4.1029 8.5538 -1.1648 0.9625
2.8835 8.5094 -1.1032 0.9644
1.7688 8.4566 -1.0608 0.9658
-0.3031 8.6869 -1.0673 0.9656
-1.6671 5.8876 -0.7513 0.9756
-4.8556 8.5401 -1.2062 0.9612
-8.2705 8.7359 -1.4771 0.9527
-17.2191 8.3426 -2.3493 0.9258
-18.0973 6.2117 -2.3493 0.9258
-19.6242 -5.4735 -2.5015 0.9212
-18.8237 -7.7934 -2.5015 0.9212
-17.7501 -10.0001 -2.5015 0.9212
-14.8495 -13.9484 -2.5015 0.9212
-13.0488 -15.6137 -2.4985 0.9213
-6.2827 -18.0727 -2.3493 0.9258
5.3965 -19.6455 -2.5015 0.9212
7.7194 -18.8541 -2.5015 0.9212
11.9973 -16.4661 -2.5015 0.9212
13.8901 -14.9042 -2.5015 0.9212
15.5813 -13.1260 -2.5015 0.9212
17.0465 -11.1573 -2.5015 0.9212
18.2643 -9.0267 -2.5015 0.9212
19.8912 -4.4055 -2.5015 0.9212
20.2766 -1.9819 -2.5015 0.9212
12.4068 3.3558 -1.5781 0.9495
17.7353 7.1802 -2.3493 0.9258
11.9176 8.6118 -1.8054 0.9425
5.7102 8.6499 -1.2726 0.9591
3.0353 8.5151 -1.1100 0.9642
1.9111 8.4710 -1.0662 0.9656
0.8828 8.6796 -1.0712 0.9655
-1.2223 8.6925 -1.0778 0.9652
-4.9860 18.7256 -2.3793 0.9249
-3.4522 8.6242 -1.1406 0.9633
-4.6855 8.5505 -1.1972 0.9615
-19.1459 2.0232 -2.3639 0.9253
-19.7077 -5.1648 -2.5015 0.9212
-18.9437 -7.4969 -2.5015 0.9212
-17.9049 -9.7202 -2.5015 0.9212
-16.6063 -11.8025 -2.5015 0.9212
-15.0666 -13.7136 -2.5015 0.9212
-10.6662 -15.8849 -2.3493 0.9258
-8.6789 -17.0521 -2.3493 0.9258
-4.3571 -18.6310 -2.3493 0.9258
5.0873 -19.7278 -2.5015 0.9212
7.4224 -18.9730 -2.5015 0.9212
9.6498 -17.9429 -2.5015 0.9212
13.6543 -15.1204 -2.5015 0.9212
15.3733 -13.3690 -2.5015 0.9212
16.8693 -11.4235 -2.5015 0.9212
19.1086 -7.0660 -2.5015 0.9212
19.8196 -4.7172 -2.5015 0.9212
20.3727 0.1507 -2.5015 0.9212
18.5461 4.7051 -2.3493 0.9258
12.9552 9.0554 -1.9408 0.9383
9.6277 8.6259 -1.5872 0.9492
5.9064 8.6487 -1.2859 0.9587
4.4446 8.5656 -1.1849 0.9619
2.0527 8.4768 -1.0709 0.9655
0.6769 5.7558 -0.7116 0.9769
-0.0302 8.6852 -1.0664 0.9656
-1.0833 8.6917 -1.0755 0.9653
-3.2994 8.6330 -1.1348 0.9634
-4.5178 8.5608 -1.1885 0.9617
-5.8570 8.4498 -1.2624 0.9594
-7.7624 8.7327 -1.4346 0.9540
-12.7244 8.7632 -1.8970 0.9396
-16.9487 8.8791 -2.3493 0.9258
-20.2265 -2.4405 -2.5015 0.9212
-19.0591 -7.1986 -2.5015 0.9212
-18.0553 -9.4379 -2.5015 0.9212
-16.7895 -11.5404 -2.5015 0.9212
-13.5490 -15.2148 -2.5015 0.9212
-10.9143 -15.7154 -2.3493 0.9258
-2.3837 -18.9846 -2.3493 0.9258
-0.0838 -19.1335 -2.3493 0.9258
2.3542 -20.1778 -2.4943 0.9214
7.1237 -19.0872 -2.5015 0.9212
9.3670 -18.0922 -2.5015 0.9212
11.4744 -16.8347 -2.5015 0.9212
13.4153 -15.3329 -2.5015 0.9212
15.1615 -13.6087 -2.5015 0.9212
17.9720 -9.5957 -2.5015 0.9212
20.2044 -2.6175 -2.5015 0.9212
20.2451 2.2816 -2.5015 0.9212
17.9520 6.6198 -2.3493 0.9258
9.9351 8.6240 -1.6153 0.9484
7.8138 8.6370 -1.4301 0.9541
6.1068 8.6475 -1.2998 0.9582
0.7648 5.7269 -0.7094 0.9770
-0.9449 8.6908 -1.0734 0.9654
-2.0257 8.6975 -1.0965 0.9647
-4.3524 8.5708 -1.1803 0.9620
-5.6882 8.4879 -1.2546 0.9597
-9.5892 8.7440 -1.5934 0.9490
-16.1156 8.7678 -2.2526 0.9287
-17.7847 7.0569 -2.3493 0.9258
-20.3705 0.3291 -2.5015 0.9212
-20.2624 -2.1226 -2.5015 0.9212
-19.1698 -6.8984 -2.5015 0.9212
-16.9686 -11.2753 -2.5015 0.9212
-7.1266 -17.7569 -2.3493 0.9258
-2.6815 -18.9448 -2.3493 0.9258
-0.3841 -19.1298 -2.3493 0.9258
1.9638 -19.4844 -2.4045 0.9241
4.4655 -19.8778 -2.5015 0.9212
6.8231 -19.1967 -2.5015 0.9212
11.2087 -17.0128 -2.5015 0.9212
13.1729 -15.5416 -2.5015 0.9212
14.9460 -13.8450 -2.5015 0.9212
17.8191 -9.8767 -2.5015 0.9212
18.8773 -7.6625 -2.5015 0.9212
19.6617 -5.3372 -2.5015 0.9212
18.0537 6.3372 -2.3493 0.9258
17.1608 8.4619 -2.3493 0.9258
10.2537 8.6220 -1.6449 0.9474
2.3400 8.4883 -1.0811 0.9651
1.2977 8.6771 -1.0773 0.9653
0.2426 8.6835 -1.0666 0.9656
-0.8070 8.6900 -1.0716 0.9654
-2.9983 8.6502 -1.1241 0.9638
-4.1893 8.5806 -1.1724 0.9622
-5.5046 8.4995 -1.2434 0.9600
-9.2900 8.7421 -1.5663 0.9499
-15.2136 8.5893 -2.1451 0.9320
-18.9119 2.9044 -2.3493 0.9258
-20.3629 0.6489 -2.5015 0.9212
-20.2932 -1.8042 -2.5015 0.9212
-18.3427 -8.8664 -2.5015 0.9212
-15.6957 -12.9890 -2.5015 0.9212
-7.4045 -17.6428 -2.3493 0.9258
-0.6844 -19.1214 -2.3493 0.9258
1.6196 -19.0650 -2.3493 0.9258
4.1528 -19.9455 -2.5015 0.9212
6.5209 -19.3015 -2.5015 0.9212
16.3127 -12.2051 -2.5015 0.9212
19.5755 -5.6452 -2.5015 0.9212
20.1122 -3.2505 -2.5015 0.9212
20.3572 -0.8087 -2.5015 0.9212
20.3067 1.6448 -2.5015 0.9212
17.2915 8.1915 -2.3493 0.9258
13.9978 8.8333 -2.0323 0.9355
8.3186 8.6339 -1.4721 0.9528
6.5213 8.6450 -1.3296 0.9573
12.9827 -8.9943 -2.5015 0.9380
13.9700 -7.3681 -2.5015 0.9380
15.6731 -1.9496 -2.5015 0.9380
15.7939 -0.0510 -2.5015 0.9380
15.2935 3.7074 -2.4924 0.9383
13.8907 5.2025 -2.3493 0.9417
5.7767 2.9992 -1.0309 0.9740
12.2471 8.3682 -2.3493 0.9417
7.7349 8.6375 -1.8364 0.9541
6.0416 8.6479 -1.6708 0.9582
4.5192 8.4877 -1.5230 0.9618
3.2644 8.4480 -1.4344 0.9640
2.1192 8.3617 -1.3662 0.9657
0.0621 8.6846 -1.3755 0.9654
-0.9896 8.6911 -1.3854 0.9652
-2.0724 8.6978 -1.4162 0.9644
-3.1692 8.5642 -1.4463 0.9637
-4.3658 8.4901 -1.5121 0.9621
-5.6294 8.3086 -1.5896 0.9602
-7.5970 8.7317 -1.8331 0.9542
-9.6882 8.7446 -2.0671 0.9485
-13.0653 7.0225 -2.3493 0.9417
-13.8149 5.4007 -2.3493 0.9417
-14.3640 3.7004 -2.3493 0.9417
-15.3781 -3.6003 -2.5015 0.9380
-11.9560 -10.3201 -2.5015 0.9380
-10.6284 -11.6827 -2.5015 0.9380
-9.1466 -12.8759 -2.5015 0.9380
-7.5320 -13.8823 -2.5015 0.9380
-3.9112 -14.9393 -2.4459 0.9394
1.6635 -15.7061 -2.5015 0.9380
3.5399 -15.3921 -2.5015 0.9380
15.2632 -4.0601 -2.5015 0.9380
15.4059 3.4795 -2.5015 0.9380
5.8218 2.9076 -1.0307 0.9740
10.1495 8.6227 -2.1093 0.9475
7.9814 8.6360 -1.8625 0.9535
0.1985 8.6838 -1.3757 0.9654
-0.8515 8.6903 -1.3830 0.9653
-1.9284 8.6969 -1.4109 0.9646
-3.0264 8.5903 -1.4425 0.9638
-5.4718 8.3556 -1.5819 0.9604
-7.3581 8.7302 -1.8084 0.9548
-11.9905 8.7319 -2.3493 0.9417
-14.3041 3.9255 -2.3493 0.9417
-15.6229 2.3182 -2.5015 0.9380
-15.7883 0.4229 -2.5015 0.9380
-15.7246 -1.4785 -2.5015 0.9380
-14.9170 -5.1897 -2.5015 0.9380
-12.1165 -10.1311 -2.5015 0.9380
-4.1460 -14.8784 -2.4463 0.9394
-2.3615 -15.4957 -2.4826 0.9385
3.2979 -15.4458 -2.5015 0.9380
5.1311 -14.9372 -2.5015 0.9380
6.8899 -14.2119 -2.5015 0.9380
8.5487 -13.2804 -2.5015 0.9380
10.0834 -12.1562 -2.5015 0.9380
12.6939 -9.3975 -2.5015 0.9380
14.5704 -6.0954 -2.5015 0.9380
15.6042 -2.4407 -2.5015 0.9380
15.7845 -0.5468 -2.5015 0.9380
8.2350 8.6344 -1.8898 0.9528
3.5775 8.4584 -1.4546 0.9635
2.4171 8.4182 -1.3872 0.9652
1.3920 8.6765 -1.3918 0.9650
0.3349 8.6830 -1.3763 0.9654
-1.7854 8.6960 -1.4060 0.9647
-4.0436 8.5105 -1.4923 0.9626
-11.8519 8.9190 -2.3493 0.9417
-12.8384 7.4293 -2.3493 0.9417
-13.6385 5.8317 -2.3493 0.9417
-15.5840 2.5631 -2.5014 0.9380
-15.7797 0.6707 -2.5015 0.9380
-15.4836 -3.1157 -2.5015 0.9380
-14.9966 -4.9549 -2.5015 0.9380
-14.2921 -6.7221 -2.5015 0.9380
-6.2522 -14.4645 -2.4958 0.9382
-2.5940 -15.3947 -2.4727 0.9387
1.1696 -15.7506 -2.5015 0.9380
4.8959 -15.0159 -2.5015 0.9380
6.6659 -14.3183 -2.5015 0.9380
9.8914 -12.3130 -2.5015 0.9380
11.3001 -11.0344 -2.5015 0.9380
15.1282 -4.5373 -2.5015 0.9380
15.5640 -2.6854 -2.5015 0.9380
15.7739 -0.7946 -2.5015 0.9380
15.7550 1.1078 -2.5015 0.9380
15.5075 2.9941 -2.5015 0.9380
5.9554 2.7441 -1.0386 0.9738
5.7024 3.5143 -1.0609 0.9732
8.4962 8.6328 -1.9184 0.9521
2.5625 8.4235 -1.3945 0.9650
-0.5767 8.6886 -1.3792 0.9653
-2.7431 8.6428 -1.4362 0.9639
-5.1551 8.4386 -1.5662 0.9607
-6.8989 8.7274 -1.7620 0.9559
-13.5453 6.0451 -2.3493 0.9417
-14.1738 4.3726 -2.3493 0.9417
-15.7633 -0.9841 -2.5015 0.9380
-15.5306 -2.8723 -2.5015 0.9380
-13.5102 -8.1806 -2.5015 0.9380
-11.1666 -11.1694 -2.5015 0.9380
-8.1773 -13.5122 -2.5015 0.9380
-6.4822 -14.3727 -2.4972 0.9381
-4.6204 -14.7709 -2.4513 0.9392
-0.9801 -15.7607 -2.5011 0.9380
4.6596 -15.0909 -2.5015 0.9380
6.4403 -14.4212 -2.5015 0.9380
11.1255 -11.2104 -2.5015 0.9380
12.3927 -9.7914 -2.5015 0.9380
15.5199 -2.9295 -2.5015 0.9380
15.7595 -1.0421 -2.5015 0.9380
15.5526 2.7503 -2.5015 0.9380
14.5550 4.4316 -2.4098 0.9402
5.6843 3.3812 -1.0475 0.9736
8.7656 8.6312 -1.9484 0.9514
6.8839 8.6427 -1.7500 0.9562
3.8997 8.4687 -1.4767 0.9629
2.7094 8.4288 -1.4023 0.9648
1.6720 8.6714 -1.3987 0.9649
0.6083 8.6813 -1.3784 0.9654
-1.5023 8.6943 -1.3974 0.9649
-2.6023 8.6689 -1.4336 0.9640
-3.7294 8.5301 -1.4745 0.9630
-4.9816 8.4501 -1.5536 0.9611
-10.9001 8.7520 -2.2140 0.9450
-13.4487 6.2571 -2.3493 0.9417
-14.1034 4.5946 -2.3493 0.9417
-15.4506 3.0421 -2.4941 0.9382
-15.7508 1.1658 -2.5015 0.9380
-15.5738 -2.6281 -2.5015 0.9380
-11.3406 -10.9927 -2.5015 0.9380
-9.9366 -12.2765 -2.5015 0.9380
-4.8615 -14.7259 -2.4562 0.9391
-3.0567 -15.2091 -2.4571 0.9391
-1.2266 -15.7324 -2.4993 0.9381
2.5670 -15.5839 -2.5015 0.9380
4.4221 -15.1622 -2.5015 0.9380
9.4999 -12.6175 -2.5015 0.9380
10.9481 -11.3837 -2.5015 0.9380
15.4720 -3.1728 -2.5015 0.9380
14.5607 4.1847 -2.3996 0.9405
6.2623 2.6505 -1.0770 0.9728
5.6671 3.2516 -1.0348 0.9739
11.8847 8.8753 -2.3493 0.9417
7.1073 8.6414 -1.7721 0.9557
4.0646 8.4739 -1.4885 0.9627
2.8579 8.4340 -1.4104 0.9646
-3.5749 8.5396 -1.4663 0.9632
-6.0586 8.1797 -1.6122 0.9596
-10.5537 8.7499 -2.1713 0.9460
-12.4743 8.0255 -2.3493 0.9417
-13.3488 6.4674 -2.3493 0.9417
-14.0296 4.8155 -2.3493 0.9417
-14.9465 3.1875 -2.4205 0.9400
-15.7306 1.4129 -2.5015 0.9380
-15.7864 -0.4887 -2.5015 0.9380
-14.5927 -6.0417 -2.5015 0.9380
-10.1282 -12.1190 -2.5015 0.9380
-8.5975 -13.2488 -2.5015 0.9380
-6.9397 -14.1814 -2.5006 0.9381
-5.1035 -14.6806 -2.4617 0.9390
2.3220 -15.6223 -2.5015 0.9380
5.9843 -14.6163 -2.5015 0.9380
9.3006 -12.7651 -2.5015 0.9380
10.7680 -11.5542 -2.5015 0.9380
12.0791 -10.1756 -2.5015 0.9380
14.1591 -6.9978 -2.5015 0.9380
14.8977 -5.2446 -2.5015 0.9380
6.4511 2.6118 -1.1023 0.9722
12.0226 8.6876 -2.3493 0.9417
9.3232 8.6207 -2.0112 0.9499
7.3366 8.6399 -1.7952 0.9551
5.7102 8.6499 -1.6416 0.9589
-0.1665 8.6860 -1.3760 0.9654
-3.8390 14.4179 -2.3631 0.9414
-3.4221 8.5489 -1.4585 0.9634
-8.0128 8.7343 -1.8773 0.9531
-12.3468 8.2204 -2.3493 0.9417
-14.4584 3.3215 -2.3496 0.9417
-15.7065 1.6598 -2.5015 0.9380
-15.7921 -0.2408 -2.5015 0.9380
-14.6858 -5.8118 -2.5015 0.9380
-13.8804 -7.5354 -2.5015 0.9380
-10.3171 -11.9585 -2.5015 0.9380
0.1788 -15.7929 -2.5015 0.9380
2.0764 -15.6568 -2.5015 0.9380
5.7541 -14.7085 -2.5015 0.9380
7.4809 -13.9099 -2.5015 0.9380
9.0991 -12.9095 -2.5015 0.9380
10.5853 -11.7218 -2.5015 0.9380
11.9179 -10.3640 -2.5015 0.9380
14.0475 -7.2192 -2.5015 0.9380
15.6930 -1.7830 -2.5015 0.9380
15.7935 0.1168 -2.5015 0.9380
15.2056 3.8576 -2.4846 0.9384
5.7495 3.0631 -1.0318 0.9740
12.1575 8.4978 -2.3493 0.9417
9.6277 8.6259 -2.0474 0.9490
7.5720 8.6385 -1.8194 0.9545
4.4023 8.4842 -1.5139 0.9620
2.0195 8.3395 -1.3590 0.9658
-1.0833 8.6917 -1.3873 0.9651
-2.1704 8.6984 -1.4199 0.9643
-3.2708 8.5581 -1.4511 0.9636
-4.4767 8.4830 -1.5192 0.9619
-5.7369 8.2765 -1.5950 0.9600
-7.7624 8.7327 -1.8506 0.9538
-13.1391 6.8833 -2.3493 0.9417
-13.8715 5.2536 -2.3493 0.9417
-15.3390 -3.7635 -2.5015 0.9380
-14.7752 -5.5805 -2.5015 0.9380
-11.8456 -10.4465 -2.5015 0.9380
-10.5036 -11.7950 -2.5015 0.9380
-5.6033 -14.6213 -2.4800 0.9386
1.8303 -15.6875 -2.5015 0.9380
7.2616 -14.0256 -2.5015 0.9380
8.8953 -13.0508 -2.5015 0.9380
10.4000 -11.8865 -2.5015 0.9380
11.7537 -10.5498 -2.5015 0.9380
13.9324 -7.4389 -2.5015 0.9380
14.7258 -5.7097 -2.5015 0.9380
15.3054 -3.8977 -2.5015 0.9380
15.6630 -2.0292 -2.5015 0.9380
15.7934 -0.1312 -2.5015 0.9380
15.6946 1.7687 -2.5015 0.9380
15.3386 3.6360 -2.4967 0.9382
13.9169 5.1319 -2.3493 0.9417
12.2894 8.3059 -2.3493 0.9417
9.9351 8.6240 -2.0837 0.9481
7.8138 8.6370 -1.8447 0.9539
6.1068 8.6475 -1.6767 0.9580
4.5756 8.4894 -1.5275 0.9617
0.7648 5.7269 -0.9151 0.9769
0.1062 8.6844 -1.3756 0.9654
-0.9449 8.6908 -1.3846 0.9652
-2.0257 8.6975 -1.4144 0.9645
-5.5783 8.3239 -1.5870 0.9602
-7.5190 8.7312 -1.8250 0.9544
-9.5892 8.7440 -2.0554 0.9488
-12.0826 8.6039 -2.3493 0.9417
-13.7873 5.4707 -2.3493 0.9417
-14.3450 3.7733 -2.3493 0.9417
-15.6466 2.1520 -2.5015 0.9380
-15.3962 -3.5222 -2.5015 0.9380
-14.8610 -5.3479 -2.5015 0.9380
-14.1102 -7.0959 -2.5015 0.9380
-12.0082 -10.2592 -2.5015 0.9380
-9.2118 -12.8293 -2.5015 0.9380
-7.6024 -13.8438 -2.5015 0.9380
-3.9871 -14.9197 -2.4460 0.9394
-0.3171 -15.7908 -2.5015 0.9380
1.5838 -15.7143 -2.5015 0.9380
5.2895 -14.8818 -2.5015 0.9380
7.0405 -14.1379 -2.5015 0.9380
8.6893 -13.1888 -2.5015 0.9380
15.2423 -4.1376 -2.5015 0.9380
15.6292 -2.2748 -2.5015 0.9380
15.4233 3.4013 -2.5015 0.9380
13.9958 4.9128 -2.3493 0.9417
12.4183 8.1119 -2.3493 0.9417
10.2537 8.6220 -2.1219 0.9472
6.3117 8.6462 -1.6955 0.9576
4.7692 8.5253 -1.5472 0.9612
3.4706 8.4549 -1.4475 0.9637
-0.8070 8.6900 -1.3823 0.9653
-1.8821 8.6966 -1.4093 0.9646
-4.1517 8.5037 -1.4988 0.9624
-9.2900 8.7421 -2.0204 0.9496
-11.9460 8.7926 -2.3493 0.9417
-12.9166 7.2925 -2.3493 0.9417
-15.7859 0.5030 -2.5015 0.9380
-15.7319 -1.3987 -2.5015 0.9380
-14.9431 -5.1139 -2.5015 0.9380
-14.2198 -6.8735 -2.5015 0.9380
-13.2902 -8.5334 -2.5015 0.9380
-6.0959 -14.5247 -2.4949 0.9382
-4.2219 -14.8587 -2.4465 0.9394
-2.4369 -15.4630 -2.4793 0.9386
1.3369 -15.7372 -2.5015 0.9380
3.2194 -15.4623 -2.5015 0.9380
5.0552 -14.9631 -2.5015 0.9380
6.8176 -14.2467 -2.5015 0.9380
10.0216 -12.2072 -2.5015 0.9380
11.4167 -10.9137 -2.5015 0.9380
12.6461 -9.4618 -2.5015 0.9380
13.6920 -7.8726 -2.5015 0.9380
15.1755 -4.3763 -2.5015 0.9380
15.5916 -2.5199 -2.5015 0.9380
14.0712 4.6924 -2.3493 0.9417
5.8853 2.7880 -1.0314 0.9740
8.3186 8.6339 -1.8989 0.9526
10.5785 -7.3287 -2.5015 0.9489
11.3830 -6.0036 -2.5015 0.9489
12.0223 -4.5914 -2.5015 0.9489
12.8691 -0.0416 -2.5015 0.9489
12.7807 1.5061 -2.5015 0.9489
12.5069 3.0319 -2.5015 0.9489
5.0276 2.6103 -1.1011 0.9772
4.8624 3.3224 -1.1447 0.9763
6.0416 8.6479 -2.0506 0.9579
4.5141 8.4780 -1.8670 0.9616
3.2349 8.3717 -1.7446 0.9641
2.0731 8.1801 -1.6403 0.9662
0.0621 8.6846 -1.6882 0.9652
-2.0724 8.6978 -1.7380 0.9642
-3.1691 8.5638 -1.7750 0.9635
-5.5154 8.1404 -1.9113 0.9607
-7.5843 8.7172 -2.2460 0.9540
-10.6458 5.7221 -2.3493 0.9519
-12.4623 3.2105 -2.5015 0.9489
-12.7579 1.6888 -2.5015 0.9489
-12.8684 0.1426 -2.5015 0.9489
-12.7922 -1.4057 -2.5015 0.9489
-12.0867 -4.4189 -2.5015 0.9489
-10.6823 -7.1766 -2.5015 0.9489
-9.7419 -8.4090 -2.5015 0.9489
-8.6602 -9.5193 -2.5015 0.9489
-7.4528 -10.4915 -2.5015 0.9489
-6.1372 -11.3115 -2.5015 0.9489
-1.7389 -12.7512 -2.5015 0.9489
1.3555 -12.7976 -2.5015 0.9489
4.3715 -12.1040 -2.5015 0.9489
5.7951 -11.4906 -2.5015 0.9489
7.1346 -10.7104 -2.5015 0.9489
9.4852 -8.6975 -2.5015 0.9489
10.4622 -7.4939 -2.5015 0.9489
11.9487 -4.7796 -2.5015 0.9489
12.7442 -1.7889 -2.5015 0.9489
12.8669 -0.2436 -2.5015 0.9489
6.1931 2.2093 -1.2781 0.9736
8.2032 8.8760 -2.3493 0.9519
6.2450 8.6467 -2.0733 0.9575
0.8343 5.7787 -1.1349 0.9765
-1.9284 8.6969 -1.7316 0.9644
-3.0264 8.5903 -1.7704 0.9636
-4.1658 8.4239 -1.8267 0.9624
-7.3581 8.7302 -2.2193 0.9545
-10.5547 5.8885 -2.3493 0.9519
-11.1861 4.5767 -2.3493 0.9519
-12.3974 3.4022 -2.4989 0.9490
-12.7298 1.8889 -2.5015 0.9489
-12.8646 0.3446 -2.5015 0.9489
-12.5749 -2.7365 -2.5015 0.9489
-12.1546 -4.2286 -2.5015 0.9489
-11.5580 -5.6594 -2.5015 0.9489
-10.7937 -7.0080 -2.5015 0.9489
-9.8727 -8.2550 -2.5015 0.9489
-8.8086 -9.3822 -2.5015 0.9489
-6.3141 -11.2138 -2.5015 0.9489
-1.9388 -12.7223 -2.5015 0.9489
-0.3951 -12.8631 -2.5015 0.9489
2.6871 -12.5855 -2.5015 0.9489
4.1809 -12.1711 -2.5015 0.9489
8.2162 -9.9051 -2.5015 0.9489
9.3475 -8.8453 -2.5015 0.9489
10.3432 -7.6572 -2.5015 0.9489
12.8217 1.1041 -2.5015 0.9489
12.5960 2.6377 -2.5015 0.9489
8.3415 8.7461 -2.3493 0.9519
4.9031 8.5502 -1.9159 0.9606
2.3666 8.2423 -1.6669 0.9657
