ply
format ascii 1.0
element vertex 1557
property float32 x
property float32 y
property float32 z
property float32 I
end_header
-2.3610 8.6095 -0.4679 0.9649
-3.5092 8.5782 -0.4857 0.9636
-4.8629 8.7149 -0.5230 0.9608
-6.3558 8.7241 -0.5657 0.9577
-13.2809 8.6863 -0.8317 0.9384
-34.1109 3.3050 -1.7960 0.8717
-45.1957 -1.0879 -2.3693 0.8344
-40.9963 -5.9747 -2.1712 0.8471
-42.8869 -17.4302 -2.4261 0.8307
-38.6452 -28.0195 -2.5016 0.8260
-9.8001 -19.7387 -1.1549 0.9155
-6.7927 -19.1918 -1.0669 0.9217
-4.3686 -19.5797 -1.0514 0.9228
-2.0753 -20.9207 -1.1018 0.9192
0.4809 -22.0734 -1.1571 0.9154
12.4140 -46.0916 -2.5016 0.8260
34.1596 -29.0318 -2.3494 0.8356
42.2267 -15.0543 -2.3494 0.8356
31.8091 8.4895 -1.7254 0.8765
21.3671 8.5706 -1.2065 0.9119
16.4578 9.0363 -0.9840 0.9276
11.9715 8.5968 -0.7724 0.9427
9.3837 8.6274 -0.6680 0.9502
7.3516 8.6103 -0.5934 0.9557
5.6853 8.5639 -0.5387 0.9597
4.2829 8.5284 -0.5001 0.9625
3.1118 8.6659 -0.4826 0.9638
-6.2341 8.7233 -0.5619 0.9580
-22.2185 8.0357 -1.2382 0.9097
-21.6263 2.2948 -1.1397 0.9166
-45.2237 -0.6755 -2.3703 0.8343
-40.5775 -5.5359 -2.1463 0.8487
-38.3390 -10.0452 -2.0771 0.8532
-42.4501 -16.8027 -2.3927 0.8329
-41.9464 -22.7825 -2.5016 0.8260
-38.8993 -27.6657 -2.5016 0.8260
-35.2866 -32.1466 -2.5016 0.8260
-13.8433 -20.6476 -1.3028 0.9052
-10.0929 -19.8710 -1.1680 0.9146
-6.9776 -19.1565 -1.0685 0.9216
-4.5685 -19.6303 -1.0563 0.9224
-2.2448 -20.7043 -1.0914 0.9200
0.2788 -22.0335 -1.1548 0.9155
17.4668 -44.4236 -2.5016 0.8260
22.6868 -41.9983 -2.5016 0.8260
30.1150 -33.2086 -2.3494 0.8356
35.9255 -24.2054 -2.2703 0.8407
39.9232 -20.3927 -2.3494 0.8356
46.4669 -10.9258 -2.5016 0.8260
47.4441 -5.2537 -2.5016 0.8260
47.7315 0.4951 -2.5016 0.8260
44.4457 5.8572 -2.3494 0.8356
32.9875 8.4823 -1.7850 0.8725
7.4945 8.6170 -0.5985 0.9553
5.8022 8.5692 -0.5424 0.9594
2.0601 8.6724 -0.4671 0.9649
0.9811 8.6790 -0.4577 0.9656
-0.0702 8.6804 -0.4549 0.9658
-3.3275 8.5776 -0.4822 0.9638
-7.8460 8.7317 -0.6152 0.9541
-22.2171 8.2652 -1.2423 0.9094
-40.0988 -5.0983 -2.1184 0.8505
-42.1526 -22.3987 -2.5016 0.8260
-39.1502 -27.3095 -2.5016 0.8260
-7.1561 -19.1023 -1.0691 0.9215
-4.7297 -19.5143 -1.0523 0.9227
-2.4127 -20.5045 -1.0820 0.9206
25.5639 -36.8268 -2.3494 0.8356
33.6238 -29.6506 -2.3494 0.8356
35.2208 -24.2010 -2.2396 0.8427
39.7354 -20.7562 -2.3494 0.8356
41.9448 -15.8226 -2.3494 0.8356
46.3652 -11.3497 -2.5016 0.8260
34.2510 8.4745 -1.8491 0.8682
9.7321 8.6252 -0.6815 0.9492
7.6398 8.6238 -0.6038 0.9549
5.9206 8.5746 -0.5461 0.9591
3.2912 8.6648 -0.4858 0.9636
1.0613 8.6785 -0.4582 0.9656
0.0090 8.6583 -0.4538 0.9659
-3.2375 8.5772 -0.4805 0.9639
-4.5536 8.7130 -0.5152 0.9614
-5.9956 8.7219 -0.5547 0.9585
-7.6724 8.6969 -0.6078 0.9546
-33.8230 8.4433 -1.8270 0.8697
-45.2342 0.1502 -2.3706 0.8343
-40.0989 -4.7266 -2.1160 0.8507
-42.3553 -22.0130 -2.5016 0.8260
-29.8801 -33.4201 -2.3494 0.8356
-14.6118 -20.9562 -1.3389 0.9027
-7.3592 -19.1116 -1.0733 0.9212
-4.8698 -19.3206 -1.0442 0.9233
-2.6207 -20.6461 -1.0907 0.9200
-0.1231 -21.9603 -1.1509 0.9158
4.4582 -38.5776 -2.0352 0.8559
25.2267 -37.0586 -2.3494 0.8356
34.5350 -24.1968 -2.2099 0.8446
39.5443 -21.1180 -2.3494 0.8356
41.7986 -16.2050 -2.3494 0.8356
47.7326 -0.3765 -2.5016 0.8260
43.6142 10.3697 -2.3494 0.8356
23.1693 8.5648 -1.2946 0.9058
16.9608 8.7167 -0.9994 0.9265
12.7060 8.6069 -0.8043 0.9404
5.5018 -26.2845 -2.3494 0.8978
12.3767 -25.7764 -2.5016 0.8915
15.3893 -24.0993 -2.5016 0.8915
18.1780 -22.0718 -2.5016 0.8915
22.9260 -17.0882 -2.5016 0.8915
26.3453 -11.1144 -2.5016 0.8915
27.4916 -7.8626 -2.5016 0.8915
26.2970 5.4418 -2.3494 0.8978
25.4509 8.5674 -2.3494 0.8978
24.2680 11.5843 -2.3527 0.8976
8.2636 8.6342 -1.0456 0.9531
6.4155 8.5663 -0.9363 0.9579
4.8941 8.5051 -0.8585 0.9614
-0.7033 8.6507 -0.7593 0.9658
-4.1335 8.7104 -0.8435 0.9620
-5.5118 8.7189 -0.9024 0.9594
-11.6066 8.7339 -1.2708 0.9433
-14.6964 8.5014 -1.4854 0.9341
-19.1878 8.1982 -1.8255 0.9196
-20.8236 3.4134 -1.8461 0.9188
-26.8307 1.1227 -2.3494 0.8978
-27.1410 -8.9986 -2.5016 0.8915
-24.2041 -15.2239 -2.5016 0.8915
-22.1958 -18.0265 -2.5016 0.8915
-5.6328 -19.1972 -1.7503 0.9228
-0.9331 -21.1436 -1.8516 0.9185
8.9367 -27.1614 -2.5016 0.8915
15.1686 -24.2388 -2.5016 0.8915
20.5216 -19.9116 -2.5016 0.8915
24.6854 -14.4305 -2.5016 0.8915
26.3456 5.2015 -2.3494 0.8978
25.5280 8.3348 -2.3494 0.8978
8.4150 8.6333 -1.0548 0.9527
5.0007 8.5098 -0.8635 0.9611
1.4832 8.6759 -0.7701 0.9653
-0.6241 8.6545 -0.7591 0.9658
-2.7759 8.5684 -0.7880 0.9645
-6.9899 8.7280 -0.9783 0.9561
-18.9101 8.2845 -1.8062 0.9204
-20.9015 3.6224 -1.8559 0.9184
-26.8193 1.3676 -2.3494 0.8978
-26.7889 -1.8704 -2.3494 0.8978
-25.9708 -11.9634 -2.5016 0.8915
-24.3421 -15.0023 -2.5016 0.8915
-20.0311 -20.3639 -2.4991 0.8916
-16.3905 -21.2720 -2.3494 0.8978
-3.5534 -20.2290 -1.7969 0.9208
-1.1212 -21.0438 -1.8437 0.9189
20.3390 -20.0981 -2.5016 0.8915
22.6102 -17.5039 -2.5016 0.8915
26.1381 -11.5935 -2.5016 0.8915
27.3434 -8.3632 -2.5016 0.8915
28.1513 -5.0113 -2.5016 0.8915
28.5332 1.8614 -2.5016 0.8915
26.3920 4.9608 -2.3494 0.8978
24.4579 11.1314 -2.3510 0.8977
14.0950 8.5984 -1.4445 0.9359
6.6724 8.5784 -0.9508 0.9573
5.1087 8.5146 -0.8687 0.9609
3.8654 8.6613 -0.8298 0.9626
0.5023 8.6819 -0.7608 0.9657
-0.5450 8.6582 -0.7590 0.9658
-1.5985 8.6125 -0.7664 0.9654
-2.6910 8.5725 -0.7861 0.9646
-8.7633 8.7389 -1.0828 0.9515
-14.1612 8.5407 -1.4468 0.9358
-18.6380 8.3689 -1.7875 0.9212
-23.1248 7.1885 -2.1187 0.9073
-26.8049 -1.6258 -2.3494 0.8978
-28.1255 -5.1538 -2.5016 0.8915
-27.3007 -8.5016 -2.5016 0.8915
-26.0790 -11.7258 -2.5016 0.8915
-20.2369 -20.2009 -2.5016 0.8915
-8.7179 -19.2974 -1.8526 0.9185
1.4348 -24.5839 -2.1545 0.9059
14.7236 -24.5117 -2.5016 0.8915
17.5668 -22.5613 -2.5016 0.8915
20.1546 -20.2829 -2.5016 0.8915
24.4178 -14.8788 -2.5016 0.8915
28.1044 -5.2680 -2.5016 0.8915
28.5490 1.6008 -2.5016 0.8915
25.6759 7.8673 -2.3494 0.8978
24.5496 10.9037 -2.3501 0.8978
5.2179 8.5194 -0.8740 0.9607
3.9430 8.6229 -0.8295 0.9626
2.7597 8.6681 -0.7959 0.9641
1.6466 8.6749 -0.7725 0.9652
0.5819 8.6815 -0.7612 0.9657
-0.4659 8.6619 -0.7589 0.9658
-1.5173 8.6125 -0.7651 0.9655
-2.6066 8.5767 -0.7842 0.9646
-5.1820 8.7169 -0.8872 0.9601
-18.3714 8.4516 -1.7692 0.9220
-26.3856 5.0707 -2.3507 0.8977
-26.8186 -1.3810 -2.3494 0.8978
-26.1849 -11.4872 -2.5016 0.8915
-24.6119 -14.5554 -2.5016 0.8915
-22.6811 -17.4119 -2.5016 0.8915
-20.4204 -20.0153 -2.5016 0.8915
-16.7761 -20.9692 -2.3494 0.8978
-12.2718 -19.8326 -2.0404 0.9106
-8.9441 -19.3259 -1.8631 0.9180
-6.2172 -19.2238 -1.7676 0.9221
1.1667 -23.7100 -2.0769 0.9091
4.5386 -26.4679 -2.3494 0.8978
8.1896 -27.3959 -2.5016 0.8915
14.4992 -24.6450 -2.5016 0.8915
22.2868 -17.9138 -2.5016 0.8915
24.2810 -15.1010 -2.5016 0.8915
28.0551 -5.5244 -2.5016 0.8915
28.5161 -2.1074 -2.5016 0.8915
26.9044 4.5502 -2.3873 0.8962
15.4238 9.0269 -1.5635 0.9308
1.7287 8.6744 -0.7738 0.9651
0.6615 8.6810 -0.7617 0.9656
-0.3868 8.6656 -0.7589 0.9658
-3.6749 8.5351 -0.8130 0.9634
-5.0745 8.7162 -0.8824 0.9603
-28.2149 -4.6395 -2.5016 0.8915
-20.6023 -19.8281 -2.5016 0.8915
-6.4306 -19.2807 -1.7782 0.9216
-1.6763 -20.7494 -1.8213 0.9198
0.9172 -22.8967 -2.0048 0.9121
7.9391 -27.4696 -2.5016 0.8915
25.8153 7.3972 -2.3494 0.8978
24.7372 10.4507 -2.3494 0.8978
15.5190 8.8934 -1.5649 0.9307
11.5447 8.6141 -1.2602 0.9438
9.0487 8.6294 -1.0939 0.9510
7.0733 8.5972 -0.9740 0.9563
4.1445 8.6426 -0.8386 0.9622
1.8110 8.6739 -0.7752 0.9650
-3.5828 8.5350 -0.8098 0.9635
-6.4791 8.7249 -0.9508 0.9573
-8.2933 8.7360 -1.0539 0.9528
-13.4005 8.5908 -1.3926 0.9381
-22.2213 7.5808 -2.0541 0.9100
-22.4905 1.9721 -1.9752 0.9133
-26.8394 -0.8912 -2.3494 0.8978
-24.8735 -14.1037 -2.5016 0.8915
-22.9951 -16.9950 -2.5016 0.8915
-20.7824 -19.6392 -2.5016 0.8915
-6.5654 -19.1021 -1.7672 0.9221
-4.2082 -19.7052 -1.7629 0.9223
0.6845 -22.1379 -1.9377 0.9149
4.0546 -26.5463 -2.3494 0.8978
7.6881 -27.5409 -2.5016 0.8915
10.9471 -26.4153 -2.5016 0.8915
21.9561 -18.3177 -2.5016 0.8915
24.0012 -15.5419 -2.5016 0.8915
25.6974 -12.5400 -2.5016 0.8915
27.9496 -6.0357 -2.5016 0.8915
28.4728 -2.6277 -2.5016 0.8915
28.5821 0.8185 -2.5016 0.8915
28.2438 4.2479 -2.4988 0.8916
25.8817 7.1613 -2.3494 0.8978
11.7655 8.6127 -1.2757 0.9431
7.2113 8.6037 -0.9822 0.9559
5.5539 8.5342 -0.8908 0.9599
8.8204 17.9709 -1.7514 0.9228
3.0230 8.6664 -0.8030 0.9638
1.8937 8.6734 -0.7767 0.9650
-2.3554 8.5889 -0.7792 0.9649
-3.4914 8.5349 -0.8068 0.9637
-4.8629 8.7149 -0.8731 0.9607
-8.1421 8.7351 -1.0447 0.9532
-10.3899 8.7489 -1.1883 0.9469
-17.3205 8.5503 -1.6899 0.9254
-22.2199 7.8076 -2.0605 0.9098
-22.5706 2.1869 -1.9839 0.9130
-26.8464 -0.6462 -2.3494 0.8978
-27.5929 -7.4993 -2.5016 0.8915
-25.0012 -13.8761 -2.5016 0.8915
-23.1494 -16.7844 -2.5016 0.8915
-20.9608 -19.4487 -2.5016 0.8915
-17.3440 -20.5020 -2.3494 0.8978
-6.8377 -19.3187 -1.7929 0.9210
-4.4204 -19.8115 -1.7759 0.9217
-2.0479 -20.6446 -1.8150 0.9201
0.4769 -21.8914 -1.9157 0.9158
3.8122 -26.5822 -2.3494 0.8978
10.7054 -26.5142 -2.5016 0.8915
16.7316 -23.1875 -2.5016 0.8915
28.3134 3.9945 -2.5016 0.8915
25.9460 6.9247 -2.3494 0.8978
11.9715 8.5968 -1.2895 0.9425
9.3837 8.6274 -1.1152 0.9501
7.3516 8.6103 -0.9905 0.9556
4.2606 8.4840 -0.8306 0.9626
3.1118 8.6659 -0.8056 0.9637
0.9010 8.6795 -0.7634 0.9656
-0.1494 8.6767 -0.7592 0.9658
-2.2724 8.5930 -0.7776 0.9649
-4.7588 8.7143 -0.8687 0.9609
-6.2341 8.7233 -0.9381 0.9579
-7.9935 8.7341 -1.0358 0.9536
-10.1981 8.7477 -1.1755 0.9475
-12.9236 8.6220 -1.3592 0.9395
-26.2136 6.0375 -2.3534 0.8976
-21.5717 2.2890 -1.8979 0.9166
-28.3038 -3.8614 -2.4992 0.8916
-26.5868 -10.5237 -2.5016 0.8915
-25.1269 -13.6472 -2.5016 0.8915
-23.3016 -16.5724 -2.5016 0.8915
-21.1375 -19.2566 -2.5016 0.8915
-17.5304 -20.3428 -2.3494 0.8978
-13.8328 -20.6319 -2.1732 0.9051
-4.5771 -19.6671 -1.7666 0.9221
3.5693 -26.6159 -2.3494 0.8978
7.1840 -27.6766 -2.5016 0.8915
13.5899 -25.1579 -2.5016 0.8915
19.2082 -21.1814 -2.5016 0.8915
21.6180 -18.7154 -2.5016 0.8915
23.7135 -15.9773 -2.5016 0.8915
25.4642 -13.0071 -2.5016 0.8915
26.8446 -9.8475 -2.5016 0.8915
27.8347 -6.5448 -2.5016 0.8915
28.4201 -3.1471 -2.5016 0.8915
28.3487 3.7359 -2.5016 0.8915
26.0081 6.6876 -2.3494 0.8978
9.5562 8.6263 -1.1263 0.9496
5.7853 8.5444 -0.9028 0.9594
4.3575 8.4829 -0.8343 0.9624
-0.0702 8.6804 -0.7595 0.9657
-3.3137 8.5420 -0.8016 0.9639
-4.6557 8.7136 -0.8643 0.9611
-6.1141 8.7226 -0.9319 0.9581
-12.6936 8.6371 -1.3432 0.9402
-16.6885 8.6207 -1.6434 0.9274
-26.1650 6.2784 -2.3541 0.8976
-28.2957 -3.5976 -2.4955 0.8918
-23.4519 -16.3590 -2.5016 0.8915
-10.1158 -19.4737 -1.9199 0.9157
-4.7186 -19.4688 -1.7526 0.9227
6.9311 -27.7411 -2.5016 0.8915
10.2197 -26.7051 -2.5016 0.8915
13.3596 -25.2810 -2.5016 0.8915
19.0141 -21.3558 -2.5016 0.8915
21.4462 -18.9120 -2.5016 0.8915
25.3444 -13.2389 -2.5016 0.8915
27.7738 -6.7987 -2.5016 0.8915
28.5938 0.0356 -2.5016 0.8915
26.0681 6.4499 -2.3494 0.8978
25.1023 9.5406 -2.3494 0.8978
16.6000 8.7238 -1.6406 0.9275
12.4618 8.6084 -1.3251 0.9410
9.7321 8.6252 -1.1377 0.9491
5.9033 8.5495 -0.9090 0.9591
4.4573 8.4857 -0.8386 0.9622
3.2912 8.6648 -0.8109 0.9635
2.1437 8.6718 -0.7815 0.9648
0.7256 5.9334 -0.5230 0.9763
0.0090 8.6583 -0.7575 0.9658
-1.0378 8.6350 -0.7609 0.9657
-2.1073 8.6010 -0.7747 0.9651
-4.5536 8.7130 -0.8601 0.9613
-5.9956 8.7219 -0.9260 0.9584
-9.8265 8.7454 -1.1509 0.9486
-12.4689 8.6517 -1.3278 0.9409
-22.2181 8.4973 -2.0811 0.9089
-26.1141 6.5189 -2.3548 0.8976
-19.2822 2.4028 -1.7000 0.9249
-27.9941 -3.2998 -2.4661 0.8930
-25.3718 -13.1863 -2.5016 0.8915
-23.6003 -16.1442 -2.5016 0.8915
-14.6927 -21.0722 -2.2475 0.9020
-7.4375 -19.3149 -1.8108 0.9203
-4.8776 -19.3515 -1.7460 0.9230
6.6776 -27.8032 -2.5016 0.8915
9.9754 -26.7973 -2.5016 0.8915
13.0939 -25.3352 -2.4951 0.8918
18.8183 -21.5285 -2.5016 0.8915
21.2727 -19.1070 -2.5016 0.8915
23.4179 -16.4076 -2.5016 0.8915
25.2225 -13.4697 -2.5016 0.8915
27.7106 -7.0519 -2.5016 0.8915
28.3579 -3.6653 -2.5016 0.8915
28.5929 -0.2255 -2.5016 0.8915
26.1259 6.2117 -2.3494 0.8978
25.1883 9.3111 -2.3494 0.8978
16.9701 8.7215 -1.6693 0.9262
12.7060 8.6069 -1.3427 0.9402
7.7877 8.6307 -1.0170 0.9544
3.1122 5.7958 -0.5755 0.9739
3.3818 8.6642 -0.8137 0.9633
8.8189 -18.3667 -2.5016 0.9212
10.9654 -17.1717 -2.5016 0.9212
17.6824 -10.1213 -2.5016 0.9212
18.7721 -7.9194 -2.5016 0.9212
19.5888 -5.6024 -2.5016 0.9212
20.1207 -3.2039 -2.5016 0.9212
20.3601 -0.7589 -2.5016 0.9212
10.4619 2.1649 -1.3118 0.9579
10.5157 8.6204 -1.6696 0.9467
6.3626 8.4957 -1.3032 0.9581
4.8614 8.4483 -1.1968 0.9615
3.6778 8.6624 -1.1555 0.9628
1.4019 8.6764 -1.0791 0.9652
-0.7025 8.6416 -1.0646 0.9657
-4.1335 8.7104 -1.1838 0.9619
-5.5118 8.7189 -1.2665 0.9593
-7.1223 8.7288 -1.3833 0.9556
-9.0913 8.7409 -1.5485 0.9504
-14.2999 8.2721 -2.0284 0.9356
-17.5958 7.5180 -2.3494 0.9258
-18.3728 5.3455 -2.3494 0.9258
-19.9701 -4.0376 -2.5016 0.9212
-19.3390 -6.4119 -2.5016 0.9212
-17.2464 -10.8476 -2.5016 0.9212
-15.8154 -12.8446 -2.5016 0.9212
-14.1544 -14.6548 -2.5016 0.9212
-9.6190 -16.5411 -2.3494 0.9258
-7.5581 -17.5787 -2.3494 0.9258
-0.8436 -19.1160 -2.3494 0.9258
3.7491 -18.7637 -2.3494 0.9258
8.6509 -18.4464 -2.5016 0.9212
10.8082 -17.2711 -2.5016 0.9212
12.8084 -15.8446 -2.5016 0.9212
16.2238 -12.3246 -2.5016 0.9212
17.5893 -10.2823 -2.5016 0.9212
18.6990 -8.0904 -2.5016 0.9212
10.7123 8.6192 -1.6882 0.9461
6.4873 8.4994 -1.3128 0.9578
3.7712 8.6618 -1.1600 0.9626
2.5868 8.6691 -1.1108 0.9642
0.4229 8.6824 -1.0673 0.9656
-1.6759 8.5918 -1.0748 0.9653
-2.7642 8.5324 -1.1013 0.9645
-4.0363 8.7098 -1.1787 0.9621
-11.4165 8.7552 -1.7665 0.9437
-14.1078 8.3338 -2.0119 0.9361
-18.8536 3.2675 -2.3494 0.9258
-19.4894 0.9938 -2.3961 0.9244
-19.3967 -6.2351 -2.5016 0.9212
-18.5052 -8.5244 -2.5016 0.9212
-17.3447 -10.6897 -2.5016 0.9212
-15.9319 -12.6996 -2.5016 0.9212
-14.2876 -14.5249 -2.5016 0.9212
-12.4309 -16.1332 -2.5007 0.9212
-9.7696 -16.4526 -2.3494 0.9258
-7.7183 -17.5089 -2.3494 0.9258
-3.3105 -18.8461 -2.3494 0.9258
-1.0180 -19.1075 -2.3494 0.9258
3.5777 -18.7972 -2.3494 0.9258
6.1908 -19.4109 -2.5016 0.9212
8.4821 -18.5246 -2.5016 0.9212
12.6633 -15.9609 -2.5016 0.9212
18.6244 -8.2608 -2.5016 0.9212
19.4833 -5.9591 -2.5016 0.9212
20.0589 -3.5707 -2.5016 0.9212
20.3428 -1.1304 -2.5016 0.9212
20.3310 1.3263 -2.5016 0.9212
11.3630 2.1359 -1.4196 0.9545
9.2264 2.9194 -1.1882 0.9618
17.4157 7.9263 -2.3494 0.9258
14.0950 8.5984 -2.0273 0.9356
10.9132 8.6179 -1.7074 0.9455
6.6139 8.5032 -1.3227 0.9575
5.0731 8.4553 -1.2107 0.9610
3.8654 8.6613 -1.1646 0.9625
2.6730 8.6686 -1.1138 0.9641
1.5648 8.6754 -1.0824 0.9651
-0.5444 8.6494 -1.0641 0.9657
-2.6799 8.5372 -1.0987 0.9646
-3.9263 8.6792 -1.1696 0.9623
-5.2907 8.7175 -1.2521 0.9597
-11.2016 8.7539 -1.7455 0.9443
-18.2722 5.6800 -2.3494 0.9258
-20.3368 -1.2335 -2.5016 0.9212
-20.0405 -3.6723 -2.5016 0.9212
-19.4528 -6.0577 -2.5016 0.9212
-18.5823 -8.3551 -2.5016 0.9212
-17.4415 -10.5310 -2.5016 0.9212
-3.4824 -18.8151 -2.3494 0.9258
-1.1924 -19.0974 -2.3494 0.9258
1.1149 -19.1021 -2.3494 0.9258
6.0134 -19.4666 -2.5016 0.9212
8.3127 -18.6013 -2.5016 0.9212
17.3986 -10.6017 -2.5016 0.9212
18.5482 -8.4305 -2.5016 0.9212
19.4280 -6.1367 -2.5016 0.9212
17.4874 7.7670 -2.3494 0.9258
14.3858 8.5966 -2.0577 0.9347
11.1188 8.6167 -1.7272 0.9449
6.7424 8.5070 -1.3328 0.9572
5.1808 8.4588 -1.2179 0.9608
3.9430 8.6229 -1.1642 0.9625
2.7597 8.6681 -1.1169 0.9640
0.5819 8.6815 -1.0683 0.9655
-0.4654 8.6532 -1.0640 0.9657
-7.8168 17.7083 -2.3767 0.9250
-8.6037 8.7379 -1.5057 0.9518
-10.9916 8.7526 -1.7252 0.9449
-18.2196 5.8466 -2.3494 0.9258
-20.3472 -1.0478 -2.5016 0.9212
-18.6578 -8.1851 -2.5016 0.9212
-14.5503 -14.2617 -2.5016 0.9212
-12.7280 -15.9093 -2.5016 0.9212
-10.0683 -16.2715 -2.3494 0.9258
-3.6540 -18.7825 -2.3494 0.9258
5.8354 -19.5207 -2.5016 0.9212
8.1425 -18.6764 -2.5016 0.9212
14.2284 -14.5828 -2.5016 0.9212
15.8802 -12.7643 -2.5016 0.9212
18.4705 -8.5994 -2.5016 0.9212
20.3188 -1.5016 -2.5016 0.9212
8.2034 17.5153 -2.3748 0.9250
2.8470 8.6675 -1.1202 0.9639
-1.4350 8.6044 -1.0711 0.9655
-3.6391 8.4521 -1.1299 0.9636
-6.6041 8.7256 -1.3436 0.9569
-13.4548 8.4534 -1.9510 0.9380
-17.3067 8.1540 -2.3490 0.9258
-18.1654 6.0126 -2.3494 0.9258
-18.7571 3.7825 -2.3494 0.9258
-19.5602 -5.7016 -2.5016 0.9212
-18.7317 -8.0145 -2.5016 0.9212
-16.2737 -12.2587 -2.5016 0.9212
-14.6799 -14.1283 -2.5016 0.9212
-12.8727 -15.7925 -2.5016 0.9212
-3.8253 -18.7484 -2.3494 0.9258
-1.5409 -19.0725 -2.3494 0.9258
3.0616 -18.8881 -2.3494 0.9258
7.9717 -18.7499 -2.5016 0.9212
14.0947 -14.7121 -2.5016 0.9212
15.7630 -12.9087 -2.5016 0.9212
17.2022 -10.9176 -2.5016 0.9212
18.3912 -8.7677 -2.5016 0.9212
19.9536 -4.1186 -2.5016 0.9212
20.3042 -1.6870 -2.5016 0.9212
20.3597 0.7691 -2.5016 0.9212
20.1191 3.2141 -2.5016 0.9212
17.6262 7.4465 -2.3494 0.9258
15.5190 8.8934 -2.1962 0.9305
2.9347 8.6670 -1.1235 0.9638
1.8110 8.6739 -1.0880 0.9649
0.7412 8.6805 -1.0697 0.9655
-1.3551 8.6085 -1.0700 0.9655
-2.4292 8.5511 -1.0915 0.9648
-3.5575 8.4748 -1.1285 0.9636
-6.4791 8.7249 -1.3344 0.9571
-8.2933 8.7360 -1.4790 0.9526
-10.5860 8.7501 -1.6863 0.9462
-17.2345 8.3130 -2.3494 0.9258
-20.3630 -0.6762 -2.5016 0.9212
-18.8041 -7.8431 -2.5016 0.9212
-17.7233 -10.0494 -2.5016 0.9212
-13.0163 -15.6743 -2.5016 0.9212
-10.3637 -16.0850 -2.3494 0.9258
-8.3523 -17.2155 -2.3494 0.9258
-6.2195 -18.0956 -2.3494 0.9258
-3.9963 -18.7127 -2.3494 0.9258
-1.7149 -19.0576 -2.3494 0.9258
2.8891 -18.9153 -2.3494 0.9258
7.8002 -18.8219 -2.5016 0.9212
12.0722 -16.4125 -2.5016 0.9212
13.9599 -14.8401 -2.5016 0.9212
19.2527 -6.6663 -2.5016 0.9212
19.9151 -4.3006 -2.5016 0.9212
20.3658 0.5832 -2.5016 0.9212
20.1476 3.0302 -2.5016 0.9212
17.6935 7.2853 -2.3494 0.9258
15.6144 8.7597 -2.1983 0.9304
11.7655 8.6127 -1.7903 0.9429
7.1400 8.5186 -1.3648 0.9562
5.5117 8.4694 -1.2407 0.9601
8.5198 17.3583 -2.3742 0.9250
0.8210 8.6800 -1.0705 0.9655
-0.2283 8.6647 -1.0643 0.9657
-2.3463 8.5557 -1.0893 0.9649
-6.3558 8.7241 -1.3253 0.9574
-8.1421 8.7351 -1.4662 0.9530
-18.0526 6.3433 -2.3494 0.9258
-18.6849 4.1243 -2.3494 0.9258
-20.3683 -0.4903 -2.5016 0.9212
-19.6610 -5.3436 -2.5016 0.9212
-18.8749 -7.6712 -2.5016 0.9212
-17.8143 -9.8872 -2.5016 0.9212
-16.4948 -11.9595 -2.5016 0.9212
-13.1588 -15.5549 -2.5016 0.9212
-10.5101 -15.9897 -2.3494 0.9258
-8.5091 -17.1385 -2.3494 0.9258
-6.3844 -18.0381 -2.3494 0.9258
-4.1669 -18.6754 -2.3494 0.9258
-1.8888 -19.0412 -2.3494 0.9258
2.7163 -18.9408 -2.3494 0.9258
5.2986 -19.6731 -2.5016 0.9212
11.9219 -16.5220 -2.5016 0.9212
13.8238 -14.9670 -2.5016 0.9212
15.5248 -13.1943 -2.5016 0.9212
17.0000 -11.2298 -2.5016 0.9212
19.1911 -6.8419 -2.5016 0.9212
20.2701 -2.0574 -2.5016 0.9212
20.3703 0.3972 -2.5016 0.9212
9.3488 2.4951 -1.1881 0.9618
16.4581 9.0365 -2.3054 0.9271
7.2768 8.5226 -1.3760 0.9558
5.6248 8.4729 -1.2487 0.9598
4.2086 8.3804 -1.1515 0.9629
3.1118 8.6659 -1.1306 0.9636
1.9767 8.6729 -1.0922 0.9648
0.9010 8.6795 -1.0714 0.9654
-3.3857 8.4969 -1.1231 0.9638
-4.7588 8.7143 -1.2191 0.9608
-6.2341 8.7233 -1.3165 0.9577
-7.9935 8.7341 -1.4537 0.9534
-10.1981 8.7477 -1.6497 0.9473
-17.0872 8.6300 -2.3504 0.9258
-19.0278 2.0191 -2.3494 0.9258
-20.1872 -2.7541 -2.5016 0.9212
-17.9039 -9.7242 -2.5016 0.9212
-16.6033 -11.8085 -2.5016 0.9212
-6.5488 -17.9791 -2.3494 0.9258
-2.0625 -19.0231 -2.3494 0.9258
0.2422 -19.1331 -2.3494 0.9258
5.1189 -19.7207 -2.5016 0.9212
9.6833 -17.9260 -2.5016 0.9212
15.4037 -13.3355 -2.5016 0.9212
18.1442 -9.2680 -2.5016 0.9212
19.1278 -7.0167 -2.5016 0.9212
19.8333 -4.6634 -2.5016 0.9212
20.3731 0.2113 -2.5016 0.9212
20.1996 2.6620 -2.5016 0.9212
9.3920 2.4150 -1.1907 0.9617
12.2237 8.6099 -1.8358 0.9415
7.4350 8.5486 -1.3911 0.9554
4.3170 8.4041 -1.1601 0.9626
3.2012 8.6654 -1.1343 0.9635
-0.0702 8.6723 -1.0649 0.9657
-1.1160 8.6208 -1.0673 0.9656
-6.1141 8.7226 -1.3079 0.9580
-7.8460 8.7317 -1.4414 0.9538
-12.6340 8.5966 -1.8763 0.9403
-17.0110 8.7873 -2.3509 0.9257
-17.9338 6.6717 -2.3494 0.9258
-18.6065 4.4647 -2.3494 0.9258
-20.3738 -0.1183 -2.5016 0.9212
-19.0118 -7.3253 -2.5016 0.9212
-17.9919 -9.5604 -2.5016 0.9212
-16.7104 -11.6564 -2.5016 0.9212
-15.1859 -13.5829 -2.5016 0.9212
-10.9818 -16.0607 -2.3889 0.9246
-8.8206 -16.9803 -2.3494 0.9258
-6.7127 -17.9185 -2.3494 0.9258
-2.2361 -19.0035 -2.3494 0.9258
0.0674 -19.1345 -2.3494 0.9258
4.9345 -19.7501 -2.4995 0.9212
11.6182 -16.7369 -2.5016 0.9212
19.0630 -7.1910 -2.5016 0.9212
19.7899 -4.8443 -2.5016 0.9212
20.2291 -2.4271 -2.5016 0.9212
9.4328 2.3339 -1.1931 0.9616
9.3360 3.5483 -1.2263 0.9605
16.6000 8.7238 -2.3025 0.9272
9.7321 8.6252 -1.5967 0.9489
7.6003 8.5792 -1.4073 0.9549
3.2912 8.6648 -1.1381 0.9633
2.1437 8.6718 -1.0968 0.9646
0.7252 5.9299 -0.7335 0.9762
-1.0366 8.6248 -1.0666 0.9656
-2.0995 8.5691 -1.0833 0.9651
-3.2110 8.5070 -1.1165 0.9640
-4.5536 8.7130 -1.2071 0.9612
-18.9878 2.3662 -2.3494 0.9258
-20.2341 -2.3851 -2.5016 0.9212
-19.7999 -4.8032 -2.5016 0.9212
-19.0779 -7.1515 -2.5016 0.9212
-16.8161 -11.5033 -2.5016 0.9212
-15.3093 -13.4438 -2.5016 0.9212
-13.5798 -15.1887 -2.5016 0.9212
-8.9752 -16.8991 -2.3494 0.9258
-6.8760 -17.8565 -2.3494 0.9258
-2.4095 -18.9823 -2.3494 0.9258
-0.1072 -19.1343 -2.3494 0.9258
4.7484 -19.7705 -2.4965 0.9213
7.1079 -19.0941 -2.5016 0.9212
13.4088 -15.3399 -2.5016 0.9212
15.1576 -13.6145 -2.5016 0.9212
19.7449 -5.0248 -2.5016 0.9212
20.3736 -0.1607 -2.5016 0.9212
20.2448 2.2927 -2.5016 0.9212
9.5718 2.2758 -1.2080 0.9611
9.2835 3.4318 -1.2153 0.9609
16.9701 8.7215 -2.3427 0.9260
9.9117 8.6241 -1.6132 0.9484
7.7695 8.6106 -1.4240 0.9543
5.9731 8.4838 -1.2740 0.9590
3.1122 5.7957 -0.8077 0.9738
2.2278 8.6713 -1.0993 0.9646
3.2360 -15.4597 -2.5016 0.9380
6.8367 -14.2384 -2.5016 0.9380
10.0412 -12.1921 -2.5016 0.9380
12.6639 -9.4392 -2.5016 0.9380
13.7079 -7.8463 -2.5016 0.9380
14.5527 -6.1394 -2.5016 0.9380
15.1858 -4.3432 -2.5016 0.9380
15.5982 -2.4838 -2.5016 0.9380
15.7837 -0.5883 -2.5016 0.9380
12.5203 7.9550 -2.3494 0.9417
2.5010 8.6696 -1.4291 0.9641
1.4019 8.6764 -1.3920 0.9650
0.3435 8.6829 -1.3763 0.9654
-2.8245 8.4546 -1.4118 0.9645
-5.5118 8.7189 -1.6337 0.9591
-7.1223 8.7288 -1.7843 0.9554
-9.0913 8.7409 -1.9975 0.9502
-11.6066 8.7339 -2.3006 0.9429
-12.8402 7.4277 -2.3494 0.9417
-14.2431 4.1440 -2.3494 0.9417
-15.1215 2.4787 -2.4270 0.9398
-15.7809 0.6603 -2.5016 0.9380
-14.2849 -6.7390 -2.5016 0.9380
-13.3699 -8.4094 -2.5016 0.9380
-12.2605 -9.9575 -2.5016 0.9380
-7.9400 -13.6539 -2.5016 0.9380
-6.2328 -14.4962 -2.4992 0.9381
-4.2846 -14.6020 -2.4102 0.9402
3.0947 -15.4886 -2.5016 0.9380
9.9295 -12.2832 -2.5016 0.9380
12.5772 -9.5544 -2.5016 0.9380
15.1456 -4.4816 -2.5016 0.9380
15.5749 -2.6261 -2.5016 0.9380
15.7777 -0.7323 -2.5016 0.9380
10.2454 2.0228 -1.6540 0.9586
13.4445 6.2677 -2.3494 0.9417
10.7122 8.6192 -2.1777 0.9458
8.4150 8.6333 -1.9095 0.9523
6.4180 8.4085 -1.6754 0.9581
3.7712 8.6618 -1.4963 0.9625
2.5868 8.6691 -1.4329 0.9640
1.4832 8.6759 -1.3941 0.9650
-2.7406 8.4595 -1.4084 0.9646
-14.2047 4.2738 -2.3494 0.9417
-14.8297 2.5701 -2.3838 0.9409
-15.7742 0.8044 -2.5016 0.9380
-15.7563 -1.1001 -2.5016 0.9380
-15.5094 -2.9886 -2.5016 0.9380
-15.0369 -4.8336 -2.5016 0.9380
-14.3458 -6.6084 -2.5016 0.9380
-13.4461 -8.2870 -2.5016 0.9380
-12.3509 -9.8451 -2.5016 0.9380
-11.0761 -11.2602 -2.5016 0.9380
-9.6403 -12.5115 -2.5016 0.9380
-8.0643 -13.5808 -2.5016 0.9380
-6.3681 -14.4459 -2.5005 0.9381
-0.8079 -15.1634 -2.4051 0.9404
1.0627 -15.7366 -2.4981 0.9381
2.9532 -15.5162 -2.5016 0.9380
4.7993 -15.0479 -2.5016 0.9380
9.8170 -12.3734 -2.5016 0.9380
11.2349 -11.1018 -2.5016 0.9380
12.4895 -9.6688 -2.5016 0.9380
13.5624 -8.0953 -2.5016 0.9380
14.4382 -6.4040 -2.5016 0.9380
15.5502 -2.7681 -2.5016 0.9380
10.7170 2.0144 -1.7271 0.9568
8.5610 2.7089 -1.4222 0.9643
13.5012 6.1447 -2.3494 0.9417
12.6634 7.7251 -2.3494 0.9417
10.9132 8.6179 -2.2024 0.9452
8.5691 8.6324 -1.9265 0.9519
6.5427 8.4116 -1.6878 0.9578
5.0122 8.3537 -1.5430 0.9613
2.6730 8.6686 -1.4368 0.9639
1.5648 8.6754 -1.3962 0.9649
-0.5401 8.5803 -1.3617 0.9658
-2.6571 8.4643 -1.4051 0.9647
-3.9263 8.6792 -1.5088 0.9622
-6.8594 8.7272 -1.7581 0.9560
-8.7633 8.7389 -1.9602 0.9511
-14.1651 4.4033 -2.3494 0.9417
-15.7657 -0.9563 -2.5016 0.9380
-15.5360 -2.8469 -2.5016 0.9380
-15.0804 -4.6961 -2.5016 0.9380
-14.4055 -6.4771 -2.5016 0.9380
-12.4403 -9.7320 -2.5016 0.9380
-9.7541 -12.4229 -2.5016 0.9380
-6.5027 -14.3940 -2.5016 0.9380
-2.7213 -14.7032 -2.3683 0.9412
-0.9440 -15.1185 -2.3992 0.9405
0.9185 -15.7376 -2.4968 0.9382
6.4442 -14.4203 -2.5016 0.9380
8.1330 -13.5398 -2.5016 0.9380
11.1331 -11.2039 -2.5016 0.9380
13.4879 -8.2188 -2.5016 0.9380
14.3791 -6.5355 -2.5016 0.9380
15.7617 -1.0203 -2.5016 0.9380
15.7699 0.8843 -2.5016 0.9380
8.5752 2.6275 -1.4205 0.9643
13.5567 6.0212 -2.3494 0.9417
11.1188 8.6167 -2.2280 0.9446
5.1294 8.3748 -1.5555 0.9610
1.6466 8.6749 -1.3985 0.9649
-0.4623 8.5947 -1.3632 0.9657
-5.1820 8.7169 -1.6062 0.9598
-6.7309 8.7264 -1.7455 0.9563
-8.6037 8.7379 -1.9422 0.9516
-12.6320 7.7765 -2.3494 0.9417
-13.4761 6.1995 -2.3494 0.9417
-14.1243 4.5324 -2.3494 0.9417
-15.7569 1.0922 -2.5016 0.9380
-15.7738 -0.8123 -2.5016 0.9380
-4.7264 -14.6142 -2.4327 0.9397
0.7744 -15.7381 -2.4957 0.9382
6.3123 -14.4785 -2.5016 0.9380
8.0091 -13.6135 -2.5016 0.9380
11.0303 -11.3051 -2.5016 0.9380
15.4971 -3.0516 -2.5016 0.9380
15.7517 -1.1641 -2.5016 0.9380
11.8722 2.0079 -1.9071 0.9524
8.6061 2.5513 -1.4217 0.9643
13.6111 5.8972 -2.3494 0.9417
6.8097 8.4326 -1.7167 0.9571
6.3194 13.4926 -2.3598 0.9414
2.8470 8.6675 -1.4450 0.9637
0.6615 8.6810 -1.3789 0.9654
-6.6041 8.7256 -1.7332 0.9566
-8.4471 8.7369 -1.9248 0.9520
-10.7865 8.7513 -2.2000 0.9453
-14.5410 2.9323 -2.3494 0.9417
-14.5214 -6.2131 -2.5016 0.9380
-6.7644 -14.2729 -2.5016 0.9380
-2.9938 -14.6729 -2.3718 0.9412
-1.2142 -15.0294 -2.3882 0.9408
0.6305 -15.7374 -2.4946 0.9382
2.5272 -15.5912 -2.5016 0.9380
4.3854 -15.1737 -2.5016 0.9380
6.1799 -14.5355 -2.5016 0.9380
7.8845 -13.6860 -2.5016 0.9380
9.4745 -12.6375 -2.5016 0.9380
10.9267 -11.4053 -2.5016 0.9380
12.2200 -10.0072 -2.5016 0.9380
13.3356 -8.4636 -2.5016 0.9380
14.2574 -6.7970 -2.5016 0.9380
14.9718 -5.0315 -2.5016 0.9380
15.4686 -3.1929 -2.5016 0.9380
15.7835 0.5962 -2.5016 0.9380
12.8702 7.3754 -2.3494 0.9417
9.0487 8.6294 -1.9804 0.9506
4.1445 8.6426 -1.5181 0.9619
2.9347 8.6670 -1.4493 0.9636
1.8110 8.6739 -1.4034 0.9648
0.7412 8.6805 -1.3799 0.9653
-2.4086 8.4786 -1.3960 0.9649
-3.4879 8.3089 -1.4272 0.9642
-12.4879 8.0058 -2.3494 0.9417
-13.3607 6.4445 -2.3494 0.9417
-14.0392 4.7895 -2.3494 0.9417
-15.7343 1.3797 -2.5016 0.9380
-15.7860 -0.5242 -2.5016 0.9380
-14.5775 -6.0802 -2.5016 0.9380
-12.7021 -9.3877 -2.5016 0.9380
-11.4798 -10.8483 -2.5016 0.9380
-10.0906 -12.1512 -2.5016 0.9380
-6.8944 -14.2105 -2.5016 0.9380
-1.3491 -14.9930 -2.3842 0.9409
6.0470 -14.5913 -2.5016 0.9380
13.2578 -8.5850 -2.5016 0.9380
14.1948 -6.9268 -2.5016 0.9380
14.9253 -5.1679 -2.5016 0.9380
15.7279 -1.4515 -2.5016 0.9380
15.6190 2.3491 -2.5016 0.9380
8.6875 2.4038 -1.4277 0.9642
8.7057 3.5846 -1.4912 0.9626
12.9370 7.2577 -2.3494 0.9417
9.2146 8.6284 -1.9994 0.9502
7.1154 8.4893 -1.7544 0.9561
-1.2647 8.5411 -1.3675 0.9656
-2.3264 8.4833 -1.3932 0.9650
-8.1421 8.7351 -1.8913 0.9528
-10.3899 8.7489 -2.1513 0.9465
-13.3013 6.5662 -2.3494 0.9417
-15.7211 1.5233 -2.5016 0.9380
-15.6296 -2.2778 -2.5016 0.9380
-15.2418 -4.1425 -2.5016 0.9380
-14.6324 -5.9469 -2.5016 0.9380
-13.8102 -7.6649 -2.5016 0.9380
-12.7873 -9.2714 -2.5016 0.9380
-3.2670 -14.6424 -2.3762 0.9411
4.1077 -15.2512 -2.5016 0.9380
5.9135 -14.6459 -2.5016 0.9380
7.6333 -13.8277 -2.5016 0.9380
9.2422 -12.8084 -2.5016 0.9380
12.0353 -10.2286 -2.5016 0.9380
8.7292 2.3297 -1.4310 0.9641
13.0027 7.1392 -2.3494 0.9417
9.3837 8.6274 -2.0189 0.9497
7.2734 8.5186 -1.7741 0.9557
6.6846 13.3107 -2.3591 0.9415
1.9767 8.6729 -1.4089 0.9646
0.9010 8.6795 -1.3821 0.9653
-0.1490 8.6528 -1.3707 0.9656
-3.3285 8.3534 -1.4242 0.9642
-4.7588 8.7143 -1.5726 0.9606
-6.2341 8.7233 -1.6982 0.9575
-7.9935 8.7341 -1.8752 0.9532
-10.1981 8.7477 -2.1280 0.9470
-13.2408 6.6874 -2.3494 0.9417
-14.4553 3.3294 -2.3494 0.9417
-15.7065 1.6667 -2.5016 0.9380
-10.3108 -11.9650 -2.5016 0.9380
-8.7957 -13.1190 -2.5016 0.9380
-7.1527 -14.0823 -2.5016 0.9380
-3.4043 -14.6277 -2.3787 0.9410
-1.6182 -14.9245 -2.3777 0.9410
0.1969 -15.5585 -2.4644 0.9389
2.0993 -15.6546 -2.5016 0.9380
3.9683 -15.2881 -2.5016 0.9380
7.5068 -13.8968 -2.5016 0.9380
10.6103 -11.7002 -2.5016 0.9380
11.9414 -10.3380 -2.5016 0.9380
13.0989 -8.8256 -2.5016 0.9380
14.0659 -7.1848 -2.5016 0.9380
15.7939 0.1638 -2.5016 0.9380
15.6593 2.0636 -2.5016 0.9380
8.8053 2.2642 -1.4400 0.9638
8.6262 3.3690 -1.4668 0.9632
13.0674 7.0203 -2.3494 0.9417
5.6806 8.3897 -1.6047 0.9598
3.2012 8.6654 -1.4631 0.9633
-4.6557 8.7136 -1.5647 0.9608
-6.1141 8.7226 -1.6871 0.9578
-12.2640 8.3448 -2.3494 0.9417
-13.9028 5.1721 -2.3494 0.9417
-15.6907 1.8100 -2.5016 0.9380
-15.6686 -1.9921 -2.5016 0.9380
-15.3149 -3.8635 -2.5016 0.9380
-14.7385 -5.6788 -2.5016 0.9380
-13.9478 -7.4115 -2.5016 0.9380
-12.9544 -9.0364 -2.5016 0.9380
-11.7726 -10.5299 -2.5016 0.9380
-10.4196 -11.8703 -2.5016 0.9380
-3.5439 -14.6219 -2.3829 0.9409
0.0546 -15.4975 -2.4546 0.9392
1.9563 -15.6731 -2.5016 0.9380
3.8286 -15.3237 -2.5016 0.9380
7.3796 -13.9647 -2.5016 0.9380
9.0068 -12.9750 -2.5016 0.9380
11.8465 -10.4467 -2.5016 0.9380
13.0178 -8.9448 -2.5016 0.9380
13.9998 -7.3129 -2.5016 0.9380
14.7782 -5.5747 -2.5016 0.9380
15.3417 -3.7555 -2.5016 0.9380
15.6822 -1.8816 -2.5016 0.9380
15.7947 0.0196 -2.5016 0.9380
15.6775 1.9206 -2.5016 0.9380
8.5833 3.2623 -1.4543 0.9635
13.1309 6.9007 -2.3494 0.9417
5.7951 8.3927 -1.6154 0.9595
4.3137 8.2122 -1.4692 0.9631
3.2912 8.6648 -1.4680 0.9632
0.7248 5.9264 -0.9456 0.9761
-3.1697 8.3975 -1.4216 0.9643
-4.5536 8.7130 -1.5571 0.9610
-5.9956 8.7219 -1.6763 0.9580
-9.8265 8.7454 -2.0835 0.9481
-13.1165 6.9279 -2.3494 0.9417
-13.8550 5.2989 -2.3494 0.9417
-15.7946 0.0524 -2.5016 0.9380
-15.6861 -1.8490 -2.5016 0.9380
-13.0363 -8.9177 -2.5016 0.9380
-11.8682 -10.4220 -2.5016 0.9380
-10.5275 -11.7747 -2.5016 0.9380
-7.4086 -13.9494 -2.5016 0.9380
-5.6587 -14.6954 -2.4941 0.9382
-1.8858 -14.8563 -2.3719 0.9412
1.8132 -15.6903 -2.5016 0.9380
5.5102 -14.8023 -2.5016 0.9380
7.2518 -14.0315 -2.5016 0.9380
10.3949 -11.8920 -2.5016 0.9380
12.9356 -9.0633 -2.5016 0.9380
13.9324 -7.4404 -2.5016 0.9380
9.9117 8.6241 -2.0809 0.9482
7.7695 8.6106 -1.8369 0.9541
5.9111 8.3957 -1.6263 0.9593
3.1121 5.7957 -1.0419 0.9737
3.3818 8.6642 -1.4731 0.9630
2.6367 -12.5968 -2.5016 0.9489
4.1337 -12.1879 -2.5016 0.9489
5.5706 -11.6017 -2.5016 0.9489
10.3187 -7.6912 -2.5016 0.9489
11.1695 -6.3933 -2.5016 0.9489
11.8578 -5.0025 -2.5016 0.9489
12.3737 -3.5389 -2.5016 0.9489
12.7097 -2.0238 -2.5016 0.9489
12.8609 -0.4793 -2.5016 0.9489
12.8251 1.0721 -2.5016 0.9489
8.5183 2.8675 -1.7471 0.9640
10.9078 5.2068 -2.3494 0.9519
9.3474 7.6627 -2.3494 0.9519
3.6778 8.6624 -1.8293 0.9624
2.5010 8.6696 -1.7539 0.9639
-0.6952 8.5515 -1.6677 0.9656
-4.1335 8.7104 -1.8741 0.9615
-5.5118 8.7189 -2.0050 0.9588
-7.1223 8.7288 -2.1899 0.9551
-9.6579 7.2675 -2.3494 0.9519
-10.4624 6.0522 -2.3494 0.9519
-11.1148 4.7489 -2.3494 0.9519
-11.6286 3.3833 -2.3541 0.9518
-12.7003 2.0818 -2.5016 0.9489
-12.8586 0.5380 -2.5016 0.9489
-12.6146 -2.5504 -2.5016 0.9489
-12.2159 -4.0502 -2.5016 0.9489
-10.8940 -6.8521 -2.5016 0.9489
-9.9901 -8.1135 -2.5016 0.9489
-8.9409 -9.2570 -2.5016 0.9489
-7.7617 -10.2658 -2.5016 0.9489
-6.4697 -11.1254 -2.5016 0.9489
-5.0835 -11.8233 -2.5016 0.9489
-2.1108 -12.6955 -2.5016 0.9489
-0.5674 -12.8573 -2.5016 0.9489
0.9843 -12.8321 -2.5016 0.9489
2.5216 -12.6203 -2.5016 0.9489
5.4645 -11.6521 -2.5016 0.9489
6.8273 -10.9096 -2.5016 0.9489
8.0907 -10.0086 -2.5016 0.9489
10.2481 -7.7851 -2.5016 0.9489
12.8560 -0.5967 -2.5016 0.9489
10.0377 1.9818 -1.9888 0.9592
10.2605 6.3885 -2.3494 0.9519
9.4170 7.5770 -2.3494 0.9519
8.4365 8.6554 -2.3494 0.9519
6.3748 8.3519 -2.0423 0.9581
2.5868 8.6691 -1.7585 0.9638
1.4832 8.6759 -1.7109 0.9648
-0.6177 8.5658 -1.6694 0.9656
-2.7041 8.3469 -1.7055 0.9649
-4.0363 8.7098 -1.8660 0.9616
-6.9899 8.7280 -2.1736 0.9555
-9.5911 7.3553 -2.3494 0.9519
-10.4067 6.1474 -2.3494 0.9519
-11.0710 4.8502 -2.3494 0.9519
-12.6808 2.1977 -2.5016 0.9489
-12.8531 0.6554 -2.5016 0.9489
-11.6892 -5.3846 -2.5016 0.9489
-10.9561 -6.7524 -2.5016 0.9489
-9.0250 -9.1750 -2.5016 0.9489
-7.8551 -10.1946 -2.5016 0.9489
-5.1913 -11.7764 -2.5016 0.9489
-2.2266 -12.6757 -2.5016 0.9489
-0.6847 -12.8516 -2.5016 0.9489
0.8671 -12.8406 -2.5016 0.9489
2.4063 -12.6428 -2.5016 0.9489
3.9105 -12.2613 -2.5016 0.9489
5.3579 -11.7015 -2.5016 0.9489
6.7274 -10.9715 -2.5016 0.9489
7.9990 -10.0820 -2.5016 0.9489
10.1766 -7.8783 -2.5016 0.9489
11.0509 -6.5962 -2.5016 0.9489
11.7645 -5.2181 -2.5016 0.9489
12.3070 -3.7642 -2.5016 0.9489
12.6706 -2.2555 -2.5016 0.9489
12.8500 -0.7141 -2.5016 0.9489
12.8425 0.8378 -2.5016 0.9489
10.3184 6.2946 -2.3494 0.9519
1.5648 8.6754 -1.7135 0.9647
-0.5401 8.5803 -1.6711 0.9656
-2.6268 8.3680 -1.7048 0.9649
-5.2907 8.7175 -1.9822 0.9593
-6.8594 8.7272 -2.1577 0.9558
-10.3501 6.2422 -2.3494 0.9519
-12.6602 2.3133 -2.5016 0.9489
-12.8466 0.7727 -2.5016 0.9489
-11.7379 -5.2777 -2.5016 0.9489
-7.9478 -10.1224 -2.5016 0.9489
-6.6717 -11.0055 -2.5016 0.9489
-5.2985 -11.7285 -2.5016 0.9489
-3.8484 -12.2809 -2.5016 0.9489
-2.3422 -12.6549 -2.5016 0.9489
-0.8020 -12.8448 -2.5016 0.9489
0.7499 -12.8479 -2.5016 0.9489
2.2908 -12.6643 -2.5016 0.9489
3.7985 -12.2965 -2.5016 0.9489
5.2509 -11.7499 -2.5016 0.9489
10.1043 -7.9709 -2.5016 0.9489
10.9902 -6.6968 -2.5016 0.9489
11.7164 -5.3253 -2.5016 0.9489
12.6495 -2.3711 -2.5016 0.9489
11.2885 2.0154 -2.2290 0.9543
8.5400 2.6167 -1.7362 0.9643
11.0463 4.9062 -2.3494 0.9519
10.3754 6.2001 -2.3494 0.9519
9.5537 7.4038 -2.3494 0.9519
8.5931 8.4999 -2.3494 0.9519
6.6617 8.4051 -2.0847 0.9572
3.9430 8.6229 -1.8430 0.9621
2.7597 8.6681 -1.7682 0.9636
1.6466 8.6749 -1.7163 0.9647
0.5819 8.6815 -1.6913 0.9652
-2.5495 8.3890 -1.7043 0.9649
-3.5769 8.1031 -1.7217 0.9646
-5.1820 8.7169 -1.9712 0.9595
-10.9806 5.0515 -2.3494 0.9519
-12.6797 -2.2041 -2.5016 0.9489
-11.7856 -5.1703 -2.5016 0.9489
-11.0776 -6.5512 -2.5016 0.9489
-10.2085 -7.8369 -2.5016 0.9489
-8.0399 -10.0495 -2.5016 0.9489
-3.9603 -12.2453 -2.5016 0.9489
-0.9192 -12.8369 -2.5016 0.9489
6.5260 -11.0925 -2.5016 0.9489
8.9877 -9.2116 -2.5016 0.9489
10.0311 -8.0628 -2.5016 0.9489
12.2182 2.0664 -2.4087 0.9508
10.4316 6.1051 -2.3494 0.9519
8.6704 8.4211 -2.3494 0.9519
5.1284 10.9498 -2.3503 0.9519
2.8470 8.6675 -1.7734 0.9635
-0.3843 8.6091 -1.6751 0.9655
-1.4112 8.4616 -1.6675 0.9656
-2.4698 8.4017 -1.7022 0.9649
-5.0745 8.7162 -1.9605 0.9597
-9.3861 7.6152 -2.3494 0.9519
-10.2345 6.4301 -2.3494 0.9519
-10.9340 5.1515 -2.3494 0.9519
-12.6158 2.5441 -2.5016 0.9489
-12.8583 -0.5445 -2.5016 0.9489
-12.6993 -2.0882 -2.5016 0.9489
-11.8323 -5.0625 -2.5016 0.9489
-11.1369 -6.4499 -2.5016 0.9489
-9.2729 -8.9244 -2.5016 0.9489
-8.1313 -9.9757 -2.5016 0.9489
-6.8715 -10.8818 -2.5016 0.9489
-5.5118 -11.6298 -2.5016 0.9489
-4.0719 -12.2086 -2.5016 0.9489
-2.5729 -12.6100 -2.5016 0.9489
2.0592 -12.7040 -2.5016 0.9489
3.5733 -12.3638 -2.5016 0.9489
5.0355 -11.8438 -2.5016 0.9489
8.9032 -9.2932 -2.5016 0.9489
9.9571 -8.1541 -2.5016 0.9489
10.8661 -6.8963 -2.5016 0.9489
12.8606 0.4858 -2.5016 0.9489
9.6873 7.2282 -2.3494 0.9519
8.7469 8.3416 -2.3494 0.9519
6.9609 8.4606 -2.1297 0.9563
5.2288 8.1974 -1.8900 0.9612
2.9347 8.6670 -1.7787 0.9634
1.8110 8.6739 -1.7224 0.9645
-1.3326 8.4658 -1.6659 0.9657
-3.4202 8.1476 -1.7176 0.9646
-4.9682 8.7156 -1.9500 0.9599
-6.4791 8.7249 -2.1124 0.9567
-11.4394 3.9026 -2.3494 0.9519
-12.5921 2.6592 -2.5016 0.9489
-12.8206 1.1242 -2.5016 0.9489
-11.8780 -4.9543 -2.5016 0.9489
-11.1953 -6.3479 -2.5016 0.9489
-10.3499 -7.6493 -2.5016 0.9489
-9.3540 -8.8394 -2.5016 0.9489
-6.9705 -10.8187 -2.5016 0.9489
-5.6177 -11.5790 -2.5016 0.9489
-4.1832 -12.1710 -2.5016 0.9489
0.3977 -12.8636 -2.5016 0.9489
3.4603 -12.3959 -2.5016 0.9489
7.6256 -10.3673 -2.5016 0.9489
8.8180 -9.3741 -2.5016 0.9489
10.8027 -6.9952 -2.5016 0.9489
11.5661 -5.6441 -2.5016 0.9489
12.1614 -4.2109 -2.5016 0.9489
12.5798 -2.7166 -2.5016 0.9489
12.8153 -1.1827 -2.5016 0.9489
12.7267 1.9141 -2.5016 0.9489
10.5413 5.9137 -2.3494 0.9519
9.7529 7.1394 -2.3494 0.9519
8.8227 8.2614 -2.3494 0.9519
5.3491 8.2195 -1.9063 0.9608
1.8937 8.6734 -1.7257 0.9645
0.8210 8.6800 -1.6948 0.9651
-1.2542 8.4700 -1.6644 0.9657
-2.3067 8.4113 -1.6954 0.9651
-3.3421 8.1697 -1.7158 0.9647
-4.8629 8.7149 -1.9399 0.9601
-8.2413 8.8415 -2.3494 0.9519
-10.8382 5.3502 -2.3494 0.9519
-11.4033 4.0069 -2.3494 0.9519
-12.5596 2.7723 -2.5001 0.9489
-12.8098 1.2412 -2.5016 0.9489
-12.8661 -0.3097 -2.5016 0.9489
-12.7353 -1.8560 -2.5016 0.9489
-11.9227 -4.8457 -2.5016 0.9489
-11.2528 -6.2455 -2.5016 0.9489
-7.0690 -10.7546 -2.5016 0.9489
-4.2941 -12.1323 -2.5016 0.9489
-1.2704 -12.8069 -2.5016 0.9489
0.2803 -12.8668 -2.5016 0.9489
3.3470 -12.4270 -2.5016 0.9489
4.8184 -11.9338 -2.5016 0.9489
8.7321 -9.4542 -2.5016 0.9489
9.8065 -8.3345 -2.5016 0.9489
10.7384 -7.0935 -2.5016 0.9489
12.1224 -4.3218 -2.5016 0.9489
12.5545 -2.8313 -2.5016 0.9489
12.8673 0.2509 -2.5016 0.9489
8.6400 2.3059 -1.7382 0.9642
8.5875 3.4446 -1.7985 0.9630
9.8177 7.0501 -2.3494 0.9519
5.4251 10.8028 -2.3498 0.9519
3.1118 8.6659 -1.7898 0.9632
1.9767 8.6729 -1.7291 0.9644
-1.1758 8.4741 -1.6630 0.9657
-3.2641 8.1916 -1.7140 0.9647
-4.7588 8.7143 -1.9300 0.9603
-6.2341 8.7233 -2.0841 0.9572
-9.1741 7.8693 -2.3494 0.9519
-10.0546 6.7079 -2.3494 0.9519
-11.3663 4.1108 -2.3494 0.9519
-12.5251 2.8848 -2.4984 0.9490
-12.7979 1.3580 -2.5016 0.9489
-11.9665 -4.7366 -2.5016 0.9489
-11.3094 -6.1425 -2.5016 0.9489
-10.4878 -7.4590 -2.5016 0.9489
-8.4014 -9.7492 -2.5016 0.9489
-7.1669 -10.6896 -2.5016 0.9489
-5.8281 -11.4745 -2.5016 0.9489
-4.4047 -12.0926 -2.5016 0.9489
0.1629 -12.8688 -2.5016 0.9489
1.7106 -12.7556 -2.5016 0.9489
3.2334 -12.4570 -2.5016 0.9489
4.7093 -11.9772 -2.5016 0.9489
6.1167 -11.3233 -2.5016 0.9489
7.4351 -10.5048 -2.5016 0.9489
8.6454 -9.5335 -2.5016 0.9489
9.7301 -8.4236 -2.5016 0.9489
10.6732 -7.1912 -2.5016 0.9489
11.4612 -5.8543 -2.5016 0.9489
12.0825 -4.4323 -2.5016 0.9489
12.7595 1.6815 -2.5016 0.9489
8.6828 2.2327 -1.7427 0.9641
10.6475 5.7202 -2.3494 0.9519
9.8816 6.9602 -2.3494 0.9519
5.5960 8.2647 -1.9401 0.9601
2.0601 8.6724 -1.7326 0.9643
-0.0701 8.6674 -1.6848 0.9653
-1.0976 8.4782 -1.6618 0.9658
-2.1448 8.4207 -1.6891 0.9652
-6.1141 8.7226 -2.0706 0.9575
-9.9929 6.7995 -2.3494 0.9519
-10.7387 5.5472 -2.3494 0.9519
-11.3283 4.2144 -2.3494 0.9519
-12.7850 1.4748 -2.5016 0.9489
-12.8696 -0.0747 -2.5016 0.9489
-12.7670 -1.6232 -2.5016 0.9489
-12.4788 -3.1481 -2.5016 0.9489
-10.5554 -7.3630 -2.5016 0.9489
-7.2642 -10.6237 -2.5016 0.9489
-5.9327 -11.4208 -2.5016 0.9489
-4.5149 -12.0519 -2.5016 0.9489
-3.0315 -12.5077 -2.5016 0.9489
1.5941 -12.7707 -2.5016 0.9489
4.5998 -12.0197 -2.5016 0.9489
10.6071 -7.2884 -2.5016 0.9489
11.4073 -5.9587 -2.5016 0.9489
12.0415 -4.5424 -2.5016 0.9489
12.7781 -1.5332 -2.5016 0.9489
12.8698 0.0160 -2.5016 0.9489
8.7017 2.1530 -1.7424 0.9641
9.9447 6.8697 -2.3494 0.9519
7.6443 8.6289 -2.2408 0.9541
5.7226 8.2877 -1.9577 0.9598
3.2912 8.6648 -1.8017 0.9629
2.1437 8.6718 -1.7364 0.9643
0.0090 8.6583 -1.6830 0.9653
-1.0205 8.4911 -1.6624 0.9658
-3.1084 8.2352 -1.7110 0.9648
-4.5536 8.7130 -1.9110 0.9607
-7.6724 8.6969 -2.2543 0.9538
-9.0289 8.0355 -2.3494 0.9519
-9.9304 6.8904 -2.3494 0.9519
-12.8697 0.0427 -2.5016 0.9489
-12.7813 -1.5066 -2.5016 0.9489
-12.0509 -4.5174 -2.5016 0.9489
-11.4196 -5.9350 -2.5016 0.9489
-6.0367 -11.3662 -2.5016 0.9489
-4.6247 -12.0101 -2.5016 0.9489
-1.6206 -12.7674 -2.5016 0.9489
-0.0721 -12.8696 -2.5016 0.9489
4.4898 -12.0612 -2.5016 0.9489
7.2421 -10.6388 -2.5016 0.9489
11.3524 -6.0626 -2.5016 0.9489
11.9996 -4.6521 -2.5016 0.9489
12.8694 -0.1015 -2.5016 0.9489
8.8160 2.0961 -1.7614 0.9637
8.5290 3.1528 -1.7675 0.9636
10.7502 5.5249 -2.3494 0.9519
7.7841 8.6267 -2.2586 0.9538
5.8497 8.3085 -1.9751 0.9594
3.1121 5.7956 -1.2787 0.9736
3.3818 8.6642 -1.8079 0.9628
2.2200 -10.6059 -2.5016 0.9565
3.4804 -10.2616 -2.5016 0.9565
7.8453 -7.4743 -2.5016 0.9565
8.6879 -6.4757 -2.5016 0.9565
9.4042 -5.3829 -2.5016 0.9565
10.4181 -2.9796 -2.5016 0.9565
10.7010 -1.7040 -2.5016 0.9565
10.7981 0.9027 -2.5016 0.9565
9.5611 1.9785 -2.2541 0.9607
8.5416 2.8753 -2.0807 0.9637
9.5142 4.5416 -2.4339 0.9576
7.8701 6.4516 -2.3494 0.9591
7.0364 7.3520 -2.3494 0.9591
2.5010 8.6696 -2.0832 0.9636
1.4019 8.6764 -2.0291 0.9646
0.3435 8.6829 -2.0062 0.9650
-0.6952 8.5515 -1.9808 0.9654
-2.7282 8.1661 -1.9877 0.9653
-4.1335 8.7104 -2.2259 0.9612
-6.4336 7.8848 -2.3494 0.9591
-8.1315 6.1189 -2.3494 0.9591
-8.8089 5.0957 -2.3494 0.9591
-10.8263 0.4530 -2.5016 0.9565
-10.8021 -0.8534 -2.5016 0.9565
-10.6209 -2.1473 -2.5016 0.9565
-9.8000 -4.6232 -2.5016 0.9565
-8.4112 -6.8312 -2.5016 0.9565
-6.5350 -8.6434 -2.5016 0.9565
-5.4472 -9.3671 -2.5016 0.9565
-4.2801 -9.9546 -2.5016 0.9565
-3.0508 -10.3974 -2.5016 0.9565
-1.7772 -10.6890 -2.5016 0.9565
-0.4777 -10.8252 -2.5016 0.9565
4.6009 -9.8105 -2.5016 0.9565
6.8120 -8.4268 -2.5016 0.9565
10.3904 -3.0746 -2.5016 0.9565
10.6850 -1.8016 -2.5016 0.9565
10.8059 0.8041 -2.5016 0.9565
10.6306 2.0988 -2.5016 0.9565
8.5437 2.7895 -2.0749 0.9638
9.7248 4.5336 -2.4771 0.9569
8.6389 5.3788 -2.3494 0.9591
7.9287 6.3795 -2.3494 0.9591
5.1559 8.7738 -2.3494 0.9591
3.7712 8.6618 -2.1811 0.9620
1.4832 8.6759 -2.0321 0.9645
-0.6177 8.5658 -1.9827 0.9654
-1.6342 8.3776 -1.9706 0.9656
-2.6523 8.1869 -1.9868 0.9653
-4.0363 8.7098 -2.2162 0.9614
-5.3591 8.6511 -2.3494 0.9591
-6.3614 7.9432 -2.3494 0.9591
-8.0753 6.1928 -2.3494 0.9591
-9.3212 4.0836 -2.3494 0.9591
-10.3763 3.1220 -2.5016 0.9565
-10.6766 1.8503 -2.5016 0.9565
-10.8095 -0.7547 -2.5016 0.9565
-9.8418 -4.5336 -2.5016 0.9565
-9.2246 -5.6852 -2.5016 0.9565
-8.4732 -6.7542 -2.5016 0.9565
-7.5987 -7.7249 -2.5016 0.9565
-6.6136 -8.5833 -2.5016 0.9565
-4.3708 -9.9151 -2.5016 0.9565
-3.1456 -10.3692 -2.5016 0.9565
3.2925 -10.3234 -2.5016 0.9565
4.5111 -9.8521 -2.5016 0.9565
5.6641 -9.2375 -2.5016 0.9565
6.7348 -8.4886 -2.5016 0.9565
7.7076 -7.6163 -2.5016 0.9565
8.5682 -6.6332 -2.5016 0.9565
9.3043 -5.5537 -2.5016 0.9565
9.9052 -4.3934 -2.5016 0.9565
10.6681 -1.8990 -2.5016 0.9565
10.8191 -0.6012 -2.5016 0.9565
10.8128 0.7054 -2.5016 0.9565
10.6493 2.0017 -2.5016 0.9565
8.6876 5.2997 -2.3494 0.9591
6.2480 8.0327 -2.3494 0.9591
5.2357 8.7263 -2.3494 0.9591
0.5023 8.6819 -2.0077 0.9649
-0.5401 8.5803 -1.9848 0.9653
-1.5575 8.3915 -1.9704 0.9656
-2.5765 8.2077 -1.9861 0.9653
-3.9263 8.6792 -2.1992 0.9616
-7.2059 7.1859 -2.3494 0.9591
-8.0184 6.2663 -2.3494 0.9591
-10.3433 3.2153 -2.5007 0.9565
-10.8162 0.6506 -2.5016 0.9565
-10.8159 -0.6560 -2.5016 0.9565
-9.8828 -4.4435 -2.5016 0.9565
-9.2761 -5.6008 -2.5016 0.9565
-8.5345 -6.6765 -2.5016 0.9565
-7.6689 -7.6552 -2.5016 0.9565
-6.6917 -8.5226 -2.5016 0.9565
-3.2401 -10.3400 -2.5016 0.9565
-1.9720 -10.6548 -2.5016 0.9565
-0.6753 -10.8147 -2.5016 0.9565
1.9288 -10.6627 -2.5016 0.9565
4.4210 -9.8929 -2.5016 0.9565
6.6570 -8.5497 -2.5016 0.9565
7.6377 -7.6863 -2.5016 0.9565
10.6503 -1.9963 -2.5016 0.9565
10.8188 0.6067 -2.5016 0.9565
10.6671 1.9044 -2.5016 0.9565
7.2350 7.1565 -2.3494 0.9591
6.3210 7.9754 -2.3494 0.9591
5.3152 8.6782 -2.3494 0.9591
3.9430 8.6229 -2.1890 0.9618
2.7597 8.6681 -2.1002 0.9633
0.5819 8.6815 -2.0088 0.9649
-0.4623 8.5947 -1.9871 0.9653
-2.5007 8.2283 -1.9855 0.9653
-5.2002 8.7475 -2.3494 0.9591
-6.2153 8.0580 -2.3494 0.9591
-7.1400 7.2513 -2.3494 0.9591
-7.9609 6.3392 -2.3494 0.9591
-9.2451 4.2531 -2.3494 0.9591
-10.3077 3.3077 -2.4992 0.9565
-10.6411 2.0449 -2.5016 0.9565
-10.6757 -1.8557 -2.5016 0.9565
-9.9229 -4.3531 -2.5016 0.9565
-9.3268 -5.5159 -2.5016 0.9565
-7.7384 -7.5849 -2.5016 0.9565
-6.7692 -8.4612 -2.5016 0.9565
-2.0692 -10.6364 -2.5016 0.9565
-0.7739 -10.8081 -2.5016 0.9565
0.5326 -10.8227 -2.5016 0.9565
3.1035 -10.3818 -2.5016 0.9565
4.3305 -9.9328 -2.5016 0.9565
6.5787 -8.6101 -2.5016 0.9565
7.5672 -7.7557 -2.5016 0.9565
9.2014 -5.7226 -2.5016 0.9565
9.8233 -4.5735 -2.5016 0.9565
10.3024 -3.3579 -2.5016 0.9565
10.6316 -2.0935 -2.5016 0.9565
10.6841 1.8070 -2.5016 0.9565
9.9278 4.3014 -2.4979 0.9566
6.3936 7.9173 -2.3494 0.9591
5.3942 8.6293 -2.3494 0.9591
1.7287 8.6744 -2.0420 0.9643
-3.7435 8.6944 -2.1854 0.9619
-5.1202 8.7946 -2.3494 0.9591
-6.1415 8.1144 -2.3494 0.9591
-7.0735 7.3162 -2.3494 0.9591
-7.9027 6.4116 -2.3494 0.9591
-8.6170 5.4139 -2.3494 0.9591
-10.2712 3.3997 -2.4978 0.9566
-10.6220 2.1420 -2.5016 0.9565
-10.8025 0.8479 -2.5016 0.9565
-10.8261 -0.4585 -2.5016 0.9565
-10.6922 -1.7582 -2.5016 0.9565
-9.9622 -4.2624 -2.5016 0.9565
-5.7855 -9.1620 -2.5016 0.9565
-4.6406 -9.7918 -2.5016 0.9565
-0.8726 -10.8006 -2.5016 0.9565
0.4337 -10.8271 -2.5016 0.9565
4.2397 -9.9719 -2.5016 0.9565
6.4999 -8.6698 -2.5016 0.9565
7.4961 -7.8245 -2.5016 0.9565
9.1488 -5.8064 -2.5016 0.9565
10.2713 -3.4518 -2.5016 0.9565
10.6121 -2.1904 -2.5016 0.9565
8.7269 3.6868 -2.1872 0.9619
8.8295 5.0599 -2.3494 0.9591
4.1445 8.6426 -2.2129 0.9614
2.9347 8.6670 -2.1125 0.9631
1.8110 8.6739 -2.0457 0.9643
0.7412 8.6805 -2.0113 0.9649
-0.3061 8.6237 -1.9922 0.9652
-1.3276 8.4342 -1.9712 0.9656
-2.3492 8.2694 -1.9847 0.9653
-6.0672 8.1701 -2.3494 0.9591
-7.8438 6.4835 -2.3494 0.9591
-10.2339 3.4913 -2.4964 0.9566
-10.8298 -0.3596 -2.5016 0.9565
-9.4259 -5.3447 -2.5016 0.9565
-8.7141 -6.4404 -2.5016 0.9565
-7.8756 -7.4424 -2.5016 0.9565
-6.9226 -8.3362 -2.5016 0.9565
-5.8689 -9.1088 -2.5016 0.9565
-4.7299 -9.7490 -2.5016 0.9565
-3.5078 -10.2060 -2.4915 0.9567
-2.2630 -10.5968 -2.5016 0.9565
-0.9711 -10.7922 -2.5016 0.9565
0.3349 -10.8306 -2.5016 0.9565
5.3231 -9.4381 -2.5016 0.9565
6.4204 -8.7288 -2.5016 0.9565
7.4244 -7.8925 -2.5016 0.9565
8.3204 -6.9416 -2.5016 0.9565
10.5916 -2.2872 -2.5016 0.9565
8.8753 4.9791 -2.3494 0.9591
6.5371 7.7993 -2.3494 0.9591
5.5508 8.5294 -2.3494 0.9591
1.8937 8.6734 -2.0496 0.9642
-0.2276 8.6382 -1.9950 0.9651
-1.2510 8.4484 -1.9717 0.9655
-2.2734 8.2898 -1.9845 0.9653
-5.9923 8.2252 -2.3494 0.9591
-6.9388 7.4441 -2.3494 0.9591
-7.7843 6.5549 -2.3494 0.9591
-9.1252 4.5047 -2.3494 0.9591
-10.1959 3.5826 -2.4950 0.9566
-10.5811 2.3356 -2.5016 0.9565
-10.7853 1.0450 -2.5016 0.9565
-10.7225 -1.5627 -2.5016 0.9565
-10.4565 -2.8419 -2.5016 0.9565
-10.0384 -4.0798 -2.5016 0.9565
-8.7726 -6.3605 -2.5016 0.9565
-5.9518 -9.0548 -2.5016 0.9565
-3.5983 -10.1663 -2.4898 0.9567
-2.3597 -10.5757 -2.5016 0.9565
-1.0696 -10.7829 -2.5016 0.9565
0.2360 -10.8332 -2.5016 0.9565
1.5382 -10.7260 -2.5016 0.9565
2.8180 -10.4629 -2.5016 0.9565
4.0569 -10.0477 -2.5016 0.9565
8.2567 -7.0172 -2.5016 0.9565
9.0412 -5.9724 -2.5016 0.9565
10.2065 -3.6388 -2.5016 0.9565
10.7804 -1.0942 -2.5016 0.9565
10.8337 0.2113 -2.5016 0.9565
10.7295 1.5137 -2.5016 0.9565
8.2660 5.9359 -2.3494 0.9591
5.6284 8.4783 -2.3494 0.9591
3.1118 8.6659 -2.1258 0.9629
1.9767 8.6729 -2.0536 0.9641
0.9010 8.6795 -2.0146 0.9648
-0.1490 8.6528 -1.9979 0.9651
-1.1742 8.4626 -1.9725 0.9655
-4.8775 8.9315 -2.3494 0.9591
-5.9170 8.2795 -2.3494 0.9591
-6.8705 7.5072 -2.3494 0.9591
-10.1145 3.6581 -2.4831 0.9568
-10.5593 2.4320 -2.5016 0.9565
-10.7363 -1.4647 -2.5016 0.9565
-10.0752 -3.9880 -2.5016 0.9565
-7.0736 -8.2084 -2.5016 0.9565
-3.6909 -10.1331 -2.4898 0.9567
-1.1680 -10.7727 -2.5016 0.9565
1.4402 -10.7396 -2.5016 0.9565
2.7224 -10.4882 -2.5016 0.9565
3.9650 -10.0843 -2.5016 0.9565
8.9864 -6.0547 -2.5016 0.9565
9.6498 -4.9291 -2.5016 0.9565
10.1729 -3.7318 -2.5016 0.9565
10.5481 -2.4802 -2.5016 0.9565
10.7700 -1.1926 -2.5016 0.9565
10.8352 0.1124 -2.5016 0.9565
8.5989 3.3583 -2.1312 0.9628
8.9647 4.8162 -2.3494 0.9591
5.7056 8.4266 -2.3494 0.9591
4.4410 8.6455 -2.2439 0.9609
3.2012 8.6654 -2.1327 0.9628
0.9811 8.6790 -2.0165 0.9648
-1.0974 8.4769 -1.9734 0.9655
-2.1218 8.3303 -1.9846 0.9653
-3.1249 8.0554 -1.9948 0.9652
-4.7957 8.9757 -2.3494 0.9591
-5.8412 8.3332 -2.3494 0.9591
-6.8017 7.5696 -2.3494 0.9591
-7.6634 6.6958 -2.3494 0.9591
-8.4136 5.7248 -2.3494 0.9591
-9.0415 4.6705 -2.3494 0.9591
