ply
format ascii 1.0
element vertex 1578
property float32 x
property float32 y
property float32 z
property float32 I
end_header
-56.2875 -16.9258 13.5698 0.7856
-4.9114 -15.1648 3.6801 0.9367
-2.9134 -40.4860 9.3711 0.8465
32.1263 -42.0608 12.2190 0.8047
9.7646 5.7175 2.6124 0.9546
34.3093 26.1037 9.9529 0.8378
35.3602 34.3622 11.3832 0.8168
34.4111 42.6381 12.6497 0.7986
34.4885 55.2135 15.0295 0.7655
-58.1538 -17.0114 13.9885 0.7798
-50.3754 -29.2427 13.4476 0.7873
-55.7792 -42.1087 16.1351 0.7506
-25.7420 -40.8683 11.1509 0.8201
-14.8413 -31.4098 8.0203 0.8671
31.6262 -42.0578 12.1487 0.8057
-7.0714 -28.2147 5.6540 0.8882
32.7577 -87.5961 18.1786 0.6831
27.0157 -39.5538 9.3107 0.8227
49.5841 -44.3908 12.9363 0.7625
59.2995 -31.5398 13.0556 0.7606
59.8631 14.3514 11.9659 0.7781
54.0512 20.0974 11.2093 0.7906
10.9636 5.6614 2.3985 0.9510
35.4601 50.5862 12.0082 0.7775
-3.2180 8.7048 1.8040 0.9629
-4.4720 8.7003 1.9015 0.9609
-15.7049 23.1802 5.4425 0.8922
-19.7602 22.7051 5.8508 0.8846
-59.2729 53.4675 15.5164 0.7223
-21.5445 2.8281 4.2237 0.9153
-58.0635 -13.6894 11.5958 0.7842
-59.7146 -65.9488 17.2934 0.6959
-23.6999 -33.5409 7.9831 0.8459
-7.2771 -28.1369 5.6492 0.8883
-4.4897 -33.7118 6.6108 0.8706
49.7789 -45.2437 13.0755 0.7603
60.3937 -42.8446 14.3934 0.7395
59.0608 -31.9846 13.0556 0.7606
54.5990 19.8353 11.2916 0.7892
11.1662 5.6602 2.4334 0.9503
34.3305 29.5393 8.8034 0.8315
35.2699 49.5190 11.8174 0.7806
4.7010 8.6417 1.9122 0.9607
2.2774 8.6710 1.7426 0.9641
1.1889 8.6777 1.7025 0.9649
-3.1437 8.7044 1.7989 0.9630
-19.4607 22.7033 5.8125 0.8853
-58.7625 53.8137 15.4883 0.7228
-38.0780 -8.6760 7.5913 0.8529
-50.4143 -25.3174 10.9658 0.7946
-17.8477 -32.5175 7.2102 0.8597
-10.1426 -25.2992 5.2981 0.8949
-4.7476 -33.7103 6.6173 0.8705
26.5543 -40.1613 9.3587 0.8219
36.4227 -42.8161 10.9266 0.7953
59.7574 -43.0719 14.3185 0.7407
58.8593 -32.4501 13.0646 0.7604
39.5720 19.6866 8.5913 0.8352
34.3277 29.0908 8.7464 0.8325
3.5111 8.6634 1.8170 0.9626
2.3471 8.6706 1.7461 0.9641
1.2553 8.6773 1.7043 0.9649
-0.8517 8.6903 1.6973 0.9650
-1.9301 8.6969 1.7316 0.9644
-3.0698 8.7039 1.7940 0.9631
-15.1996 23.1771 5.3875 0.8932
-19.3561 22.9278 5.8325 0.8849
-17.8442 -31.9395 7.1116 0.8615
-10.3732 -25.3217 5.3190 0.8945
-5.0060 -33.7087 6.6242 0.8703
25.2913 -51.5648 11.1639 0.7913
25.7802 -39.6349 9.1906 0.8248
49.7704 -46.6213 13.2559 0.7574
59.7533 -43.7552 14.3959 0.7395
62.6784 13.5396 12.4645 0.7701
56.5359 19.5821 11.6300 0.7836
34.7874 22.5342 8.0567 0.8446
2.4171 8.6702 1.7496 0.9640
1.3219 8.6769 1.7061 0.9649
0.2649 8.6834 1.6887 0.9652
-12.1170 24.9414 5.3900 0.8932
-67.6360 -14.3448 13.4396 0.7545
-50.8330 -24.5780 10.9753 0.7945
-54.6554 -45.2688 13.7948 0.7489
-61.3571 -64.7662 17.3417 0.6952
-24.7962 -33.4651 8.0960 0.8439
-17.9513 -31.5717 7.0596 0.8624
-14.0879 -33.6663 7.0939 0.8618
-8.7802 -31.0441 6.2711 0.8768
-5.2649 -33.7071 6.6314 0.8702
31.0349 -91.2611 18.7370 0.6752
24.8829 -51.7114 11.1548 0.7915
35.0210 -42.4448 10.6963 0.7991
59.5709 -25.0596 12.5623 0.7685
57.9149 19.5736 11.8831 0.7795
42.1214 20.1709 9.0779 0.8267
34.7851 22.1635 8.0174 0.8453
35.4408 47.4572 11.5132 0.7856
4.9640 8.6545 1.9393 0.9602
-0.7200 8.6895 1.6948 0.9651
-1.7932 8.6960 1.7259 0.9645
-2.9232 8.7030 1.7846 0.9633
-14.3858 22.6721 5.2193 0.8964
-18.9965 23.2005 5.8286 0.8850
-67.1206 -13.7092 13.3163 0.7564
-18.2656 -31.5698 7.0896 0.8619
25.3401 -40.2699 9.2485 0.8238
49.6731 -47.9520 13.4204 0.7548
59.7448 -45.1440 14.5557 0.7370
59.5677 -25.5868 12.6018 0.7678
34.3670 35.4669 9.5997 0.8177
35.4362 46.7145 11.3973 0.7875
1.4556 8.6761 1.7100 0.9648
0.3956 8.6826 1.6895 0.9652
-1.7250 8.6956 1.7232 0.9645
-14.1470 22.6706 5.1943 0.8968
-55.4459 53.9288 15.0347 0.7297
-64.8203 -30.1472 13.8958 0.7473
-18.5826 -31.5678 7.1204 0.8613
-14.6849 -33.6627 7.1389 0.8610
-9.3120 -31.1296 6.3159 0.8760
-0.6760 -13.7025 2.6667 0.9456
59.9625 -46.0206 14.6926 0.7349
59.5644 -26.1175 12.6423 0.7672
95.1277 18.3148 18.8305 0.6738
43.7776 20.1607 9.3685 0.8217
34.7806 21.4324 7.9412 0.8466
34.5891 27.5695 8.5979 0.8351
5.1378 8.6535 1.9562 0.9598
3.8070 8.6382 1.8349 0.9623
2.6287 8.6689 1.7608 0.9638
1.5226 8.6757 1.7122 0.9647
0.4610 8.6822 1.6900 0.9652
-1.6571 8.6952 1.7206 0.9646
-3.9912 8.7096 1.8623 0.9617
-13.9104 22.6691 5.1699 0.8973
-70.1139 -13.2258 13.8691 0.7477
-64.7625 -29.5303 13.8355 0.7482
-54.2727 -42.9259 13.4504 0.7543
-14.9218 -33.5162 7.1314 0.8611
-6.0456 -33.7023 6.6556 0.8698
-2.3026 -40.4897 7.8831 0.8477
33.3338 -42.3083 10.4697 0.8029
50.0175 -49.7586 13.7140 0.7501
59.7361 -46.5644 14.7225 0.7345
74.4475 -44.7709 16.8862 0.7019
59.6110 -26.6740 12.6943 0.7664
59.8901 18.7476 12.1985 0.7744
3.8951 8.6611 1.8460 0.9620
2.6998 8.6684 1.7648 0.9637
-0.5230 8.6882 1.6919 0.9652
-2.7060 8.7017 1.7713 0.9635
-13.7838 22.8460 5.1865 0.8970
-55.2694 55.3977 15.2109 0.7270
-64.7054 -28.9191 13.7765 0.7492
-54.8843 -42.7434 13.5221 0.7532
-15.2894 -33.6589 7.1860 0.8602
-10.6271 -33.6742 6.8638 0.8660
-2.6078 -40.4879 7.8864 0.8476
38.7740 -87.1949 18.5492 0.6778
24.1518 -40.3728 9.1447 0.8256
32.8193 -42.3051 10.4077 0.8040
49.7482 -50.2398 13.7433 0.7497
74.4782 -45.5548 16.9705 0.7006
59.6077 -27.2117 12.7368 0.7657
95.0576 16.8239 18.7645 0.6748
59.8871 18.2538 12.1696 0.7748
34.7761 20.7151 7.8682 0.8479
34.4943 56.1580 12.8108 0.7645
3.9734 8.6606 1.8522 0.9619
2.7714 8.6680 1.7689 0.9636
0.4024 5.9018 1.1499 0.9762
-1.5219 8.6944 1.7157 0.9647
-2.6343 8.7012 1.7672 0.9636
-17.8537 23.1934 5.6894 0.8876
-54.5830 55.5385 15.1365 0.7281
-78.8523 -13.6503 15.5553 0.7217
-57.5611 -17.3088 11.6837 0.7828
-20.8344 -33.6350 7.6907 0.8511
-15.5948 -33.6571 7.2104 0.8597
-6.5692 -33.6991 6.6737 0.8694
95.2118 16.1141 18.7705 0.6747
59.8840 17.7621 12.1415 0.7753
34.7740 20.3613 7.8329 0.8486
35.1811 26.7670 8.5928 0.8352
35.3602 34.3622 9.5842 0.8180
2.8432 8.6675 1.7731 0.9635
1.7248 8.6744 1.7191 0.9646
0.4456 5.8833 1.1469 0.9762
-0.3920 8.6874 1.6904 0.9652
-1.4546 8.6940 1.7134 0.9647
-2.5629 8.7008 1.7631 0.9637
-3.7553 8.7081 1.8434 0.9621
-17.5763 23.1917 5.6564 0.8882
-53.7635 55.5334 15.0246 0.7298
-68.3446 -29.3211 14.4558 0.7386
-21.1845 -33.6329 7.7264 0.8505
-10.7581 -32.3850 6.6333 0.8702
-6.8322 -33.6975 6.6834 0.8693
-3.2193 -40.4841 7.8942 0.8475
23.6217 -40.8689 9.1756 0.8250
31.8076 -42.2989 10.2873 0.8060
59.7226 -48.7576 14.9863 0.7304
60.0948 -28.5334 12.9311 0.7626
-7.9356 -31.6628 5.1700 0.8762
-3.9705 -31.6285 5.0488 0.8789
29.8552 -79.8348 13.4998 0.7081
21.7223 -41.8731 7.4713 0.8261
36.9870 -42.1780 8.8851 0.7968
54.0512 20.0974 9.1335 0.7917
38.3325 19.7942 6.8329 0.8397
34.8948 23.7375 6.6843 0.8429
35.3387 30.8721 7.4321 0.8269
4.6251 8.6566 1.5545 0.9610
3.3607 8.6644 1.4719 0.9631
1.1226 8.6781 1.3859 0.9652
-0.9839 8.6911 1.3853 0.9652
-2.0679 8.6977 1.4160 0.9644
-4.4783 8.7125 1.5516 0.9611
-7.5992 8.7317 1.8334 0.9542
-59.2994 53.4914 12.6487 0.7237
-58.7253 -13.8454 9.5562 0.7832
-84.7141 -31.1367 14.2950 0.6938
-22.2898 -31.5451 6.1177 0.8552
-12.3960 -31.6057 5.3771 0.8715
-7.2843 -28.1651 4.6077 0.8889
-4.2120 -31.6270 5.0535 0.8788
-0.9766 -83.3746 13.2062 0.7134
29.4537 -80.6023 13.5918 0.7064
21.4961 -42.2101 7.5024 0.8254
36.4136 -42.1592 8.8232 0.7980
48.3992 -43.9897 10.3589 0.7673
59.7615 -42.3961 11.6052 0.7432
60.0775 -32.5352 10.8211 0.7583
63.3365 -24.9784 10.7835 0.7590
54.5990 19.8353 9.2006 0.7904
3.4357 8.6639 1.4762 0.9630
1.1889 8.6777 1.3873 0.9651
-0.9178 8.6907 1.3841 0.9652
-3.1437 8.7044 1.4658 0.9632
-4.3956 8.7120 1.5455 0.9613
-58.3786 53.4620 12.5377 0.7257
-38.1152 -8.6845 6.1916 0.8536
-59.8652 -65.1246 14.0106 0.6989
-24.1330 -33.6148 6.5541 0.8457
-17.3498 -31.6104 5.7111 0.8641
-10.1476 -25.3119 4.3192 0.8954
-8.4425 -31.6597 5.1896 0.8757
-4.4540 -31.6255 5.0584 0.8787
-1.6032 -83.3681 13.2067 0.7134
35.9703 -42.2843 8.7926 0.7987
47.6224 -43.9418 10.2630 0.7692
59.7576 -43.0721 11.6670 0.7421
62.0958 -25.0300 10.6039 0.7625
60.5582 13.5588 9.8289 0.7778
55.2139 19.5903 9.2792 0.7888
39.5720 19.6866 7.0003 0.8361
34.7897 22.9088 6.5975 0.8448
34.9165 29.5898 7.2489 0.8308
6.2570 8.6466 1.6904 0.9577
4.7932 8.6556 1.5671 0.9607
3.5111 8.6634 1.4806 0.9629
2.3471 8.6706 1.4227 0.9643
-0.8517 8.6903 1.3830 0.9653
-1.9301 8.6969 1.4110 0.9646
-3.0698 8.7039 1.4618 0.9633
-68.7091 -15.1129 11.1426 0.7521
-65.1386 -32.1009 11.5017 0.7452
-17.6398 -31.5736 5.7283 0.8638
-8.4702 -30.8309 5.0641 0.8785
31.3402 -89.9360 15.0846 0.6800
26.2029 -40.2847 7.6114 0.8231
35.3285 -42.1680 8.7129 0.8003
56.5358 19.5821 9.4763 0.7848
34.7874 22.5342 6.5647 0.8455
6.3561 8.6460 1.6996 0.9575
4.8782 8.6551 1.5736 0.9606
1.3219 8.6769 1.3901 0.9651
0.2650 8.6834 1.3760 0.9654
-0.7858 8.6899 1.3820 0.9653
-2.9963 8.7034 1.4579 0.9634
-7.2581 8.7296 1.7981 0.9551
-56.6589 53.4752 12.3396 0.7294
-57.8015 -12.2591 9.3585 0.7872
-79.9981 -51.3950 15.0600 0.6804
-61.2091 -64.6100 14.0962 0.6974
-24.9036 -33.6101 6.6254 0.8442
-17.9513 -31.5717 5.7523 0.8632
-13.2381 -31.6356 5.4316 0.8703
-2.8569 -83.3604 13.2108 0.7133
25.9461 -40.5535 7.6252 0.8229
33.8087 -40.9756 8.4138 0.8064
46.1120 -43.8495 10.0784 0.7728
42.1214 20.1709 7.3969 0.8277
34.7851 22.1635 6.5327 0.8462
35.3274 29.0371 7.2428 0.8309
8.2407 8.6333 1.8903 0.9528
4.9640 8.6545 1.5802 0.9604
27.4289 64.8618 11.1539 0.7519
0.3303 8.6830 1.3762 0.9654
-1.7932 8.6960 1.4063 0.9647
-2.9232 8.7030 1.4541 0.9635
-12.0512 25.2875 4.4367 0.8928
-79.7081 45.9177 14.5695 0.6890
-57.7580 -11.7969 9.3368 0.7876
-66.2990 -31.4431 11.6218 0.7429
-80.9435 -51.1469 15.1652 0.6786
-21.6544 -22.5162 4.9478 0.8812
-25.2953 -33.6077 6.6622 0.8434
-18.2656 -31.5698 5.7768 0.8627
-5.1829 -31.6211 5.0751 0.8783
24.4337 -51.7704 9.0670 0.7931
25.5386 -40.5854 7.5949 0.8235
45.3772 -43.8050 9.9895 0.7746
59.9691 -45.3134 11.9048 0.7376
59.5647 -34.6124 10.9113 0.7565
59.8170 -25.6940 10.3111 0.7682
59.3558 19.5648 9.8986 0.7764
42.9365 20.1659 7.5132 0.8252
34.7828 21.7962 6.5013 0.8468
8.3541 8.6215 1.9014 0.9525
28.0039 64.8583 11.1892 0.7512
2.5578 8.6693 1.4316 0.9641
0.3956 8.6826 1.3766 0.9654
-0.6542 8.6890 1.3801 0.9653
-1.7250 8.6956 1.4041 0.9647
-2.8504 8.7026 1.4504 0.9636
-5.4405 8.7185 1.6277 0.9592
-78.9434 46.2709 14.4929 0.6903
-80.0669 23.7871 13.2292 0.7130
-68.2493 -13.4061 11.0162 0.7545
-63.3978 -64.9368 14.3738 0.6924
-18.5826 -31.5678 5.8018 0.8621
-9.4687 -31.6534 5.2329 0.8748
-5.4311 -31.6433 5.0851 0.8781
25.2113 -40.7413 7.5884 0.8236
32.6877 -40.8527 8.2867 0.8091
44.6554 -43.7613 9.9027 0.7763
59.6606 -35.2706 10.9771 0.7553
60.0631 -26.3362 10.3874 0.7667
70.1014 13.4965 11.3068 0.7489
43.7776 20.1607 7.6336 0.8227
6.6601 8.6441 1.7283 0.9568
5.1378 8.6535 1.5939 0.9601
3.8070 8.6382 1.4951 0.9625
0.4610 8.6822 1.3771 0.9654
-1.6571 8.6952 1.4020 0.9648
-2.7780 8.7021 1.4468 0.9637
-3.9912 8.7096 1.5174 0.9619
-6.9296 8.7276 1.7651 0.9559
-55.4409 54.7409 12.3400 0.7294
-79.9475 47.6704 14.7426 0.6859
-80.5925 24.6040 13.3462 0.7109
-68.3339 -12.8900 11.0139 0.7546
-62.2955 -62.8555 14.0164 0.6988
-18.9023 -31.5659 5.8274 0.8616
-5.6760 -31.6418 5.0916 0.8779
-1.8560 -32.6358 5.1774 0.8760
23.6481 -52.1216 9.0652 0.7931
24.8500 -40.8404 7.5718 0.8240
32.5801 -41.3516 8.3380 0.8080
42.3426 -42.1234 9.4598 0.7851
59.7361 -46.5645 11.9962 0.7358
59.7565 -35.9362 11.0441 0.7540
59.8901 18.7476 9.9396 0.7756
44.5727 20.1222 7.7456 0.8203
8.6196 8.6321 1.9321 0.9518
3.8951 8.6611 1.5041 0.9623
1.5898 8.6753 1.3969 0.9649
0.5264 8.6818 1.3776 0.9654
-0.5230 8.6882 1.3786 0.9654
-3.9120 8.7091 1.5122 0.9621
-8.7184 8.7386 1.9551 0.9512
-79.7786 48.3858 14.7780 0.6853
-78.0682 24.4759 12.9583 0.7180
-19.2247 -31.5639 5.8535 0.8610
-14.3671 -31.6287 5.5021 0.8688
-2.0379 -31.6404 5.0217 0.8795
41.9924 -42.4074 9.4524 0.7853
54.2519 -42.9485 10.9593 0.7556
59.7528 -36.5479 11.0939 0.7530
44.6418 19.7510 7.7317 0.8206
35.2162 27.2140 7.0491 0.8351
8.7494 8.6313 1.9466 0.9514
5.3146 8.6524 1.6083 0.9597
3.9734 8.6606 1.5092 0.9621
1.6572 8.6749 1.3988 0.9649
0.4023 5.9003 0.9367 0.9763
-1.5219 8.6944 1.3980 0.9649
-2.6343 8.7012 1.4399 0.9639
-5.1702 8.7168 1.6052 0.9598
-6.7173 8.7263 1.7442 0.9564
-8.5875 8.7378 1.9404 0.9516
-82.3376 5.7696 13.0730 0.7159
-77.6407 -13.4406 12.4800 0.7268
-19.5719 -31.5969 5.8868 0.8603
-4.9105 -15.1618 2.5241 0.9375
-6.1676 -31.6388 5.1054 0.8776
22.6586 -52.0039 8.9845 0.7947
53.3040 -42.8538 10.8326 0.7581
59.7490 -37.1656 11.1447 0.7520
79.1225 13.3910 12.7100 0.7225
59.8840 17.7621 9.8931 0.7765
35.3141 26.8682 7.0280 0.8355
8.8811 8.6305 1.9614 0.9511
6.9747 8.6422 1.7589 0.9560
5.4043 8.6518 1.6157 0.9595
2.8432 8.6675 1.4448 0.9637
1.7248 8.6744 1.4008 0.9648
-2.5629 8.7008 1.4366 0.9639
-3.7553 8.7081 1.5020 0.9623
-5.0817 8.7163 1.5980 0.9600
-8.4578 8.7362 1.9259 0.9519
-52.4081 17.3004 8.7412 0.7997
-78.1747 6.0687 12.4189 0.7279
-79.7296 -13.1858 12.7995 0.7209
-56.2778 -16.4626 9.2871 0.7886
-19.9009 -31.5949 5.9141 0.8597
-14.9265 -31.5902 5.5338 0.8681
-6.4145 -31.6373 5.1128 0.8775
-2.5158 -31.6374 5.0267 0.8794
22.7835 -53.3827 9.1929 0.7905
24.0060 -41.5338 7.5981 0.8234
59.7451 -37.7890 11.1967 0.7510
59.8798 -28.4313 10.4988 0.7646
73.7901 -24.6668 12.3229 0.7297
-4.2323 -33.7135 4.1720 0.8720
29.5010 -78.8876 10.3413 0.7122
24.2793 -46.8021 6.4738 0.8086
60.4587 -42.2113 9.0537 0.7429
37.5139 -14.4698 4.9369 0.8504
59.8631 14.3514 7.5585 0.7803
54.0512 20.0974 7.0806 0.7926
12.6529 8.6073 1.8790 0.9402
9.8721 8.6244 1.6095 0.9485
7.7286 8.6003 1.4197 0.9545
6.0619 8.6478 1.2967 0.9583
4.6251 8.6566 1.2051 0.9612
3.3607 8.6644 1.1411 0.9632
0.0691 8.6846 1.0664 0.9656
-0.9839 8.6911 1.0739 0.9654
-3.2180 8.7048 1.1395 0.9633
-5.9088 8.7213 1.2935 0.9584
-7.5992 8.7317 1.4213 0.9544
-9.6941 8.7446 1.6030 0.9487
-12.4491 8.7615 1.8692 0.9405
-80.2831 43.0882 11.1875 0.6927
-21.5543 2.8294 2.6692 0.9161
-68.4313 -16.1338 8.6327 0.7533
-23.3486 -33.0435 4.9679 0.8495
-17.8514 -33.1117 4.6188 0.8593
-9.9888 -25.4681 3.3590 0.8956
-7.3136 -28.2782 3.5864 0.8890
-4.4897 -33.7119 4.1758 0.8719
4.2348 -38.7071 4.7810 0.8548
46.5731 -42.3301 7.7275 0.7760
59.7615 -42.3961 8.9967 0.7443
59.5293 -32.2383 8.3123 0.7612
62.2393 -24.5457 8.2148 0.7637
66.5425 -8.9893 8.2446 0.7629
64.2124 -0.8728 7.8850 0.7720
64.1150 6.8927 7.9177 0.7711
54.5990 19.8353 7.1326 0.7913
38.8461 19.6911 5.3475 0.8390
12.8451 8.5975 1.8979 0.9396
10.0221 8.6234 1.6234 0.9481
4.7088 8.6561 1.2099 0.9611
1.1889 8.6777 1.0754 0.9653
0.1344 8.6842 1.0664 0.9656
-4.3956 8.7120 1.1981 0.9614
-5.8133 8.7208 1.2869 0.9586
-7.4840 8.7310 1.4120 0.9547
-9.5478 8.7437 1.5896 0.9492
-12.2507 8.7603 1.8492 0.9411
-21.7386 3.0199 2.6948 0.9154
-38.1578 -8.6942 4.8053 0.8541
-50.4516 -25.3361 6.9319 0.7965
-79.6539 -52.8819 11.7394 0.6802
-23.5963 -32.8671 4.9679 0.8495
-17.8477 -32.5175 4.5545 0.8611
-10.1470 -25.3104 3.3482 0.8959
-7.5280 -28.2304 3.5874 0.8889
-4.7476 -33.7103 4.1799 0.8718
28.2699 -79.2043 10.3260 0.7125
21.6258 -43.2656 5.9389 0.8229
35.8742 -42.1713 6.7981 0.8000
59.7575 -43.0720 9.0446 0.7431
60.9995 -24.5881 8.0754 0.7672
92.0299 -24.7264 11.7006 0.6811
55.2139 19.5903 7.1935 0.7897
13.0565 8.5976 1.9195 0.9389
10.1747 8.6225 1.6376 0.9477
2.3471 8.6706 1.1029 0.9644
1.2553 8.6773 1.0765 0.9653
0.1996 8.6838 1.0665 0.9656
-0.8517 8.6903 1.0721 0.9654
-1.9301 8.6969 1.0938 0.9647
-4.3037 8.6918 1.1909 0.9617
-5.7187 8.7202 1.2804 0.9588
-9.4040 8.7428 1.5766 0.9496
-23.8426 -32.6888 4.9679 0.8495
-17.8442 -31.9395 4.4922 0.8629
-9.2537 -33.6827 4.2890 0.8687
-5.0060 -33.7087 4.1843 0.8717
27.4097 -78.6567 10.2274 0.7148
24.1949 -49.3295 6.7462 0.8014
25.3038 -38.9024 5.6982 0.8294
45.6522 -42.7637 7.6805 0.7772
57.6532 -42.2174 8.7739 0.7498
59.6818 -24.5800 7.9251 0.7710
63.9638 -17.7022 8.1490 0.7653
66.5861 -1.9065 8.1791 0.7646
66.6356 6.1520 8.2166 0.7636
62.6782 13.5396 7.8734 0.7723
56.8195 19.6804 7.3832 0.7848
10.3300 8.6215 1.6521 0.9472
6.3561 8.6460 1.3176 0.9577
1.3219 8.6769 1.0777 0.9652
0.2650 8.6834 1.0667 0.9656
-2.9963 8.7034 1.1302 0.9636
-11.8663 8.7580 1.8109 0.9423
-80.1823 45.3916 11.3132 0.6898
-66.1761 -31.9964 9.0253 0.7436
-80.5220 -51.7316 11.7514 0.6800
-24.0876 -32.5088 4.9679 0.8495
-2.9333 -85.5870 10.5149 0.7081
23.1782 -48.1687 6.5635 0.8062
25.5009 -39.8577 5.8098 0.8264
56.7462 -42.2119 8.6839 0.7520
59.6208 -25.0806 7.9419 0.7705
63.9606 -18.2199 8.1658 0.7649
64.2380 -2.3225 7.8926 0.7718
64.9865 13.5279 8.1504 0.7653
58.2055 19.6719 7.5439 0.7807
6.4563 8.6454 1.3249 0.9574
4.9640 8.6545 1.2250 0.9606
-0.7200 8.6895 1.0706 0.9655
-1.7932 8.6960 1.0902 0.9648
-2.9232 8.7030 1.1273 0.9637
-12.0512 25.2875 3.4395 0.8932
-5.5324 8.7190 1.2679 0.9592
-7.1473 8.7290 1.3852 0.9556
-9.1232 8.7411 1.5514 0.9504
-18.2656 -31.5698 4.4783 0.8633
-14.3855 -33.6645 4.4951 0.8628
-9.7995 -33.6793 4.3068 0.8682
-5.5009 -33.5612 4.1758 0.8719
-0.6570 -15.7182 1.9316 0.9386
29.0985 -87.7247 11.3483 0.6890
23.0852 -48.9131 6.6411 0.8041
24.6268 -39.1363 5.6775 0.8300
59.5647 -34.6124 8.4587 0.7576
59.6176 -25.6083 7.9668 0.7699
84.4084 -24.7321 10.7998 0.7015
66.5300 -11.0331 8.2804 0.7620
59.3558 19.5648 7.6737 0.7773
5.0505 8.6540 1.2303 0.9604
1.4556 8.6761 1.0802 0.9652
0.3956 8.6826 1.0672 0.9656
-2.8504 8.7026 1.1244 0.9638
-5.4405 8.7185 1.2618 0.9594
-7.0378 8.7283 1.3767 0.9558
-8.9861 8.7403 1.5392 0.9507
-66.9860 -31.1544 9.0709 0.7425
-24.5736 -32.1430 4.9679 0.8495
-14.6849 -33.6627 4.5094 0.8624
-1.9935 -40.4111 4.9679 0.8495
28.4485 -87.9724 11.3524 0.6889
22.5962 -48.8244 6.6058 0.8051
24.6318 -39.8050 5.7475 0.8281
32.6877 -40.8527 6.4241 0.8099
43.2345 -42.3689 7.4326 0.7835
56.2572 -43.1768 8.7074 0.7514
64.0579 -11.1185 7.9829 0.7695
64.1878 -3.2874 7.8916 0.7718
64.1486 12.3504 8.0211 0.7685
43.7776 20.1607 5.9178 0.8235
15.8975 9.7963 2.2928 0.9275
10.8130 8.6186 1.6978 0.9458
3.8070 8.6382 1.1591 0.9627
0.4610 8.6822 1.0675 0.9656
-1.6571 8.6952 1.0869 0.9650
-2.7780 8.7021 1.1216 0.9639
-3.9911 8.7096 1.1763 0.9621
-5.3496 8.7179 1.2559 0.9596
-6.9296 8.7276 1.3683 0.9561
-24.8145 -31.9574 4.9679 0.8495
-6.0456 -33.7023 4.2042 0.8711
22.5731 -49.7522 6.7082 0.8024
32.4850 -41.2309 6.4450 0.8093
42.5853 -42.3649 7.3756 0.7850
54.2217 -42.2660 8.4413 0.7580
66.5737 -3.9115 8.1883 0.7643
64.1508 3.9824 7.8919 0.7718
64.1455 11.8505 8.0094 0.7688
59.8901 18.7476 7.7054 0.7765
44.5727 20.1222 6.0047 0.8211
34.7784 21.0722 4.9929 0.8488
6.7637 8.6435 1.3476 0.9567
5.2258 8.6529 1.2412 0.9601
0.5264 8.6818 1.0679 0.9656
-0.5230 8.6882 1.0687 0.9655
-1.5895 8.6948 1.0853 0.9650
-3.9120 8.7091 1.1723 0.9623
-6.8229 8.7270 1.3601 0.9563
-8.7184 8.7386 1.5156 0.9515
-11.1431 8.7535 1.7399 0.9445
-67.5649 -30.1971 9.0868 0.7421
-25.0538 -31.7701 4.9679 0.8495
-10.6271 -33.6743 4.3357 0.8674
-6.3070 -33.7007 4.2098 0.8709
-2.6006 -40.3766 4.9679 0.8495
26.8982 -87.6567 11.2582 0.6911
22.4333 -50.4480 6.7791 0.8005
41.8560 -42.2697 7.3040 0.7868
59.6077 -27.2117 8.0455 0.7679
66.6201 3.6335 8.1921 0.7642
66.6704 11.7998 8.3133 0.7612
59.8968 18.2568 7.6883 0.7770
44.6419 19.7511 5.9938 0.8214
8.7494 8.6313 1.5091 0.9517
6.8686 8.6428 1.3555 0.9565
5.3146 8.6524 1.2468 0.9599
3.9734 8.6606 1.1700 0.9623
2.7714 8.6680 1.1174 0.9640
0.4022 5.8987 0.7259 0.9765
-0.4575 8.6878 1.0682 0.9655
-2.6343 8.7012 1.1163 0.9640
-3.8334 8.7086 1.1683 0.9624
-5.1702 8.7168 1.2444 0.9600
-6.7173 8.7263 1.3521 0.9566
-10.9710 8.7525 1.7232 0.9450
-80.6727 -13.9655 10.0527 0.7190
-20.8344 -33.6350 4.8580 0.8526
-15.5948 -33.6571 4.5546 0.8611
-4.9100 -15.1604 1.9566 0.9378
24.0118 -40.8324 5.8162 0.8262
41.3166 -42.3571 7.2653 0.7878
59.5497 -37.0417 8.6109 0.7538
59.6043 -27.7534 8.0730 0.7672
66.6672 11.2831 8.3021 0.7615
59.8840 17.7621 7.6694 0.7775
44.7683 19.4059 5.9911 0.8215
11.3237 8.6154 1.7470 0.9443
8.8811 8.6305 1.5205 0.9513
5.4043 8.6518 1.2525 0.9597
2.8432 8.6675 1.1200 0.9639
1.7248 8.6744 1.0859 0.9650
0.4454 5.8814 0.7242 0.9765
-2.5629 8.7008 1.1137 0.9641
-3.7553 8.7081 1.1644 0.9625
-6.6129 8.7257 1.3443 0.9568
-8.4585 8.7370 1.4931 0.9522
-80.6411 -13.3366 10.0360 0.7194
-58.9639 -17.2484 7.5433 0.7807
-25.6397 -31.5265 4.9895 0.8489
-15.9023 -33.6552 4.5704 0.8607
-10.7581 -32.3850 4.1900 0.8715
-6.8322 -33.6975 4.2217 0.8706
-3.2073 -40.3329 4.9679 0.8495
21.6938 -50.8295 6.7857 0.8003
23.8736 -41.3047 5.8578 0.8251
31.1460 -41.4192 6.3631 0.8115
51.7747 -42.2689 8.2066 0.7639
66.5645 -5.4192 8.2001 0.7640
64.0882 2.5298 7.8752 0.7722
29.5886 -79.1220 7.3905 0.7124
26.9000 -39.3845 4.1727 0.8257
33.9749 -30.4164 3.9897 0.8327
60.5318 -42.2623 6.4589 0.7435
63.7909 -24.6053 5.9817 0.7599
63.9733 -16.1613 5.7728 0.7673
59.8631 14.3514 5.3857 0.7810
38.3326 19.7943 3.7744 0.8409
9.8721 8.6244 1.1469 0.9487
6.0619 8.6478 0.9240 0.9585
3.3607 8.6644 0.8131 0.9634
1.1226 8.6781 0.7656 0.9655
-0.9839 8.6911 0.7652 0.9655
-2.0679 8.6977 0.7822 0.9647
-3.2180 8.7048 0.8119 0.9634
-4.4783 8.7125 0.8570 0.9614
-7.5992 8.7317 1.0127 0.9546
-16.3696 8.7856 1.6254 0.9281
-21.5592 2.8300 1.9023 0.9164
-23.7539 -33.6172 3.6013 0.8477
-8.1796 -31.6265 2.8580 0.8771
-4.2198 -31.6856 2.7966 0.8795
28.2003 -77.1724 7.1884 0.7190
22.4582 -44.0994 4.3297 0.8198
26.8024 -39.8819 4.2040 0.8245
36.5686 -42.3387 4.8945 0.7988
46.4699 -42.2362 5.4939 0.7771
59.5337 -42.2345 6.3861 0.7460
63.9701 -16.6729 5.7836 0.7669
64.0195 -8.6484 5.6519 0.7715
64.1150 6.8927 5.6417 0.7719
52.5926 19.1064 4.8955 0.7988
38.9825 19.7602 3.8237 0.8390
7.8795 8.6366 1.0228 0.9541
6.1590 8.6472 0.9288 0.9583
2.2774 8.6710 0.7843 0.9646
1.1889 8.6777 0.7663 0.9654
0.1344 8.6842 0.7599 0.9657
-0.9178 8.6907 0.7646 0.9655
-1.9989 8.6973 0.7808 0.9648
-4.3956 8.7120 0.8537 0.9616
-7.4840 8.7310 1.0061 0.9549
-9.5478 8.7437 1.1327 0.9493
-12.2507 8.7603 1.3176 0.9413
-38.1840 -8.7002 3.4263 0.8545
-24.1331 -33.6148 3.6203 0.8469
-17.8477 -32.5175 3.2453 0.8616
-10.1430 -25.3004 2.3848 0.8963
-4.4622 -31.6841 2.7994 0.8794
36.0138 -42.3354 4.8627 0.8000
58.5755 -42.2200 6.3172 0.7483
60.0240 -33.0920 5.9966 0.7594
64.0643 -1.3524 5.6062 0.7731
64.1120 6.4054 5.6370 0.7720
39.5720 19.6866 3.8669 0.8374
7.9985 8.6359 1.0298 0.9538
6.2570 8.6466 0.9338 0.9581
4.7932 8.6556 0.8656 0.9611
0.1996 8.6838 0.7599 0.9657
-0.8517 8.6903 0.7639 0.9655
-3.0698 8.7039 0.8075 0.9636
-4.3037 8.6918 0.8485 0.9618
-5.7187 8.7202 0.9123 0.9590
-15.7887 8.7821 1.5806 0.9300
-38.3152 -8.4277 3.4323 0.8543
-24.4106 -33.4675 3.6241 0.8468
-17.8442 -31.9395 3.2009 0.8634
-4.7051 -31.6826 2.8023 0.8793
-2.2530 -84.2212 7.3710 0.7130
29.1808 -83.7391 7.7583 0.7004
24.4582 -49.8664 4.8593 0.8001
35.3284 -42.1678 4.8129 0.8018
43.6842 -40.9202 5.2367 0.7864
64.0614 -1.8342 5.6069 0.7731
64.1090 5.9188 5.6327 0.7722
63.7095 13.7624 5.7024 0.7697
13.2816 8.6034 1.3845 0.9384
10.3300 8.6215 1.1772 0.9474
6.3561 8.6460 0.9388 0.9578
4.8782 8.6551 0.8692 0.9609
3.5794 8.6449 0.8186 0.9631
-0.7858 8.6899 0.7634 0.9656
-1.8615 8.6965 0.7781 0.9649
-5.6251 8.7196 0.9078 0.9592
-7.2581 8.7296 0.9932 0.9554
-17.9513 -31.5717 3.1774 0.8643
-13.2382 -31.6356 3.0003 0.8714
-4.9485 -31.6812 2.8054 0.8792
-1.9794 -57.7569 5.0560 0.7929
27.3619 -80.4604 7.4353 0.7109
24.0767 -50.0359 4.8580 0.8001
25.3815 -39.6710 4.1203 0.8277
33.8087 -40.9756 4.6476 0.8079
43.2318 -41.1106 5.2194 0.7870
59.6680 -34.0751 6.0116 0.7589
59.7206 -25.1225 5.6683 0.7709
64.0584 -2.3159 5.6080 0.7731
64.1060 5.4330 5.6287 0.7723
57.9151 19.5737 5.3485 0.7823
42.1214 20.1709 4.0859 0.8290
13.5007 8.6021 1.4005 0.9377
10.4881 8.6206 1.1878 0.9469
8.2417 8.6344 1.0443 0.9532
1.3887 8.6765 0.7688 0.9653
-12.0512 25.2875 2.4508 0.8936
-7.1473 8.7290 0.9870 0.9557
-9.1232 8.7411 1.1054 0.9505
-15.2389 8.7787 1.5386 0.9318
-21.6548 -22.5165 2.7331 0.8821
-18.2656 -31.5698 3.1910 0.8638
-13.5177 -31.6339 3.0097 0.8710
-4.0087 -24.4576 2.1683 0.9053
25.1105 -39.9050 4.1249 0.8275
33.3546 -41.0499 4.6275 0.8087
59.5647 -34.6124 6.0272 0.7583
63.9574 -18.7398 5.8308 0.7652
64.0074 -10.6147 5.6764 0.7707
13.7251 8.6007 1.4171 0.9370
10.6490 8.6196 1.1986 0.9465
6.5576 8.6447 0.9493 0.9574
28.0039 64.8583 6.1807 0.7530
2.5578 8.6693 0.7908 0.9644
0.3956 8.6826 0.7604 0.9657
-1.7250 8.6956 0.7756 0.9650
-2.8504 8.7026 0.8012 0.9639
-7.0378 8.7283 0.9809 0.9560
-14.9747 8.7771 1.5186 0.9327
-13.7991 -31.6321 3.0193 0.8706
-1.9975 -40.4916 3.5469 0.8498
24.8745 -40.1971 4.1357 0.8271
32.6877 -40.8527 4.5775 0.8105
59.6606 -35.2707 6.0635 0.7571
60.0631 -26.3362 5.7378 0.7685
63.9542 -19.2620 5.8435 0.7648
64.0043 -11.1092 5.6834 0.7704
64.0525 -3.2805 5.6112 0.7730
64.1001 4.4631 5.6216 0.7726
59.9248 19.2542 5.5067 0.7767
43.7776 20.1607 4.2167 0.8241
10.8130 8.6186 1.2098 0.9460
8.4919 8.6328 1.0594 0.9525
2.6287 8.6689 0.7925 0.9643
-1.6571 8.6952 0.7744 0.9651
-2.7780 8.7021 0.7992 0.9640
-3.9911 8.7096 0.8382 0.9623
-5.3496 8.7179 0.8949 0.9598
-6.9296 8.7276 0.9750 0.9562
-11.3185 8.7546 1.2519 0.9442
-18.9023 -31.5659 3.2189 0.8627
-14.0667 -31.5955 3.0258 0.8703
-4.4288 -24.6890 2.1945 0.9042
-1.8560 -32.6359 2.8599 0.8770
22.9636 -50.6130 4.8625 0.8000
25.0788 -41.2165 4.2210 0.8239
32.5801 -41.3516 4.6058 0.8095
60.0598 -26.8747 5.7566 0.7678
59.4469 -18.3930 5.4442 0.7789
64.0013 -11.6049 5.6907 0.7701
64.1455 11.8505 5.7070 0.7696
59.8901 18.7476 5.4904 0.7773
8.6196 8.6321 1.0673 0.9522
5.2258 8.6529 0.8844 0.9602
0.5264 8.6818 0.7610 0.9657
-1.5895 8.6948 0.7733 0.9651
-2.7060 8.7017 0.7973 0.9641
-3.9120 8.7091 0.8353 0.9624
-5.2595 8.7174 0.8907 0.9599
-6.8229 8.7270 0.9692 0.9565
-8.7184 8.7386 1.0800 0.9516
-11.1431 8.7535 1.2397 0.9447
-20.4875 -33.6372 3.4458 0.8537
-14.3513 -31.5938 3.0359 0.8699
-9.9883 -31.6503 2.9037 0.8752
-2.0417 -31.6990 2.7790 0.8803
22.9075 -51.5143 4.9324 0.7974
24.8500 -41.5398 4.2349 0.8234
32.3648 -41.7193 4.6195 0.8090
41.7543 -42.1670 5.1918 0.7880
53.4060 -42.2789 5.9593 0.7607
64.0465 -4.2461 5.6156 0.7728
64.1425 11.3523 5.6990 0.7699
44.6419 19.7510 4.2708 0.8220
14.4314 8.5963 1.4696 0.9348
5.3146 8.6524 0.8884 0.9600
3.9734 8.6606 0.8336 0.9625
2.7714 8.6680 0.7962 0.9641
1.6572 8.6749 0.7727 0.9652
0.4021 5.8971 0.5171 0.9765
-0.4575 8.6878 0.7611 0.9657
-1.5219 8.6944 0.7722 0.9652
-6.7173 8.7263 0.9635 0.9567
-8.5875 8.7378 1.0718 0.9520
-19.0915 8.8024 1.8393 0.9191
-20.8344 -33.6350 3.4615 0.8531
24.3319 -41.3767 4.1995 0.8247
32.0214 -41.9236 4.6154 0.8091
41.1289 -42.1647 5.1533 0.7894
52.5825 -42.2738 5.9027 0.7627
59.9980 -37.3205 6.1818 0.7530
58.9629 -19.2188 5.4257 0.7796
64.0436 -4.7296 5.6183 0.7727
59.4127 10.0553 5.2719 0.7851
44.7683 19.4060 4.2689 0.8221
14.6786 8.5948 1.4882 0.9340
11.3237 8.6154 1.2448 0.9445
5.4043 8.6518 0.8925 0.9599
4.0522 8.6601 0.8365 0.9623
2.8432 8.6675 0.7981 0.9640
1.7248 8.6744 0.7738 0.9651
-0.3920 8.6874 0.7608 0.9657
-1.4546 8.6940 0.7712 0.9652
-6.6129 8.7257 0.9579 0.9570
-10.8021 8.7514 1.2163 0.9457
-13.9831 8.7710 1.4441 0.9359
-58.8477 -17.2143 5.3643 0.7818
-14.9266 -31.5903 3.0568 0.8691
-10.5130 -31.6471 2.9175 0.8747
-6.4216 -31.6721 2.8273 0.8783
-2.5205 -31.6960 2.7818 0.8801
25.1000 -86.4075 7.8722 0.6968
21.9022 -51.3180 4.8816 0.7993
23.6487 -40.9157 4.1346 0.8272
40.6693 -42.3254 5.1354 0.7900
51.7746 -42.2688 5.8475 0.7646
59.9942 -37.9465 6.2106 0.7520
60.2538 -12.3345 5.3808 0.7812
64.0406 -5.2137 5.6214 0.7726
60.2230 2.3772 5.2729 0.7851
-7.4934 -29.8984 1.6154 0.8839
24.6209 -47.4606 2.8028 0.8072
46.8900 -41.9789 3.2983 0.7772
34.8037 -24.2994 2.2246 0.8436
60.0312 -31.9290 3.5634 0.7616
53.3514 -20.5786 2.9968 0.7953
68.9783 -0.4191 3.6151 0.7586
59.8631 14.3514 3.2262 0.7815
38.1412 19.6954 2.2497 0.8420
7.7286 8.6003 0.6060 0.9547
6.0619 8.6478 0.5535 0.9586
4.6251 8.6566 0.5144 0.9614
2.2032 8.6529 0.4679 0.9649
1.1214 8.6692 0.4581 0.9656
0.0690 8.6789 0.4549 0.9658
-2.0635 8.6793 0.4675 0.9649
-4.4783 8.7125 0.5134 0.9615
-5.9088 8.7213 0.5521 0.9587
-7.5992 8.7317 0.6066 0.9547
-9.6941 8.7446 0.6842 0.9491
-16.3696 8.7856 0.9736 0.9283
-22.2912 -31.5470 2.0244 0.8567
-16.4862 -30.5795 1.8207 0.8701
-3.2286 -24.2424 1.2817 0.9067
20.8797 -89.3120 4.8069 0.6925
25.5576 -50.1855 2.9515 0.7981
27.3584 -40.7091 2.5705 0.8216
36.4268 -42.1745 2.9206 0.7999
46.4699 -42.2362 3.2910 0.7776
67.3765 -17.5608 3.6490 0.7566
68.9817 -0.9376 3.6155 0.7586
59.9603 13.8990 3.2257 0.7815
34.4497 12.5153 1.9209 0.8635
10.0221 8.6234 0.6929 0.9484
6.1590 8.6472 0.5564 0.9584
3.4357 8.6639 0.4885 0.9634
2.2727 8.6534 0.4689 0.9648
-0.9169 8.6823 0.4575 0.9656
-1.9948 8.6797 0.4667 0.9650
-3.1431 8.7027 0.4849 0.9636
-4.3956 8.7120 0.5114 0.9617
-7.4840 8.7310 0.6027 0.9550
-9.5478 8.7437 0.6785 0.9495
-22.1229 8.8210 1.2482 0.9090
-38.2102 -8.7061 2.0538 0.8547
-57.6581 -62.7237 4.4650 0.7109
-22.6470 -31.5448 2.0351 0.8560
-7.5454 -28.2956 1.5347 0.8893
-1.2146 -63.1625 3.3108 0.7764
28.6878 -80.3752 4.4726 0.7105
28.8552 -43.6413 2.7419 0.8109
35.8740 -42.1711 2.9016 0.8011
45.7693 -42.2319 3.2638 0.7792
62.1333 -25.0451 3.5108 0.7647
67.2426 -18.0666 3.6490 0.7566
69.0407 -9.8556 3.6549 0.7563
68.9305 6.8868 3.6305 0.7577
60.5582 13.5589 3.2523 0.7799
13.0673 8.6047 0.8200 0.9393
7.9985 8.6359 0.6169 0.9539
6.2570 8.6466 0.5593 0.9582
3.5111 8.6634 0.4899 0.9632
2.3426 8.6539 0.4699 0.9647
0.1995 8.6780 0.4549 0.9658
-3.0687 8.7008 0.4835 0.9637
-4.3037 8.6918 0.5083 0.9619
-5.7187 8.7202 0.5465 0.9591
-7.3703 8.7303 0.5988 0.9553
-9.4040 8.7428 0.6729 0.9499
-12.1023 8.7924 0.7840 0.9418
-21.6413 8.8180 1.2247 0.9106
-50.3198 -24.7980 2.9400 0.7988
-80.9697 -52.8829 5.0683 0.6788
-23.0053 -31.5408 2.0460 0.8552
-12.5369 -30.6037 1.7332 0.8759
-4.9613 -33.4072 1.7700 0.8735
-2.2530 -84.2212 4.4154 0.7136
24.8119 -50.5874 2.9529 0.7980
26.9622 -41.4521 2.5915 0.8203
67.1049 -18.5715 3.6490 0.7566
69.0442 -10.3862 3.6592 0.7560
63.7095 13.7624 3.4159 0.7702
34.4350 11.9272 1.9099 0.8642
41.3314 20.1758 2.4104 0.8317
6.3561 8.6460 0.5624 0.9579
2.4127 8.6545 0.4709 0.9647
1.3204 8.6666 0.4594 0.9655
-0.7851 8.6821 0.4569 0.9657
-1.8581 8.6804 0.4652 0.9651
-2.9948 8.6990 0.4822 0.9638
-12.1170 24.9414 1.4532 0.8949
-5.6251 8.7196 0.5438 0.9593
-7.2581 8.7296 0.5950 0.9555
-15.5101 8.7804 0.9341 0.9311
-13.2110 -23.2347 1.4008 0.8985
28.5932 -84.0812 4.6543 0.7007
24.8551 -51.6537 3.0041 0.7948
26.3915 -41.2496 2.5664 0.8219
33.7125 -40.8590 2.7761 0.8088
43.0803 -40.9665 3.1156 0.7881
59.6680 -34.0751 3.6011 0.7594
59.7206 -25.1225 3.3955 0.7714
68.9339 5.8421 3.6256 0.7580
34.4344 11.6379 1.9049 0.8645
42.1214 20.1709 2.4475 0.8294
8.2417 8.6344 0.6256 0.9533
2.4831 8.6551 0.4719 0.9646
1.3869 8.6657 0.4599 0.9655
-1.7900 8.6807 0.4645 0.9651
-2.9212 8.6972 0.4808 0.9639
-7.1473 8.7290 0.5913 0.9558
-11.6800 8.7568 0.7651 0.9432
-15.2389 8.7787 0.9217 0.9320
-17.6883 -30.5721 1.8511 0.8681
-13.0761 -30.6004 1.7440 0.8752
-5.4751 -33.4041 1.7740 0.8732
-0.6750 -16.1482 0.8470 0.9373
27.9233 -84.1818 4.6482 0.7010
24.3701 -51.6355 2.9923 0.7956
34.1716 -25.8205 2.2446 0.8424
59.5647 -34.6124 3.6104 0.7589
66.8182 -19.5780 3.6490 0.7566
68.6893 -11.3912 3.6490 0.7566
68.9407 5.3211 3.6238 0.7581
68.2709 13.6770 3.6490 0.7566
42.9365 20.1659 2.4860 0.8270
13.7251 8.6007 0.8489 0.9372
8.3659 8.6336 0.6300 0.9530
5.0505 8.6540 0.5251 0.9607
2.5538 8.6557 0.4730 0.9645
1.4537 8.6648 0.4604 0.9654
0.3953 8.6766 0.4552 0.9658
-0.6537 8.6819 0.4563 0.9657
-1.7221 8.6810 0.4638 0.9652
-4.0540 8.6740 0.5018 0.9624
-5.4405 8.7185 0.5386 0.9597
-7.0378 8.7283 0.5876 0.9561
-8.9861 8.7403 0.6570 0.9510
-14.9747 8.7771 0.9097 0.9328
-34.2618 1.6257 1.7976 0.8716
-24.1080 -31.5340 2.0803 0.8530
-18.5826 -31.5679 1.9198 0.8635
-13.3483 -30.5987 1.7496 0.8748
-9.9841 -33.3765 1.8258 0.8698
-1.8912 -38.3361 2.0116 0.8575
27.5039 -85.0513 4.6846 0.6990
23.5881 -50.9677 2.9433 0.7986
25.4775 -41.1716 2.5374 0.8237
32.6332 -40.7846 2.7374 0.8112
55.1006 -42.2891 3.6401 0.7571
68.9441 4.8004 3.6220 0.7582
26.5270 8.5233 1.4602 0.8944
43.7776 20.1607 2.5259 0.8244
13.9549 8.5993 0.8591 0.9365
8.4919 8.6328 0.6346 0.9527
6.6601 8.6441 0.5719 0.9572
5.1378 8.6535 0.5274 0.9605
1.5206 8.6639 0.4610 0.9654
-3.9912 8.7096 0.5021 0.9624
-6.9296 8.7276 0.5840 0.9563
-8.8512 8.7394 0.6519 0.9514
-11.3185 8.7546 0.7499 0.9443
-24.4839 -31.5317 2.0922 0.8522
-18.9023 -31.5659 1.9282 0.8630
-13.6222 -30.5970 1.7553 0.8745
-5.9915 -33.4009 1.7784 0.8729
-2.1001 -36.9283 1.9385 0.8623
24.4565 -53.9034 3.1021 0.7889
54.2217 -42.2660 3.6030 0.7593
59.9259 -36.0381 3.6647 0.7557
60.0598 -26.8747 3.4483 0.7683
68.5103 -12.4224 3.6490 0.7566
68.9475 4.2801 3.6203 0.7583
53.4926 9.8825 2.8509 0.8042
14.1488 8.5728 0.8670 0.9359
10.9799 8.6175 0.7315 0.9456
6.7637 8.6435 0.5752 0.9570
5.2258 8.6529 0.5298 0.9603
0.5260 8.6755 0.4555 0.9658
-0.5226 8.6816 0.4558 0.9658
-1.5870 8.6814 0.4625 0.9653
-8.7184 8.7386 0.6469 0.9518
-11.1431 8.7535 0.7426 0.9448
-14.4665 8.7739 0.8867 0.9345
-19.4804 8.8048 1.1204 0.9179
-24.8640 -31.5294 2.1044 0.8514
-19.2405 -31.5898 1.9385 0.8623
-13.8978 -30.5953 1.7611 0.8741
-4.7206 -25.2240 1.3449 0.9023
26.1317 -43.6824 2.6677 0.8156
32.1849 -41.4873 2.7518 0.8103
60.0565 -27.4166 3.4599 0.7676
53.2075 9.4170 2.8318 0.8054
27.9307 8.5134 1.5303 0.8896
44.6419 19.7510 2.5583 0.8224
11.1501 8.6165 0.7385 0.9451
8.7494 8.6313 0.6441 0.9520
3.9734 8.6606 0.4994 0.9626
2.7681 8.6578 0.4764 0.9642
1.6548 8.6619 0.4622 0.9653
-0.4571 8.6814 0.4556 0.9658
-5.1702 8.7168 0.5311 0.9602
-6.7173 8.7263 0.5771 0.9568
-8.5875 8.7378 0.6421 0.9521
-14.1753 -30.5936 1.7671 0.8737
-4.5755 -23.4717 1.2533 0.9087
-2.6548 -36.8926 1.9385 0.8623
25.7605 -86.2557 4.7178 0.6973
23.4641 -53.8528 3.0786 0.7903
25.3977 -43.1892 2.6258 0.8182
31.9654 -41.8501 2.7599 0.8098
41.1670 -42.2038 3.0898 0.7897
52.5825 -42.2738 3.5359 0.7632
59.9183 -37.2710 3.6981 0.7538
59.9424 -19.5381 3.3041 0.7768
68.3158 -13.4506 3.6490 0.7566
68.9543 3.2412 3.6177 0.7584
28.6868 8.5087 1.5681 0.8871
44.7683 19.4060 2.5572 0.8225
14.6786 8.5948 0.8914 0.9341
11.3237 8.6154 0.7457 0.9446
6.9747 8.6422 0.5820 0.9565
5.4043 8.6518 0.5346 0.9600
4.0522 8.6601 0.5011 0.9624
0.4453 5.8793 0.3090 0.9767
-0.3917 8.6812 0.4554 0.9658
-1.4526 8.6818 0.4613 0.9654
-6.6129 8.7257 0.5738 0.9571
-10.8021 8.7514 0.7286 0.9458
-18.7152 8.8001 1.0838 0.9205
-26.8086 8.8498 1.4796 0.8931
-14.4548 -30.5919 1.7732 0.8733
-4.7312 -23.3352 1.2478 0.9090
25.1112 -86.4457 4.7177 0.6973
23.3247 -54.6509 3.1141 0.7882
24.3792 -42.1794 2.5532 0.8227
40.5487 -42.1998 3.0671 0.7910
51.7626 -42.2590 3.5020 0.7652
68.2128 -13.9637 3.6490 0.7566
52.7562 8.5213 2.8007 0.8073
-7.8232 -31.2146 0.5617 0.8792
-0.3593 -85.6028 1.4942 0.7100
31.2785 -83.6408 1.5587 0.6996
30.0464 -43.9911 0.9299 0.8081
34.3653 -39.1884 0.9098 0.8118
34.1377 -30.5623 0.7998 0.8325
45.8211 -24.3710 0.9059 0.8125
60.2635 -15.2241 1.0849 0.7798
54.0514 20.0975 1.0066 0.7940
38.1412 19.6954 0.7493 0.8422
9.8721 8.6244 0.2288 0.9489
7.7286 8.6003 0.2018 0.9548
6.0487 8.6289 0.1839 0.9587
0.0691 8.6846 0.1516 0.9659
-0.9815 8.6700 0.1523 0.9657
-2.0629 8.6769 0.1557 0.9649
-5.9088 8.7213 0.1839 0.9587
-16.3515 8.7759 0.3239 0.9284
-21.5725 2.8317 0.3798 0.9166
-55.7541 -13.1450 0.9999 0.7952
-4.4704 -33.5675 0.5911 0.8733
-0.9866 -84.2290 1.4703 0.7139
31.9552 -87.4480 1.6251 0.6890
44.5713 -87.5211 1.7144 0.6751
33.7976 -39.1305 0.9025 0.8131
34.1403 -31.0300 0.8053 0.8315
34.1951 -24.2587 0.7318 0.8456
49.8696 -19.6674 0.9357 0.8070
54.5991 19.8354 1.0140 0.7926
12.8578 8.6060 0.2701 0.9400
7.8795 8.6366 0.2041 0.9543
3.4357 8.6639 0.1627 0.9634
0.1344 8.6842 0.1516 0.9659
-0.9156 8.6696 0.1522 0.9657
-7.4840 8.7310 0.2007 0.9550
-9.5478 8.7437 0.2260 0.9495
-12.2410 8.7534 0.2627 0.9416
-22.1229 8.8210 0.4157 0.9091
-21.8127 3.0302 0.3844 0.9157
-63.1564 -31.7163 1.2336 0.7537
-17.8477 -32.5175 0.6475 0.8621
-10.1351 -25.2805 0.4754 0.8968
-7.5680 -28.3803 0.5127 0.8891
43.7436 -87.5162 1.7078 0.6761
30.0376 -45.4295 0.9506 0.8042
33.3285 -39.1788 0.8978 0.8140
34.1922 -24.6451 0.7357 0.8448
44.1872 -24.3610 0.8807 0.8172
50.2592 -20.2588 0.9459 0.8051
92.2204 -24.7776 1.6668 0.6825
60.5312 13.5528 1.0827 0.7802
55.2140 19.5903 1.0226 0.7911
39.5720 19.6866 0.7715 0.8379
13.0673 8.6047 0.2731 0.9393
6.2435 8.6279 0.1859 0.9583
2.3471 8.6706 0.1568 0.9647
1.2553 8.6773 0.1530 0.9655
-9.4040 8.7428 0.2241 0.9499
-12.1023 8.7924 0.2611 0.9419
-15.7512 8.7612 0.3146 0.9304
-21.6413 8.8180 0.4079 0.9107
-38.2806 -8.4201 0.6842 0.8549
-50.2320 -24.7547 0.9775 0.7993
-80.8894 -52.8305 1.6864 0.6794
-22.7439 -31.1825 0.6737 0.8569
-14.4883 -35.3670 0.6671 0.8582
-7.7737 -28.2955 0.5122 0.8892
-4.6385 -31.2341 0.5512 0.8813
31.3402 -89.9360 1.6624 0.6832
41.1216 -83.8403 1.6300 0.6883
30.0330 -46.1732 0.9614 0.8022
32.8202 -39.1741 0.8920 0.8151
56.5360 19.5822 1.0444 0.7871
41.3314 20.1758 0.8028 0.8319
10.3300 8.6215 0.2349 0.9476
3.5794 8.6449 0.1633 0.9633
2.4171 8.6702 0.1571 0.9646
1.3219 8.6769 0.1532 0.9655
0.2650 8.6834 0.1516 0.9658
-0.7839 8.6688 0.1519 0.9658
-2.9820 8.6619 0.1599 0.9640
-5.6251 8.7196 0.1811 0.9593
-9.2624 8.7420 0.2223 0.9503
-11.8663 8.7580 0.2574 0.9427
-73.7177 -6.5267 1.2918 0.7437
-63.3105 -30.6108 1.2275 0.7548
-17.9513 -31.5717 0.6339 0.8648
-8.4593 -29.9096 0.5425 0.8831
-4.8784 -31.2326 0.5518 0.8812
30.0281 -46.9336 0.9725 0.8002
34.1442 -32.4689 0.8224 0.8282
34.1874 -25.4310 0.7437 0.8433
42.6413 -24.3515 0.8571 0.8216
59.6208 -25.0806 1.1290 0.7720
90.2079 7.6451 1.5802 0.6962
13.5007 8.6021 0.2794 0.9380
8.2417 8.6344 0.2083 0.9534
27.4289 64.8619 1.2292 0.7545
0.3303 8.6830 0.1517 0.9658
-1.7889 8.6751 0.1546 0.9652
-2.9092 8.6614 0.1595 0.9641
-15.2007 8.7567 0.3062 0.9322
-20.7303 8.8124 0.3932 0.9138
-63.3188 -30.0298 1.2232 0.7555
-21.6463 -22.5078 0.5451 0.8826
-23.4667 -31.1781 0.6811 0.8555
-15.0410 -35.1986 0.6681 0.8580
-9.0801 -31.2069 0.5673 0.8781
-0.6750 -16.1481 0.2821 0.9374
25.5614 -54.1596 1.0454 0.7869
30.0233 -47.7123 0.9840 0.7981
31.8229 -39.1648 0.8808 0.8172
34.1411 -32.9582 0.8283 0.8271
34.1849 -25.8306 0.7479 0.8425
41.8988 -24.3469 0.8459 0.8238
59.6176 -25.6083 1.1326 0.7714
84.4085 -24.7321 1.5354 0.7034
96.2737 7.4308 1.6855 0.6796
67.4509 13.5128 1.2007 0.7594
59.3560 19.5648 1.0909 0.7788
8.3659 8.6336 0.2098 0.9530
6.5436 8.6262 0.1890 0.9576
5.0275 8.6146 0.1741 0.9609
-4.0519 8.6695 0.1670 0.9624
-5.4405 8.7185 0.1794 0.9597
-8.9861 8.7403 0.2188 0.9511
-14.9362 8.7546 0.3022 0.9331
-73.8063 -5.4177 1.2918 0.7437
-63.3270 -29.4526 1.2191 0.7562
-23.8341 -31.1758 0.6850 0.8547
-15.4259 -35.3613 0.6734 0.8570
-5.3601 -31.2297 0.5531 0.8809
40.4940 -87.4969 1.6829 0.6800
30.2149 -48.8272 1.0023 0.7948
31.3334 -39.1602 0.8754 0.8182
41.1755 -24.3425 0.8349 0.8258
55.7201 -24.4319 1.0620 0.7840
26.5270 8.5233 0.4863 0.8945
13.9549 8.5993 0.2861 0.9365
10.8130 8.6186 0.2414 0.9462
3.8070 8.6382 0.1648 0.9629
1.5226 8.6757 0.1537 0.9654
0.4610 8.6822 0.1518 0.9658
-1.6531 8.6743 0.1541 0.9653
-2.7647 8.6604 0.1587 0.9643
-3.9725 8.6689 0.1664 0.9626
-6.9296 8.7276 0.1945 0.9564
-14.6786 8.7524 0.2983 0.9339
-64.6100 -29.4607 1.2395 0.7527
-18.9023 -31.5659 0.6422 0.8631
-5.6018 -31.2282 0.5538 0.8808
-2.3026 -40.4898 0.7079 0.8502
30.8500 -39.1557 0.8701 0.8192
34.1350 -33.9583 0.8404 0.8248
40.4707 -24.3382 0.8243 0.8278
79.8445 -24.7040 1.4589 0.7158
50.3182 9.2960 0.8932 0.8149
27.2105 8.5178 0.4977 0.8922
44.5700 20.1210 0.8536 0.8223
10.9799 8.6175 0.2436 0.9457
8.6196 8.6321 0.2129 0.9524
5.2021 8.6137 0.1756 0.9605
3.8768 8.6204 0.1650 0.9629
0.5264 8.6818 0.1518 0.9658
-2.6930 8.6599 0.1583 0.9644
-3.8937 8.6683 0.1659 0.9627
-5.2595 8.7174 0.1777 0.9601
-8.7184 8.7386 0.2155 0.9518
-14.4277 8.7504 0.2945 0.9347
-57.2696 -17.6915 1.0462 0.7868
-24.5816 -31.1712 0.6929 0.8532
-16.0609 -35.3574 0.6779 0.8561
-2.6078 -40.4879 0.7082 0.8502
26.1083 -43.6434 0.8877 0.8159
34.1774 -27.0566 0.7609 0.8400
39.7772 -24.3299 0.8139 0.8298
53.4884 -24.4182 1.0263 0.7904
77.5691 -24.6400 1.4206 0.7221
27.9307 8.5134 0.5097 0.8897
15.1030 8.9964 0.3068 0.9321
11.1501 8.6165 0.2460 0.9452
6.8540 8.6245 0.1923 0.9569
5.2906 8.6133 0.1764 0.9604
0.4019 5.8944 0.1031 0.9766
-0.4571 8.6806 0.1517 0.9658
-1.5183 8.6734 0.1537 0.9654
-2.6217 8.6594 0.1579 0.9645
-6.7173 8.7263 0.1922 0.9569
-8.5875 8.7378 0.2138 0.9522
-10.9710 8.7525 0.2450 0.9454
-19.0615 8.7885 0.3664 0.9195
-27.5148 8.8541 0.5045 0.8908
-57.2908 -17.2274 1.0442 0.7872
-6.0870 -31.2252 0.5553 0.8805
30.0029 -51.0203 1.0331 0.7892
32.1933 -42.1485 0.9258 0.8088
39.0903 -24.3153 0.8036 0.8318
52.4274 -24.4116 1.0095 0.7935
75.6163 -24.6469 1.3882 0.7275
93.9661 -18.5009 1.6717 0.6817
28.6868 8.5087 0.5223 0.8872
46.4713 20.1441 0.8841 0.8166
11.3237 8.6154 0.2484 0.9447
8.8811 8.6305 0.2162 0.9517
6.9600 8.6240 0.1934 0.9566
5.3818 8.6158 0.1773 0.9602
4.0333 8.6196 0.1661 0.9626
2.8432 8.6675 0.1592 0.9642
0.4452 5.8783 0.1029 0.9767
-0.3918 8.6836 0.1517 0.9658
-1.4511 8.6730 0.1535 0.9654
-3.7377 8.6672 0.1648 0.9629
-6.6129 8.7257 0.1911 0.9571
-8.4586 8.7370 0.2123 0.9525
-10.8021 8.7514 0.2427 0.9459
-57.3120 -16.7651 1.0423 0.7875
-16.7047 -35.3534 0.6825 0.8552
-6.3306 -31.2237 0.5561 0.8803
-3.2193 -40.4842 0.7089 0.8500
29.9975 -51.9000 1.0463 0.7868
31.6923 -42.1456 0.9204 0.8098
34.1254 -35.5150 0.8597 0.8212
38.4382 -24.3123 0.7939 0.8336
51.4006 -24.4053 0.9932 0.7964
50.2881 8.1227 0.8892 0.8156
-2.6278 -20.9324 -0.3682 0.9191
31.4350 -84.0591 -1.5665 0.6984
34.8094 -24.3034 -0.7410 0.8438
51.5753 -19.8935 -0.9649 0.8016
49.8812 -12.6013 -0.8980 0.8140
53.5147 19.8979 -0.9966 0.7958
12.6529 8.6073 -0.2671 0.9406
9.8721 8.6244 -0.2288 0.9489
4.5794 8.5711 -0.1696 0.9619
3.3607 8.6644 -0.1622 0.9635
-3.1867 8.6200 -0.1604 0.9639
-4.4783 8.7125 -0.1710 0.9616
-5.9088 8.7213 -0.1839 0.9587
-7.5992 8.7317 -0.2020 0.9547
-12.4252 8.7447 -0.2652 0.9410
-21.5966 2.8349 -0.3802 0.9165
-73.2698 -8.1555 -1.2868 0.7446
-56.2210 -13.2550 -1.0082 0.7937
-73.3416 -26.9568 -1.3639 0.7315
-63.1004 -32.2842 -1.2372 0.7531
-14.9447 -21.1502 -0.4520 0.9016
-4.4704 -33.5675 -0.5911 0.8733
4.2330 -38.6902 -0.6794 0.8558
31.9223 -87.3579 -1.6234 0.6893
24.6267 -36.6443 -0.7707 0.8381
34.1529 -31.0414 -0.8056 0.8314
44.9927 -24.3659 -0.8931 0.8149
51.5726 -20.3390 -0.9677 0.8011
49.5352 -12.9107 -0.8935 0.8148
54.5991 19.8354 -1.0140 0.7926
38.8462 19.6911 -0.7602 0.8401
12.8578 8.6060 -0.2701 0.9400
7.8795 8.6366 -0.2041 0.9543
3.4357 8.6639 -0.1627 0.9634
0.1344 8.6842 -0.1516 0.9659
-0.9144 8.6591 -0.1520 0.9658
-3.1131 8.6196 -0.1600 0.9640
-4.3956 8.7120 -0.1703 0.9617
-7.4840 8.7310 -0.2007 0.9550
-9.5478 8.7437 -0.2260 0.9495
-27.9512 15.2732 -0.5560 0.8804
-22.1229 8.8210 -0.4157 0.9091
-50.1978 13.2850 -0.9064 0.8124
-21.8374 3.0337 -0.3848 0.9156
-87.3585 1.5159 -1.5251 0.7050
-87.4250 -9.0664 -1.5342 0.7035
-38.2623 -8.7180 -0.6850 0.8547
-62.4223 -31.3476 -1.2193 0.7562
-60.9341 -40.4539 -1.2767 0.7463
-59.6332 -64.8722 -1.5381 0.7029
-10.9427 -19.9370 -0.3970 0.9130
-7.7822 -19.4117 -0.3650 0.9197
-2.9354 -20.8427 -0.3674 0.9192
31.2647 -87.5947 -1.6234 0.6893
32.2417 -64.5048 -1.2587 0.7494
30.0372 -45.4289 -0.9506 0.8042
34.1500 -31.5107 -0.8111 0.8304
44.1872 -24.3610 -0.8807 0.8172
49.5056 -13.3011 -0.8948 0.8146
39.5720 19.6866 -0.7715 0.8379
7.9985 8.6359 -0.2055 0.9540
4.7457 8.5699 -0.1710 0.9616
3.5111 8.6634 -0.1632 0.9633
2.3471 8.6706 -0.1568 0.9647
1.2553 8.6773 -0.1530 0.9655
-0.8490 8.6622 -0.1519 0.9658
-1.9208 8.6553 -0.1548 0.9652
-3.0399 8.6193 -0.1595 0.9641
-4.3037 8.6918 -0.1693 0.9619
-7.3703 8.7303 -0.1994 0.9553
-12.1023 8.7924 -0.2611 0.9419
-21.6413 8.8180 -0.4079 0.9107
-50.1932 13.6883 -0.9081 0.8121
-87.3543 2.1726 -1.5252 0.7050
-73.3873 -7.0536 -1.2869 0.7446
-15.5987 -21.3862 -0.4620 0.8995
-3.0909 -20.8128 -0.3673 0.9193
39.3619 -80.2526 -1.5602 0.6994
32.6395 -38.9584 -0.8871 0.8160
34.1471 -31.9865 -0.8167 0.8293
34.1898 -25.0360 -0.7397 0.8441
49.5832 -13.7223 -0.8980 0.8140
60.3793 5.5744 -1.0584 0.7846
13.2816 8.6034 -0.2762 0.9387
6.3242 8.6025 -0.1864 0.9582
4.8299 8.5692 -0.1717 0.9614
2.4171 8.6702 -0.1571 0.9646
1.3219 8.6769 -0.1532 0.9655
-0.7836 8.6652 -0.1519 0.9658
-1.8526 8.6549 -0.1545 0.9652
-12.2634 25.2427 -0.4899 0.8938
-9.2624 8.7420 -0.2223 0.9503
-15.3237 8.6748 -0.3074 0.9320
-21.1775 8.8152 -0.4004 0.9123
-50.1899 14.0934 -0.9099 0.8118
-73.2158 -6.4823 -1.2830 0.7452
-47.6478 -10.1056 -0.8502 0.8229
-73.2613 -25.0675 -1.3516 0.7336
-50.5337 -24.4332 -0.9798 0.7989
-11.4614 -20.1576 -0.4047 0.9114
-8.1339 -19.4378 -0.3678 0.9192
-5.5399 -19.5874 -0.3553 0.9218
-3.2232 -20.6354 -0.3646 0.9198
42.1089 -87.5104 -1.6951 0.6781
30.0282 -46.9337 -0.9725 0.8002
32.1405 -38.9537 -0.8815 0.8171
34.1442 -32.4689 -0.8224 0.8282
34.1874 -25.4310 -0.7437 0.8433
49.4314 -20.7942 -0.9361 0.8069
87.5926 -24.9517 -1.5897 0.6946
97.3392 8.2495 -1.7051 0.6765
64.9864 13.5279 -1.1587 0.7668
57.9151 19.5737 -1.0671 0.7830
42.1214 20.1709 -0.8152 0.8296
8.2417 8.6344 -0.2083 0.9534
4.9157 8.5704 -0.1725 0.9612
1.3887 8.6765 -0.1534 0.9655
0.3303 8.6830 -0.1517 0.9658
-12.1046 25.3996 -0.4911 0.8935
-5.5324 8.7190 -0.1802 0.9595
-7.1473 8.7290 -0.1969 0.9559
-9.1232 8.7411 -0.2205 0.9507
-11.6800 8.7568 -0.2548 0.9433
-20.7303 8.8124 -0.3932 0.9138
-50.1867 14.5004 -0.9118 0.8114
-53.5094 8.6673 -0.9462 0.8050
-87.3460 3.4867 -1.5258 0.7049
-73.3309 -5.9373 -1.2842 0.7450
-47.4805 -9.6977 -0.8459 0.8238
-73.1779 -46.2399 -1.5110 0.7073
-11.6963 -20.2156 -0.4077 0.9108
-5.6483 -19.4124 -0.3529 0.9223
31.6477 -38.9491 -0.8760 0.8181
34.1849 -25.8306 -0.7479 0.8425
59.8171 -25.6940 -1.1363 0.7707
84.4086 -24.7321 -1.5353 0.7034
97.3347 7.5127 -1.7040 0.6767
49.6202 9.9407 -0.8833 0.8167
59.3560 19.5648 -1.0909 0.7788
34.4441 16.1773 -0.6642 0.8588
13.7251 8.6007 -0.2827 0.9373
10.6490 8.6196 -0.2391 0.9467
5.0041 8.5745 -0.1733 0.9611
2.5578 8.6693 -0.1578 0.9645
1.4556 8.6761 -0.1536 0.9654
0.3956 8.6826 -0.1517 0.9658
-0.6529 8.6714 -0.1518 0.9658
-1.7168 8.6541 -0.1540 0.9653
-2.8255 8.6266 -0.1584 0.9643
-4.0309 8.6244 -0.1662 0.9626
-5.4405 8.7185 -0.1794 0.9597
-11.4974 8.7557 -0.2523 0.9438
-14.8098 8.6804 -0.2996 0.9336
-20.2990 8.8098 -0.3862 0.9153
-27.4569 8.1572 -0.5000 0.8917
-87.3419 4.1443 -1.5263 0.7048
-47.0110 -9.2343 -0.8363 0.8256
-73.2664 -23.8451 -1.3449 0.7347
-63.9735 -29.7533 -1.2315 0.7541
-60.5174 -37.6064 -1.2437 0.7520
-15.4259 -35.3613 -0.6734 0.8570
29.2523 -47.2716 -0.9703 0.8006
34.1381 -33.4546 -0.8343 0.8260
98.0654 6.8280 -1.7159 0.6748
26.5270 8.5233 -0.4863 0.8945
40.3982 18.6044 -0.7763 0.8370
13.9549 8.5993 -0.2861 0.9365
10.8130 8.6186 -0.2414 0.9462
8.4919 8.6328 -0.2114 0.9527
6.6265 8.6004 -0.1895 0.9575
5.0934 8.5787 -0.1741 0.9609
1.5226 8.6757 -0.1537 0.9654
-0.5876 8.6744 -0.1518 0.9658
-2.7550 8.6299 -0.1581 0.9644
-6.9296 8.7276 -0.1945 0.9564
-11.3185 8.7546 -0.2498 0.9444
-14.5767 8.6917 -0.2962 0.9344
-26.8763 8.2050 -0.4905 0.8937
-53.5042 9.4940 -0.9485 0.8046
-68.1026 -4.4846 -1.1913 0.7611
-73.4145 -33.4754 -1.4084 0.7241
-62.2331 -49.2221 -1.3850 0.7280
-12.1910 -20.3584 -0.4142 0.9094
-8.8212 -19.8137 -0.3786 0.9169
-5.9732 -19.4349 -0.3549 0.9219
-3.6863 -20.5502 -0.3644 0.9199
-1.2404 -21.8115 -0.3813 0.9163
1.7948 -28.0590 -0.4908 0.8936
39.6976 -87.4956 -1.6771 0.6809
30.6122 -38.8539 -0.8634 0.8205
34.1350 -33.9583 -0.8404 0.8248
40.4707 -24.3382 -0.8243 0.8278
79.8446 -24.7041 -1.4589 0.7158
51.7562 9.5617 -0.9187 0.8101
8.6196 8.6321 -0.2129 0.9524
6.7295 8.5997 -0.1906 0.9573
-6.8229 8.7270 -0.1934 0.9567
-11.1431 8.7535 -0.2473 0.9449
-19.2279 8.6906 -0.3683 0.9190
-55.4173 3.4649 -0.9692 0.8008
-87.4001 -5.0963 -1.5282 0.7045
-73.3219 -44.0499 -1.4930 0.7102
-62.1673 -48.4153 -1.3754 0.7296
-18.0382 -22.8738 -0.5085 0.8900
-12.2695 -20.1446 -0.4117 0.9100
-10.5816 -33.5301 -0.6137 0.8688
1.5786 -27.9762 -0.4891 0.8940
38.9056 -87.4907 -1.6713 0.6818
30.1842 -38.9084 -0.8596 0.8212
34.1319 -34.4692 -0.8467 0.8236
34.1774 -27.0566 -0.7609 0.8400
97.9244 -18.5168 -1.7396 0.6712
70.9525 3.8698 -1.2403 0.7526
51.7537 9.1597 -0.9174 0.8104
15.1030 8.9964 -0.3068 0.9321
6.8380 8.6044 -0.1918 0.9570
-1.5147 8.6529 -0.1533 0.9655
-2.6147 8.6366 -0.1575 0.9645
-5.1702 8.7168 -0.1769 0.9603
