ply
format ascii 1.0
element vertex 1551
property float32 x
property float32 y
property float32 z
property float32 I
end_header
9.5734 8.6262 0.2249 0.9498
7.5261 8.6388 0.2000 0.9552
4.4425 8.6338 0.1695 0.9619
3.1920 8.6240 0.1605 0.9639
-0.7606 5.8914 0.1037 0.9765
-2.2077 8.6778 0.1563 0.9648
-3.3672 8.6853 0.1626 0.9634
-6.1133 8.7226 0.1859 0.9583
-16.9891 8.7714 0.3337 0.9264
-64.5800 -34.3799 1.2770 0.7463
-21.2798 -31.1914 0.6591 0.8598
-18.3093 -35.3436 0.6948 0.8528
-1.8786 -16.1500 0.2838 0.9370
33.6303 -87.4583 1.6356 0.6874
28.7553 -54.1945 1.0709 0.7824
29.7733 -42.7312 0.9091 0.8119
35.0279 -39.1983 0.9176 0.8103
32.9886 -28.9800 0.7664 0.8389
35.5247 -24.3078 0.7513 0.8418
58.6881 14.6731 1.0559 0.7850
37.2536 19.7009 0.7356 0.8449
12.3919 8.6089 0.2634 0.9414
7.6097 8.6383 0.2009 0.9550
5.9223 8.6296 0.1827 0.9590
4.5044 8.6368 0.1700 0.9618
3.2460 8.6237 0.1608 0.9638
2.1156 8.6720 0.1558 0.9649
1.0338 8.6787 0.1526 0.9656
-2.1568 8.6775 0.1561 0.9649
-4.5714 8.6732 0.1711 0.9615
-6.0416 8.7222 0.1852 0.9584
-7.7605 8.7327 0.2039 0.9543
-9.9005 8.7459 0.2306 0.9485
-12.7318 8.7633 0.2698 0.9400
-16.7584 8.7695 0.3301 0.9271
-23.3573 8.8286 0.4359 0.9049
-22.7616 2.7430 0.4002 0.9124
-56.9707 -14.0771 1.0243 0.7908
-63.4635 -33.3381 1.2513 0.7507
-11.9950 -31.6031 0.5900 0.8735
-7.7062 -31.2153 0.5612 0.8793
29.0108 -42.1294 0.8929 0.8149
34.6385 -39.1947 0.9130 0.8112
35.1047 -24.3052 0.7453 0.8430
46.2676 -24.3738 0.9128 0.8112
49.1840 -18.7454 0.9187 0.8101
37.7496 19.6978 0.7432 0.8434
3.3002 8.6235 0.1612 0.9637
1.0822 8.6784 0.1527 0.9656
0.0290 8.6849 0.1516 0.9659
-0.6959 5.9007 0.1037 0.9765
-2.1061 8.6772 0.1559 0.9649
-3.2574 8.6846 0.1619 0.9636
-4.5103 8.6727 0.1706 0.9616
-7.6744 8.7322 0.2029 0.9546
-9.7906 8.7452 0.2291 0.9488
-12.5816 8.7624 0.2676 0.9405
-16.5326 8.7676 0.3266 0.9279
-22.7912 2.8740 0.4010 0.9122
-21.7847 -31.1883 0.6640 0.8588
-18.7167 -35.1761 0.6956 0.8526
-12.1940 -31.6019 0.5913 0.8733
-7.8885 -31.2141 0.5620 0.8791
-5.0074 -39.2746 0.6911 0.8535
31.1079 -83.6373 1.5576 0.6998
28.9411 -56.0259 1.1007 0.7770
28.8788 -42.4360 0.8960 0.8144
34.2354 -39.1712 0.9080 0.8121
34.6914 -24.3026 0.7393 0.8441
45.6492 -24.3700 0.9032 0.8130
49.0414 -19.0009 0.9180 0.8103
12.6852 8.6071 0.2676 0.9405
9.8950 8.6242 0.2291 0.9488
7.7793 8.6372 0.2029 0.9546
4.6261 8.6368 0.1710 0.9616
3.3547 8.6232 0.1615 0.9637
1.1307 8.6781 0.1528 0.9656
-0.9765 8.6910 0.1527 0.9656
-3.2028 8.6843 0.1616 0.9636
-7.5892 8.7317 0.2019 0.9548
-9.6820 8.7445 0.2277 0.9491
-16.3116 8.7658 0.3232 0.9286
-22.5896 8.8239 0.4233 0.9075
-4.9968 -37.5428 0.6611 0.8594
30.6236 -83.7433 1.5564 0.7000
28.7924 -56.4993 1.1069 0.7759
34.2846 -24.3001 0.7335 0.8453
45.0436 -24.3662 0.8939 0.8147
48.8510 -19.2371 0.9164 0.8106
58.6818 13.6458 1.0516 0.7858
39.7452 20.1855 0.7781 0.8367
10.0049 8.6235 0.2306 0.9485
7.8654 8.6367 0.2039 0.9543
3.4093 8.6229 0.1618 0.9636
-0.9280 8.6907 0.1526 0.9656
-2.0050 8.6765 0.1554 0.9650
-5.8299 8.7209 0.1831 0.9589
-7.5047 8.7312 0.2010 0.9550
-12.2883 8.7606 0.2634 0.9414
-56.9178 -13.0705 1.0194 0.7917
-22.2974 -31.1852 0.6692 0.8578
-19.0390 -34.8510 0.6932 0.8531
-12.5945 -31.5994 0.5938 0.8728
-4.9871 -35.9551 0.6336 0.8648
-1.4638 -85.5960 1.4943 0.7100
30.0635 -83.6362 1.5513 0.7008
28.8727 -43.4483 0.9106 0.8116
33.8842 -24.2977 0.7278 0.8464
44.4503 -24.3626 0.8848 0.8165
93.1919 -24.7836 1.6834 0.6799
54.7446 19.5932 1.0149 0.7925
40.2865 20.1822 0.7865 0.8350
12.9632 8.5888 0.2714 0.9397
7.9524 8.6362 0.2049 0.9541
4.7488 8.6361 0.1720 0.9613
3.4642 8.6226 0.1622 0.9635
2.3187 8.6708 0.1567 0.9647
0.1724 8.6840 0.1516 0.9658
-0.8796 8.6904 0.1525 0.9657
-3.0944 8.6836 0.1609 0.9638
-5.7604 8.7204 0.1824 0.9591
-12.1450 8.7597 0.2614 0.9419
-21.8647 8.8194 0.4115 0.9100
-39.4505 -8.8311 0.7057 0.8507
-19.0362 -34.3944 0.6862 0.8545
-6.1263 -15.1280 0.2849 0.9368
-8.4384 -31.2108 0.5643 0.8787
-1.9351 -85.5931 1.4944 0.7100
30.8888 -87.4415 1.6187 0.6900
23.5035 -47.4039 0.9236 0.8092
33.4896 -24.2952 0.7222 0.8475
91.1214 -24.7709 1.6482 0.6854
61.3137 13.5480 1.0960 0.7779
33.2615 16.4345 0.6476 0.8621
13.8711 9.0808 0.2894 0.9358
10.2290 8.6222 0.2335 0.9479
6.2869 8.6410 0.1865 0.9582
1.5901 5.8175 0.1052 0.9762
1.2767 8.6772 0.1531 0.9655
0.2202 8.6837 0.1516 0.9658
-1.9045 8.6759 0.1550 0.9651
-4.2695 8.6710 0.1687 0.9621
-5.6915 8.7200 0.1818 0.9592
-9.3810 8.7583 0.2240 0.9500
-12.0039 8.7588 0.2594 0.9423
-15.6752 8.7606 0.3134 0.9307
-21.5172 8.8173 0.4059 0.9112
-39.3777 -8.5875 0.7035 0.8511
-60.9182 -65.0695 1.5558 0.7001
-22.8183 -31.1820 0.6744 0.8568
-55.8897 12.0953 -0.9981 0.7955
-88.5608 -2.5090 -1.5464 0.7016
-74.5070 -11.1881 -1.3151 0.7398
-58.4356 -42.7807 -1.2641 0.7485
-6.7738 -19.4440 -0.3594 0.9209
-4.5304 -20.7958 -0.3715 0.9184
0.7600 -28.1966 -0.4924 0.8933
32.6110 -79.5338 -1.5004 0.7090
28.2570 -50.5351 -1.0106 0.7932
24.3308 -33.3303 -0.7203 0.8478
32.9963 -27.7235 -0.7523 0.8416
25.7183 -16.7784 -0.5358 0.8844
59.1403 -12.9693 -1.0568 0.7849
50.4879 7.4393 -0.8907 0.8153
31.0515 8.4942 -0.5619 0.8792
11.8321 8.6123 -0.2554 0.9431
7.2799 8.6403 -0.1972 0.9558
5.6342 8.6104 -0.1796 0.9597
4.2480 8.6021 -0.1675 0.9623
0.8405 8.6799 -0.1522 0.9657
-1.2686 8.6928 -0.1533 0.9655
-2.3556 8.6578 -0.1566 0.9647
-3.5215 8.6563 -0.1631 0.9633
-4.7934 8.6283 -0.1723 0.9613
-8.1137 8.7349 -0.2081 0.9534
-10.3546 8.7487 -0.2366 0.9472
-13.3527 8.7637 -0.2788 0.9381
-17.7063 8.7743 -0.3449 0.9240
-25.0096 8.8287 -0.4629 0.8993
-55.9302 5.4936 -0.9810 0.7987
-74.5312 -10.7725 -1.3145 0.7399
-19.6084 -23.1431 -0.5295 0.8857
-13.3018 -20.2066 -0.4223 0.9078
-4.6114 -20.6211 -0.3688 0.9189
35.2770 -87.4037 -1.6452 0.6859
28.2641 -51.2077 -1.0209 0.7914
24.0518 -33.3320 -0.7175 0.8484
32.9944 -28.0332 -0.7557 0.8410
48.8791 -24.3898 -0.9535 0.8037
69.8203 -24.8639 -1.2935 0.7434
59.1162 -13.3056 -1.0577 0.7847
35.8256 19.7097 -0.7137 0.8491
11.9689 8.6115 -0.2574 0.9427
9.3653 8.6275 -0.2223 0.9503
5.7044 8.6137 -0.1803 0.9595
4.3085 8.6049 -0.1680 0.9622
0.8887 8.6796 -0.1523 0.9657
-0.1624 8.6860 -0.1516 0.9658
-1.2198 8.6925 -0.1532 0.9655
-2.3044 8.6575 -0.1564 0.9648
-3.4671 8.6589 -0.1628 0.9634
-4.7313 8.6280 -0.1718 0.9614
-6.2583 8.7235 -0.1874 0.9580
-22.9947 2.3865 -0.4035 0.9117
-88.6224 -12.3115 -1.5618 0.6991
-74.4415 -29.6885 -1.3989 0.7257
-62.8007 -44.9226 -1.3478 0.7343
-13.4151 -20.1364 -0.4223 0.9077
-9.7964 -19.4317 -0.3798 0.9166
-6.9914 -19.3791 -0.3596 0.9209
-2.2848 -21.7234 -0.3813 0.9163
32.9451 -36.0604 -0.8526 0.8225
36.3858 -24.3130 -0.7639 0.8394
48.2047 -24.3857 -0.9429 0.8056
59.3608 -13.7044 -1.0634 0.7837
32.4191 8.4858 -0.5849 0.8745
50.4344 19.9533 -0.9467 0.8049
36.2921 19.7068 -0.7208 0.8477
12.1077 8.6106 -0.2593 0.9423
9.4687 8.6268 -0.2236 0.9500
5.7751 8.6170 -0.1811 0.9593
3.1226 8.5814 -0.1594 0.9641
2.0148 8.6726 -0.1554 0.9650
-0.1145 8.6857 -0.1516 0.9658
-1.1709 8.6922 -0.1531 0.9655
-3.4129 8.6615 -0.1625 0.9634
-7.9353 8.7338 -0.2060 0.9539
-10.1246 8.7473 -0.2335 0.9479
-17.3344 8.8291 -0.3396 0.9251
-20.8337 2.2782 -0.3658 0.9196
-88.5383 -1.0453 -1.5455 0.7017
-56.8067 -14.7023 -1.0242 0.7908
-20.2062 -23.3230 -0.5386 0.8839
-13.5032 -20.0288 -0.4216 0.9079
-4.8354 -20.5571 -0.3686 0.9190
-1.7885 -16.1498 -0.2836 0.9371
24.4682 -34.7082 -0.7412 0.8438
35.1483 -38.8999 -0.9151 0.8108
35.9518 -24.3104 -0.7575 0.8406
49.7810 -18.3477 -0.9262 0.8088
33.0058 8.4455 -0.5947 0.8726
36.7680 19.7039 -0.7281 0.8463
5.8464 8.6204 -0.1818 0.9592
4.4306 8.6106 -0.1690 0.9620
2.0651 8.6723 -0.1556 0.9650
-0.7605 5.8901 -0.1037 0.9765
-2.2035 8.6611 -0.1560 0.9649
-10.0119 8.7466 -0.2321 0.9482
-12.8845 8.7642 -0.2720 0.9396
-16.8138 8.6809 -0.3303 0.9271
-23.7586 8.8311 -0.4424 0.9036
-74.5367 -9.5193 -1.3116 0.7404
-59.8018 -53.5876 -1.4016 0.7252
-13.8622 -20.3189 -0.4293 0.9063
-10.1818 -19.6547 -0.3864 0.9153
-11.9326 -31.9682 -0.5956 0.8724
-4.9740 -20.6359 -0.3705 0.9186
33.5956 -87.3681 -1.6339 0.6876
28.8059 -54.2898 -1.0728 0.7820
24.4657 -35.1135 -0.7470 0.8426
46.8993 -24.3777 -0.9226 0.8094
50.4045 -18.8933 -0.9396 0.8063
52.0296 19.9246 -0.9725 0.8002
9.6793 8.6255 -0.2263 0.9495
7.6097 8.6383 -0.2009 0.9550
5.9182 8.6237 -0.1826 0.9590
2.1156 8.6720 -0.1558 0.9649
1.0338 8.6787 -0.1526 0.9656
-0.0188 8.6852 -0.1516 0.9659
-0.7269 5.8853 -0.1035 0.9766
-2.1533 8.6634 -0.1558 0.9649
-3.3039 8.6633 -0.1618 0.9636
-4.5471 8.6271 -0.1702 0.9617
-6.0416 8.7222 -0.1852 0.9584
-7.7605 8.7327 -0.2039 0.9543
-9.9005 8.7459 -0.2306 0.9485
-12.7318 8.7633 -0.2698 0.9400
-16.5873 8.6800 -0.3268 0.9278
-23.3573 8.8286 -0.4359 0.9049
-88.4085 21.6966 -1.5890 0.6948
-74.6430 -28.3489 -1.3937 0.7266
-62.3933 -43.0915 -1.3236 0.7383
-2.6410 -21.6642 -0.3809 0.9164
-0.0152 -26.0572 -0.4548 0.9010
27.8862 -53.2632 -1.0494 0.7862
34.4478 -38.9790 -0.9080 0.8121
32.9866 -29.3016 -0.7701 0.8382
46.2676 -24.3738 -0.9128 0.8112
48.2692 -18.3968 -0.9017 0.8133
52.8604 19.9096 -0.9860 0.7977
37.7496 19.6978 -0.7432 0.8434
9.7865 8.6249 -0.2277 0.9492
7.6941 8.6378 -0.2019 0.9548
4.5533 8.6145 -0.1701 0.9618
3.2837 8.5803 -0.1604 0.9639
2.1661 8.6717 -0.1560 0.9649
1.0822 8.6784 -0.1527 0.9656
0.0290 8.6849 -0.1516 0.9659
-0.6957 5.8996 -0.1037 0.9765
-4.4864 8.6267 -0.1697 0.9618
-5.9706 8.7217 -0.1845 0.9586
-7.6744 8.7322 -0.2029 0.9546
-9.7906 8.7452 -0.2291 0.9488
-12.5816 8.7624 -0.2676 0.9405
-16.3656 8.6791 -0.3233 0.9286
-22.9678 8.8262 -0.4295 0.9063
-88.5424 0.4173 -1.5455 0.7017
-56.7443 -13.6902 -1.0189 0.7917
-74.4200 -27.7967 -1.3867 0.7277
-22.5409 -25.1656 -0.5897 0.8736
-10.4638 -19.6658 -0.3888 0.9147
-7.4819 -19.3902 -0.3628 0.9202
-2.7591 -21.6406 -0.3808 0.9164
32.4931 -87.3614 -1.6269 0.6887
27.8110 -53.8382 -1.0577 0.7847
28.1353 -41.3434 -0.8729 0.8187
34.6914 -24.3026 -0.7393 0.8441
58.7840 14.0111 -1.0548 0.7852
33.2364 12.3099 -0.6187 0.8678
9.8950 8.6242 -0.2291 0.9488
7.7793 8.6372 -0.2029 0.9546
6.0638 8.6306 -0.1841 0.9587
3.3378 8.5799 -0.1607 0.9638
1.1307 8.6781 -0.1528 0.9656
0.0768 8.6846 -0.1516 0.9659
-0.9765 8.6910 -0.1527 0.9656
-3.1949 8.6627 -0.1612 0.9637
-7.5892 8.7317 -0.2019 0.9548
-9.6820 8.7445 -0.2277 0.9491
-12.4338 8.7615 -0.2655 0.9410
-22.5896 8.8239 -0.4233 0.9075
-51.3666 13.2073 -0.9258 0.8088
-23.0006 3.0291 -0.4049 0.9114
-57.2094 -13.4695 -1.0259 0.7905
-58.6761 -30.0035 -1.1503 0.7682
-62.2155 -41.9645 -1.3099 0.7407
-14.3787 -20.3459 -0.4349 0.9051
-12.3939 -31.6006 -0.5925 0.8730
-4.9968 -37.5428 -0.6611 0.8594
-0.2886 -24.8895 -0.4345 0.9052
29.4979 -80.6649 -1.4992 0.7092
33.6846 -38.9718 -0.8991 0.8138
34.2846 -24.3001 -0.7335 0.8453
45.0436 -24.3662 -0.8939 0.8147
50.3986 -19.8466 -0.9455 0.8052
48.6690 -12.6566 -0.8778 0.8178
58.6818 13.6458 -1.0516 0.7858
12.8354 8.6061 -0.2697 0.9400
10.0049 8.6235 -0.2306 0.9485
7.8654 8.6367 -0.2039 0.9543
6.1375 8.6340 -0.1849 0.9585
4.6749 8.6137 -0.1711 0.9616
3.3922 8.5795 -0.1610 0.9638
1.1793 8.6778 -0.1529 0.9656
0.1246 8.6843 -0.1516 0.9659
-0.9280 8.6907 -0.1526 0.9656
-4.3660 8.6261 -0.1688 0.9621
-5.8299 8.7209 -0.1831 0.9589
-7.5047 8.7312 -0.2010 0.9550
-9.5748 8.7439 -0.2263 0.9494
-15.9555 8.6880 -0.3171 0.9299
-55.0683 7.5609 -0.9702 0.8006
-76.8264 -8.0967 -1.3484 0.7341
-57.4572 -13.1944 -1.0290 0.7899
-74.5540 -26.9147 -1.3835 0.7283
-62.1975 -41.4556 -1.3047 0.7415
-59.5703 -51.0599 -1.3694 0.7306
-14.7825 -20.6749 -0.4436 0.9033
-2.9730 -21.4340 -0.3777 0.9171
-0.4263 -24.9308 -0.4352 0.9051
39.8968 -79.3667 -1.5505 0.7009
33.3083 -38.9683 -0.8948 0.8146
33.8842 -24.2977 -0.7278 0.8464
44.4503 -24.3626 -0.8848 0.8165
50.3967 -20.1670 -0.9475 0.8048
48.4266 -12.8786 -0.8747 0.8183
61.7239 13.9955 -1.1047 0.7763
7.9524 8.6362 -0.2049 0.9541
4.7362 8.6133 -0.1716 0.9614
3.4468 8.5791 -0.1614 0.9637
2.3187 8.6708 -0.1567 0.9647
1.2280 8.6775 -0.1530 0.9655
0.1724 8.6840 -0.1516 0.9658
-0.8796 8.6904 -0.1525 0.9657
-3.0867 8.6621 -0.1605 0.9639
-4.3064 8.6258 -0.1683 0.9622
-5.7604 8.7204 -0.1824 0.9591
-9.4688 8.7432 -0.2250 0.9497
-12.1450 8.7597 -0.2614 0.9419
-21.8647 8.8194 -0.4115 0.9100
-51.3618 13.8107 -0.9284 0.8083
-54.6899 7.8160 -0.9643 0.8017
-62.2707 -41.0112 -1.3015 0.7421
-14.8774 -20.5672 -0.4431 0.9034
-10.9426 -19.7711 -0.3944 0.9136
-5.5064 -20.3665 -0.3683 0.9191
-0.5494 -24.3021 -0.4243 0.9073
30.8569 -87.3513 -1.6170 0.6903
23.4986 -47.3941 -0.9234 0.8093
43.8690 -24.3590 -0.8759 0.8181
50.3947 -20.4888 -0.9496 0.8044
48.3961 -13.1562 -0.8754 0.8182
96.1689 9.3328 -1.6865 0.6794
62.5329 13.8174 -1.1178 0.7740
55.6929 19.5874 -1.0305 0.7896
10.2290 8.6222 -0.2335 0.9479
3.5016 8.5787 -0.1617 0.9636
1.2767 8.6772 -0.1531 0.9655
0.2202 8.6837 -0.1516 0.9658
-1.9043 8.6751 -0.1550 0.9651
-3.0330 8.6618 -0.1602 0.9640
-9.3810 8.7583 -0.2240 0.9500
-12.0039 8.7588 -0.2594 0.9423
-15.5780 8.7062 -0.3115 0.9311
-54.6879 8.1232 -0.9650 0.8016
-88.5301 2.3674 -1.5458 0.7017
-39.4045 -8.5933 -0.7040 0.8510
-74.5236 -25.9800 -1.3776 0.7293
-11.0349 -19.6811 -0.3938 0.9137
-7.9205 -19.2532 -0.3634 0.9201
30.3159 -87.3480 -1.6139 0.6908
-35.1705 7.6114 -1.8859 0.8658
-42.8391 -6.4328 -2.2703 0.8407
-43.2046 -11.9467 -2.3492 0.8356
-44.1369 -18.1683 -2.5014 0.8260
-41.6276 -23.3516 -2.5014 0.8260
-38.5124 -28.1949 -2.5014 0.8260
-18.9331 -22.5971 -1.5450 0.8886
-9.4412 -19.2515 -1.1237 0.9177
-4.4428 -20.3933 -1.0938 0.9198
-2.0283 -21.5654 -1.1352 0.9169
7.0228 -47.2106 -2.5014 0.8260
22.7966 -40.7697 -2.4480 0.8294
26.4296 -36.2055 -2.3492 0.8356
30.5975 -32.7590 -2.3492 0.8356
30.7059 -25.7991 -2.1018 0.8516
25.7120 -16.7742 -1.6089 0.8843
31.0515 8.4942 -1.6871 0.8790
20.9949 8.5747 -1.1885 0.9132
11.8321 8.6123 -0.7670 0.9431
9.2631 8.6281 -0.6634 0.9506
7.2799 8.6403 -0.5921 0.9558
5.6342 8.6104 -0.5393 0.9596
3.0014 8.5397 -0.4744 0.9644
1.9145 8.6733 -0.4655 0.9650
0.8405 8.6799 -0.4570 0.9657
-8.1136 8.7349 -0.6248 0.9534
-10.3546 8.7487 -0.7104 0.9472
-17.7033 8.7729 -1.0355 0.9239
-43.2697 -11.7086 -2.3492 0.8356
-35.0156 -32.4355 -2.5014 0.8260
-19.2945 -22.7725 -1.5642 0.8873
-6.8257 -19.2512 -1.0704 0.9214
0.5928 -27.6412 -1.4489 0.8952
6.7628 -47.2485 -2.5014 0.8260
12.4037 -46.0902 -2.5014 0.8260
17.8641 -44.2609 -2.5014 0.8260
22.7877 -41.2858 -2.4714 0.8279
30.4167 -32.9270 -2.3492 0.8356
32.8901 -27.9446 -2.2618 0.8412
36.6669 -24.2099 -2.3027 0.8386
46.5652 -10.4806 -2.5014 0.8260
47.4885 -4.7964 -2.5014 0.8260
44.3824 6.2902 -2.3492 0.8356
31.7216 8.4901 -1.7210 0.8768
9.3653 8.6275 -0.6673 0.9503
5.7044 8.6137 -0.5414 0.9595
4.2970 8.5820 -0.5030 0.9623
3.0542 8.5392 -0.4753 0.9643
-0.1624 8.6860 -0.4553 0.9658
-1.2198 8.6925 -0.4600 0.9655
-2.3040 8.6563 -0.4695 0.9648
-6.2583 8.7235 -0.5627 0.9579
-8.0240 8.7344 -0.6216 0.9536
-13.1418 8.7292 -0.8268 0.9388
-24.5985 8.8362 -1.3698 0.9006
-44.4002 10.1218 -2.3866 0.8333
-22.9364 2.3804 -1.2085 0.9118
-45.1238 -0.7812 -2.3652 0.8346
-43.3335 -11.4702 -2.3492 0.8356
-44.2698 -17.6555 -2.4978 0.8262
-9.6906 -19.2217 -1.1281 0.9174
-6.8537 -18.9975 -1.0584 0.9223
0.4395 -27.5775 -1.4455 0.8954
30.0564 -25.8234 -2.0767 0.8532
34.2166 -22.8636 -2.1567 0.8480
46.5068 -10.7368 -2.5014 0.8260
12.1077 8.6106 -0.7786 0.9422
5.7751 8.6170 -0.5436 0.9593
-0.1145 8.6857 -0.4552 0.9658
-2.2537 8.6587 -0.4689 0.9648
-3.4046 8.6402 -0.4867 0.9635
-4.6446 8.5817 -0.5114 0.9617
-6.1855 8.7230 -0.5604 0.9581
-13.0397 8.7652 -0.8234 0.9390
-24.1721 8.8336 -1.3487 0.9021
-44.3521 10.3681 -2.3871 0.8332
-20.8303 2.2778 -1.0983 0.9195
-45.1346 -0.5329 -2.3656 0.8346
-42.1411 -5.6179 -2.2281 0.8434
-42.0077 -22.6609 -2.5014 0.8260
-13.4365 -19.9299 -1.2597 0.9082
-9.8670 -19.3064 -1.1363 0.9168
-7.0339 -19.1657 -1.0699 0.9215
-4.7878 -20.3546 -1.0959 0.9197
0.2781 -26.6658 -1.3976 0.8987
6.2421 -47.3201 -2.5014 0.8260
17.3757 -44.4549 -2.5014 0.8260
22.5665 -41.9708 -2.4974 0.8262
32.8863 -28.5709 -2.2831 0.8399
35.7953 -24.2046 -2.2646 0.8411
42.0601 -15.5020 -2.3492 0.8356
46.4469 -10.9927 -2.5014 0.8260
44.4490 5.8011 -2.3492 0.8356
22.0115 8.5685 -1.2379 0.9097
12.2487 8.6097 -0.7846 0.9418
9.5734 8.6262 -0.6753 0.9497
7.5261 8.6388 -0.6005 0.9551
3.1603 8.5383 -0.4771 0.9642
-0.7603 5.8888 -0.3112 0.9765
-2.2035 8.6611 -0.4684 0.9648
-6.1133 8.7226 -0.5582 0.9582
-10.0119 8.7466 -0.6967 0.9481
-39.8763 -10.0866 -2.1556 0.8481
-44.1290 -17.0386 -2.4791 0.8274
-42.1318 -22.4293 -2.5014 0.8260
-39.1239 -27.3400 -2.5014 0.8260
-13.6536 -20.0133 -1.2697 0.9075
5.9814 -47.3538 -2.5014 0.8260
17.1307 -44.5499 -2.5014 0.8260
25.6259 -36.7787 -2.3492 0.8356
35.3701 -24.2019 -2.2461 0.8423
39.7738 -20.6739 -2.3492 0.8356
46.3857 -11.2482 -2.5014 0.8260
22.3722 8.5674 -1.2555 0.9085
28.1604 14.8921 -1.6695 0.8802
12.3919 8.6089 -0.7908 0.9414
9.6793 8.6255 -0.6795 0.9494
7.6097 8.6383 -0.6033 0.9549
3.2137 8.5379 -0.4781 0.9641
2.1156 8.6720 -0.4678 0.9649
1.0338 8.6787 -0.4580 0.9656
-0.0188 8.6852 -0.4552 0.9658
-2.1533 8.6634 -0.4678 0.9649
-3.2957 8.6417 -0.4847 0.9636
-4.5252 8.5856 -0.5086 0.9619
-6.0416 8.7222 -0.5561 0.9584
-12.7318 8.7633 -0.8100 0.9400
-44.2516 10.8599 -2.3879 0.8332
-39.5924 -9.7831 -2.1374 0.8493
-43.8549 -16.6558 -2.4585 0.8287
-42.2547 -22.1968 -2.5014 0.8260
-39.2739 -27.1242 -2.5014 0.8260
-35.7214 -31.6566 -2.5014 0.8260
-10.2707 -19.5618 -1.1579 0.9153
-7.2249 -19.0354 -1.0670 0.9217
-4.9718 -20.1394 -1.0871 0.9203
-2.5930 -21.2706 -1.1230 0.9178
-0.0149 -25.4706 -1.3349 0.9030
16.8850 -44.6436 -2.5014 0.8260
29.6842 -33.5888 -2.3492 0.8356
32.8823 -29.2090 -2.3050 0.8385
34.9519 -24.1994 -2.2279 0.8434
39.6594 -20.8925 -2.3492 0.8356
46.3231 -11.5035 -2.5014 0.8260
47.3713 -5.8411 -2.5014 0.8260
47.7300 -0.0935 -2.5014 0.8260
22.7433 8.5662 -1.2737 0.9072
12.5375 8.6080 -0.7970 0.9409
9.7865 8.6249 -0.6836 0.9491
7.6941 8.6378 -0.6062 0.9547
5.9907 8.6271 -0.5504 0.9588
3.2673 8.5374 -0.4791 0.9640
1.0822 8.6784 -0.4583 0.9656
0.0290 8.6849 -0.4552 0.9658
-0.6956 5.8984 -0.3113 0.9765
-2.1033 8.6658 -0.4673 0.9649
-3.2412 8.6415 -0.4837 0.9637
-4.4665 8.5884 -0.5073 0.9620
-7.6744 8.7322 -0.6093 0.9545
-12.5816 8.7624 -0.8035 0.9404
-16.2724 8.6296 -0.9653 0.9289
-28.7474 7.2230 -1.5534 0.8881
-45.1583 0.2128 -2.3667 0.8345
-41.6984 -4.8593 -2.2001 0.8452
-42.3762 -21.9640 -2.5014 0.8260
-39.4226 -26.9076 -2.5014 0.8260
-35.8951 -31.4595 -2.5014 0.8260
-22.4247 -25.0359 -1.7614 0.8740
-10.3075 -19.3720 -1.1500 0.9159
-7.3074 -18.9379 -1.0638 0.9219
-5.1062 -20.2050 -1.0922 0.9199
-2.7208 -21.3403 -1.1274 0.9174
5.4596 -47.4168 -2.5014 0.8260
11.1303 -46.4142 -2.5014 0.8260
16.6390 -44.7359 -2.5014 0.8260
34.5404 -24.1968 -2.2102 0.8446
39.5437 -21.1106 -2.3492 0.8356
46.2591 -11.7584 -2.5014 0.8260
47.3384 -6.1018 -2.5014 0.8260
44.5387 5.0661 -2.3492 0.8356
43.6044 10.3931 -2.3492 0.8356
23.1252 8.5649 -1.2924 0.9059
28.1535 14.4941 -1.6595 0.8809
12.6852 8.6071 -0.8034 0.9404
4.6018 8.5914 -0.5108 0.9617
3.3212 8.5372 -0.4801 0.9640
2.2169 8.6714 -0.4691 0.9648
1.1307 8.6781 -0.4586 0.9656
0.0768 8.6846 -0.4552 0.9658
-0.9765 8.6910 -0.4583 0.9656
-3.1869 8.6412 -0.4827 0.9638
-12.4338 8.7615 -0.7972 0.9409
-16.0766 8.6395 -0.9565 0.9295
-23.0264 3.0325 -1.2172 0.9112
-41.7206 -4.6292 -2.1999 0.8452
-38.9418 -9.1686 -2.0967 0.8519
-43.3106 -15.9056 -2.4180 0.8313
-42.4965 -21.7302 -2.5014 0.8260
-14.2342 -20.1415 -1.2926 0.9059
-10.4587 -19.3978 -1.1549 0.9155
-7.4059 -18.8830 -1.0630 0.9220
-2.8103 -21.1151 -1.1164 0.9182
-0.2845 -24.5349 -1.2859 0.9064
5.1984 -47.4461 -2.5014 0.8260
10.8746 -46.4747 -2.5014 0.8260
29.3126 -33.9136 -2.3492 0.8356
32.8783 -29.8595 -2.3276 0.8370
39.4269 -21.3279 -2.3492 0.8356
41.7085 -16.4245 -2.3492 0.8356
46.1936 -12.0129 -2.5014 0.8260
47.3041 -6.3623 -2.5014 0.8260
44.5659 4.8208 -2.3492 0.8356
28.0859 10.2267 -1.5665 0.8872
12.8354 8.6061 -0.8099 0.9400
10.0049 8.6235 -0.6922 0.9485
6.1375 8.6340 -0.5552 0.9585
4.6626 8.5910 -0.5123 0.9616
-0.9280 8.6907 -0.4581 0.9656
-3.1329 8.6409 -0.4817 0.9639
-4.3499 8.5942 -0.5048 0.9622
-5.8299 8.7209 -0.5498 0.9589
-7.5047 8.7312 -0.6034 0.9549
-9.5748 8.7439 -0.6795 0.9494
-15.8843 8.6492 -0.9479 0.9301
-45.1670 0.7102 -2.3674 0.8345
-38.6257 -8.8700 -2.0770 0.8532
-42.6155 -21.4960 -2.5014 0.8260
-36.2395 -31.0622 -2.5014 0.8260
-14.3996 -20.1394 -1.2975 0.9056
-10.6678 -19.5275 -1.1661 0.9147
-5.3022 -20.0487 -1.0868 0.9203
-2.9332 -21.1474 -1.1189 0.9180
16.1454 -44.9164 -2.5014 0.8260
24.8097 -37.3342 -2.3492 0.8356
29.1253 -34.0746 -2.3492 0.8356
39.3089 -21.5447 -2.3492 0.8356
41.6174 -16.6538 -2.3492 0.8356
46.1268 -12.2670 -2.5014 0.8260
47.2684 -6.6226 -2.5014 0.8260
47.7219 -0.8818 -2.5014 0.8260
43.7162 9.9124 -2.3492 0.8356
28.1468 14.1006 -1.6499 0.8815
10.1163 8.6229 -0.6966 0.9481
7.9524 8.6362 -0.6153 0.9541
3.4320 8.5423 -0.4825 0.9638
2.3187 8.6708 -0.4704 0.9647
0.1724 8.6840 -0.4552 0.9658
-0.8796 8.6904 -0.4578 0.9656
-1.9539 8.6728 -0.4659 0.9650
-4.2920 8.5970 -0.5036 0.9622
-7.4210 8.7306 -0.6005 0.9551
-12.1450 8.7597 -0.7848 0.9418
-43.1142 0.9154 -2.2600 0.8414
-43.7589 -4.3682 -2.3047 0.8385
-42.7519 -15.1684 -2.3774 0.8339
-42.7332 -21.2610 -2.5014 0.8260
-30.4551 -32.8915 -2.3492 0.8356
-14.6858 -20.3023 -1.3132 0.9045
-3.0301 -20.9960 -1.1118 0.9185
-0.5317 -23.5159 -1.2327 0.9101
10.3623 -46.5917 -2.5014 0.8260
21.2022 -42.7624 -2.5014 0.8260
24.6038 -37.4702 -2.3492 0.8356
32.5476 -30.2200 -2.3276 0.8370
33.3439 -24.1895 -2.1589 0.8479
39.1897 -21.7608 -2.3492 0.8356
46.0585 -12.5208 -2.5014 0.8260
46.8331 4.5450 -2.4659 0.8282
43.7701 9.6715 -2.3492 0.8356
28.1435 13.9057 -1.6452 0.8818
13.8711 9.0808 -0.8689 0.9357
10.2290 8.6222 -0.7011 0.9478
8.0402 8.6356 -0.6184 0.9538
6.2869 8.6410 -0.5600 0.9581
1.5897 5.8160 -0.3161 0.9761
0.2202 8.6837 -0.4552 0.9658
-0.8313 8.6901 -0.4575 0.9656
-4.2344 8.5998 -0.5024 0.9623
-5.6915 8.7200 -0.5457 0.9591
-7.3382 8.7301 -0.5977 0.9553
-9.3810 8.7583 -0.6726 0.9499
-12.0039 8.7588 -0.7788 0.9422
-15.5097 8.6681 -0.9312 0.9313
-26.7905 7.3621 -1.4561 0.8947
-44.8740 6.6655 -2.3775 0.8338
-35.8355 0.9583 -1.8787 0.8662
-44.8322 -4.2263 -2.3600 0.8350
-42.4683 -14.8050 -2.3570 0.8351
-40.0056 -26.0328 -2.5014 0.8260
-36.5793 -30.6613 -2.5014 0.8260
-10.8836 -19.4112 -1.1663 0.9147
-7.8259 -19.0233 -1.0780 0.9209
-3.1642 -21.1029 -1.1183 0.9181
-0.6443 -22.9132 -1.2013 0.9123
4.4142 -47.5255 -2.5014 0.8260
-26.2514 5.6812 -2.3499 0.8978
-26.8410 -0.7604 -2.3492 0.8978
-20.8679 -19.5448 -2.5014 0.8915
-17.2449 -20.5822 -2.3492 0.8978
-12.7515 -19.6049 -2.0461 0.9104
-9.4077 -19.1832 -1.8693 0.9178
-4.4155 -20.2682 -1.8148 0.9201
-2.0099 -21.3698 -1.8779 0.9174
0.7235 -26.8420 -2.3492 0.8978
3.9508 -26.5595 -2.3492 0.8978
19.5161 -20.8948 -2.5014 0.8915
21.8904 -18.3923 -2.5014 0.8915
23.9461 -15.6222 -2.5014 0.8915
25.6532 -12.6246 -2.5014 0.8915
26.9869 -9.4433 -2.5014 0.8915
28.2715 4.1657 -2.5001 0.8916
24.8584 10.1527 -2.3492 0.8978
23.5438 13.1221 -2.3581 0.8974
11.8321 8.6123 -1.2804 0.9429
9.2631 8.6281 -1.1075 0.9504
5.6342 8.6104 -0.9003 0.9595
2.9877 8.5008 -0.7883 0.9645
0.8405 8.6799 -0.7629 0.9656
-1.2686 8.6928 -0.7686 0.9653
-3.5041 8.6136 -0.8136 0.9633
-4.7509 8.5517 -0.8559 0.9615
-8.1137 8.7349 -1.0430 0.9533
-13.3421 8.7567 -1.3962 0.9379
-16.7194 8.2853 -1.6325 0.9278
-26.2244 5.8266 -2.3503 0.8977
-21.8928 2.1503 -1.9246 0.9155
-27.5988 -7.4681 -2.5014 0.8915
-25.0126 -13.8506 -2.5014 0.8915
-23.1625 -16.7621 -2.5014 0.8915
-20.9752 -19.4296 -2.5014 0.8915
-17.3580 -20.4870 -2.3492 0.8978
-12.9197 -19.6261 -2.0557 0.9100
-6.8103 -19.2075 -1.7829 0.9214
0.5731 -26.7236 -2.3385 0.8982
3.8046 -26.5809 -2.3492 0.8978
7.4301 -27.6091 -2.5014 0.8915
10.7010 -26.5133 -2.5014 0.8915
16.7302 -23.1855 -2.5014 0.8915
21.7888 -18.5126 -2.5014 0.8915
26.9345 -9.5917 -2.5014 0.8915
27.8936 -6.2782 -2.5014 0.8915
28.3085 4.0121 -2.5014 0.8915
23.6107 12.9896 -2.3576 0.8974
11.9689 8.6115 -1.2900 0.9425
7.3612 8.6398 -0.9930 0.9554
5.7044 8.6137 -0.9039 0.9594
4.2855 8.5591 -0.8374 0.9623
3.0413 8.5032 -0.7901 0.9644
1.9646 8.6730 -0.7780 0.9649
-0.1624 8.6860 -0.7601 0.9657
-1.2198 8.6925 -0.7679 0.9654
-4.6911 8.5547 -0.8536 0.9616
-8.0240 8.7344 -1.0377 0.9535
-10.2389 8.7480 -1.1782 0.9474
-16.5777 8.3291 -1.6231 0.9282
-20.8322 2.1621 -1.8324 0.9193
-26.8477 -0.4648 -2.3492 0.8978
-28.3194 -3.9342 -2.5014 0.8915
-27.6395 -7.3161 -2.5014 0.8915
-25.0884 -13.7127 -2.5014 0.8915
-23.2544 -16.6343 -2.5014 0.8915
-17.4705 -20.3911 -2.3492 0.8978
-13.0893 -19.6475 -2.0655 0.9096
-9.6891 -19.2187 -1.8830 0.9172
-6.9412 -19.2398 -1.7895 0.9212
0.4178 -26.2173 -2.2940 0.9001
7.2780 -27.6496 -2.5014 0.8915
10.5549 -26.5718 -2.5014 0.8915
19.2848 -21.1084 -2.5014 0.8915
21.6866 -18.6323 -2.5014 0.8915
25.5127 -12.9063 -2.5014 0.8915
27.8586 -6.4316 -2.5014 0.8915
28.5884 0.4162 -2.5014 0.8915
24.9687 9.8783 -2.3492 0.8978
23.6769 12.8567 -2.3572 0.8975
12.1077 8.6106 -1.2998 0.9421
9.4687 8.6268 -1.1207 0.9499
7.4433 8.6393 -0.9977 0.9552
5.7751 8.6170 -0.9075 0.9592
4.3460 8.5618 -0.8400 0.9622
3.0951 8.5057 -0.7919 0.9643
2.0148 8.6726 -0.7790 0.9649
0.9370 8.6793 -0.7638 0.9656
-0.1145 8.6857 -0.7600 0.9657
-2.2537 8.6587 -0.7828 0.9647
-4.6316 8.5576 -0.8513 0.9617
-6.1855 8.7230 -0.9356 0.9580
-10.1246 8.7473 -1.1706 0.9477
-16.4375 8.3723 -1.6139 0.9286
-26.1680 6.1172 -2.3511 0.8977
-28.3407 -3.7782 -2.5014 0.8915
-26.6152 -10.4451 -2.5014 0.8915
-23.3456 -16.5061 -2.5014 0.8915
-21.1879 -19.1975 -2.5014 0.8915
-17.5826 -20.2946 -2.3492 0.8978
-13.2606 -19.6691 -2.0754 0.9091
-9.8313 -19.2366 -1.8900 0.9169
-7.1200 -19.4003 -1.8080 0.9204
-4.7497 -20.1925 -1.8148 0.9201
0.2683 -25.7302 -2.2512 0.9018
7.1257 -27.6892 -2.5014 0.8915
10.4085 -26.6296 -2.5014 0.8915
16.4739 -23.3683 -2.5014 0.8915
25.4412 -13.0466 -2.5014 0.8915
27.8228 -6.5849 -2.5014 0.8915
28.5902 0.2588 -2.5014 0.8915
26.0136 6.6563 -2.3492 0.8978
25.0227 9.7407 -2.3492 0.8978
9.5734 8.6262 -1.1274 0.9496
7.5261 8.6388 -1.0024 0.9550
5.8464 8.6204 -0.9113 0.9590
2.0651 8.6723 -0.7799 0.9648
0.9853 8.6790 -0.7642 0.9655
-2.2035 8.6611 -0.7819 0.9648
-4.5724 8.5606 -0.8491 0.9618
-6.1133 8.7226 -0.9319 0.9581
-7.8474 8.7333 -1.0272 0.9540
-12.8845 8.7642 -1.3633 0.9393
-21.9889 8.1733 -2.0524 0.9101
-20.7881 2.3891 -1.8307 0.9194
-28.3610 -3.6221 -2.5014 0.8915
-25.2379 -13.4357 -2.5014 0.8915
-23.4361 -16.3773 -2.5014 0.8915
-7.1619 -19.1873 -1.7918 0.9211
-4.9231 -20.4245 -1.8381 0.9191
-1.8785 -16.1495 -1.4224 0.9368
3.2472 -25.7077 -2.2670 0.9012
6.9731 -27.7280 -2.5014 0.8915
16.3450 -23.4587 -2.5014 0.8915
26.7724 -10.0352 -2.5014 0.8915
27.7861 -6.7379 -2.5014 0.8915
28.5912 0.1014 -2.5014 0.8915
28.3709 3.5440 -2.5014 0.8915
26.0499 6.5130 -2.3492 0.8978
25.0760 9.6028 -2.3492 0.8978
23.8070 12.5899 -2.3562 0.8975
9.6793 8.6255 -1.1343 0.9493
7.6097 8.6383 -1.0072 0.9548
3.2034 8.5106 -0.7956 0.9641
2.1156 8.6720 -0.7810 0.9648
-0.0188 8.6852 -0.7599 0.9657
-3.2874 8.6202 -0.8071 0.9636
-6.0416 8.7222 -0.9283 0.9583
-7.7605 8.7327 -1.0221 0.9542
-9.9005 8.7459 -1.1557 0.9483
-16.1618 8.4573 -1.5959 0.9294
-21.8101 8.2438 -2.0399 0.9106
-26.1082 6.4073 -2.3520 0.8977
-22.0834 2.6613 -1.9460 0.9146
-17.8049 -20.0998 -2.3492 0.8978
-7.2873 -19.1999 -1.7967 0.9208
-4.9793 -20.1694 -1.8176 0.9200
-2.5690 -21.0733 -1.8573 0.9183
-0.0145 -24.8082 -2.1704 0.9052
3.1075 -25.7407 -2.2684 0.9011
10.1145 -26.7426 -2.5014 0.8915
13.2615 -25.3298 -2.5014 0.8915
18.9336 -21.4240 -2.5014 0.8915
26.7168 -10.1825 -2.5014 0.8915
27.7486 -6.8909 -2.5014 0.8915
28.3765 -3.4989 -2.5014 0.8915
28.3900 3.3876 -2.5014 0.8915
26.0854 6.3694 -2.3492 0.8978
25.1285 9.4645 -2.3492 0.8978
12.5375 8.6080 -1.3305 0.9408
9.7865 8.6249 -1.1413 0.9490
5.9907 8.6271 -0.9189 0.9587
3.2580 8.5130 -0.7975 0.9641
0.0290 8.6849 -0.7598 0.9657
-0.6955 5.8973 -0.5195 0.9764
-3.2332 8.6199 -0.8054 0.9637
-4.4550 8.5665 -0.8448 0.9620
-7.6744 8.7322 -1.0171 0.9544
-9.7906 8.7452 -1.1485 0.9487
-12.5816 8.7624 -1.3414 0.9403
-16.0262 8.4990 -1.5871 0.9298
-26.0772 6.5521 -2.3524 0.8977
-22.1317 2.7908 -1.9516 0.9143
-26.8514 0.1265 -2.3492 0.8978
-28.3992 -3.3095 -2.5014 0.8915
-26.7841 -10.0041 -2.5014 0.8915
-25.3843 -13.1570 -2.5014 0.8915
-10.2646 -19.2913 -1.9118 0.9160
-5.1246 -20.2779 -1.8299 0.9194
-2.6793 -21.0147 -1.8534 0.9185
-0.1484 -24.3716 -2.1323 0.9068
6.6673 -27.8032 -2.5014 0.8915
9.9671 -26.7978 -2.5014 0.8915
21.2710 -19.1053 -2.5014 0.8915
23.4171 -16.4045 -2.5014 0.8915
25.2223 -13.4650 -2.5014 0.8915
27.7102 -7.0436 -2.5014 0.8915
28.3568 -3.6551 -2.5014 0.8915
28.5906 -0.2134 -2.5014 0.8915
28.4082 3.2313 -2.5014 0.8915
26.1201 6.2257 -2.3492 0.8978
23.9341 12.3218 -2.3552 0.8975
7.7793 8.6372 -1.0170 0.9544
4.5897 8.5688 -0.8504 0.9617
2.2169 8.6714 -0.7830 0.9647
-0.9765 8.6910 -0.7652 0.9655
-2.0534 8.6681 -0.7793 0.9649
-3.1790 8.6197 -0.8038 0.9638
-9.6820 8.7445 -1.1414 0.9490
-15.8391 8.5119 -1.5732 0.9303
-20.7706 8.1133 -1.9509 0.9144
-22.1803 2.9211 -1.9573 0.9141
-26.8503 0.2744 -2.3492 0.8978
-27.8305 -6.5525 -2.5014 0.8915
-25.4564 -13.0169 -2.5014 0.8915
-23.7034 -15.9880 -2.5014 0.8915
-14.1321 -19.9970 -2.1423 0.9064
-10.4112 -19.3097 -1.9193 0.9157
-5.1853 -20.0526 -1.8121 0.9202
-0.2777 -23.9501 -2.0955 0.9083
15.9553 -23.7255 -2.5014 0.8915
21.1655 -19.2221 -2.5014 0.8915
23.3264 -16.5332 -2.5014 0.8915
25.1478 -13.6037 -2.5014 0.8915
26.6030 -10.4761 -2.5014 0.8915
27.6710 -7.1960 -2.5014 0.8915
28.5890 -0.3708 -2.5014 0.8915
28.4256 3.0749 -2.5014 0.8915
26.1539 6.0818 -2.3492 0.8978
23.9965 12.1872 -2.3547 0.8976
12.8354 8.6061 -1.3520 0.9398
10.0049 8.6235 -1.1556 0.9483
2.2677 8.6711 -0.7841 0.9647
1.1793 8.6778 -0.7662 0.9654
-0.9280 8.6907 -0.7647 0.9655
-7.5047 8.7312 -1.0073 0.9548
-9.5748 8.7439 -1.1344 0.9493
-12.2883 8.7606 -1.3203 0.9412
-15.6546 8.5241 -1.5595 0.9309
-26.0125 6.8412 -2.3532 0.8976
-22.2291 3.0521 -1.9630 0.9138
-26.8484 0.4222 -2.3492 0.8978
-27.8661 -6.3992 -2.5014 0.8915
-25.5277 -12.8766 -2.5014 0.8915
-18.1345 -19.8030 -2.3492 0.8978
-14.3935 -20.1309 -2.1651 0.9054
-10.5590 -19.3284 -1.9269 0.9154
-2.8987 -20.8984 -1.8459 0.9188
2.7775 -26.7077 -2.3492 0.8978
15.8244 -23.8129 -2.5014 0.8915
23.2350 -16.6614 -2.5014 0.8915
25.0725 -13.7419 -2.5014 0.8915
26.5450 -10.6224 -2.5014 0.8915
27.6310 -7.3482 -2.5014 0.8915
25.2813 9.0482 -2.3492 0.8978
10.1163 8.6229 -1.1630 0.9480
7.9524 8.6362 -1.0271 0.9540
6.2118 8.6375 -0.9308 0.9582
4.7112 8.5678 -0.8554 0.9615
1.2280 8.6775 -0.7667 0.9654
0.1724 8.6840 -0.7599 0.9657
-1.9539 8.6728 -0.7778 0.9649
-3.0718 8.6203 -0.8006 0.9639
-4.2811 8.5751 -0.8385 0.9622
-5.7604 8.7204 -0.9144 0.9589
-12.1450 8.7597 -1.3101 0.9416
-15.4733 8.5362 -1.5461 0.9315
-25.9790 6.9855 -2.3536 0.8976
-22.2783 3.1839 -1.9689 0.9136
-26.8457 0.5700 -2.3492 0.8978
-28.3993 -2.8350 -2.4970 0.8917
-26.9457 -9.5603 -2.5014 0.8915
-25.5982 -12.7358 -2.5014 0.8915
-23.8781 -15.7260 -2.5014 0.8915
-21.8104 -18.4872 -2.5014 0.8915
-18.2433 -19.7028 -2.3492 0.8978
-10.7080 -19.3472 -1.9346 0.9150
-6.1231 -15.1201 -1.4272 0.9366
-5.4141 -20.0249 -1.8149 0.9201
-3.0077 -20.8406 -1.8422 0.9189
-0.5234 -23.1492 -2.0258 0.9112
2.6305 -26.7226 -2.3492 0.8978
6.2072 -27.9095 -2.5014 0.8915
9.5232 -26.9588 -2.5014 0.8915
15.6931 -23.8997 -2.5014 0.8915
18.4571 -21.8358 -2.5014 0.8915
20.9525 -19.4541 -2.5014 0.8915
27.5901 -7.5002 -2.5014 0.8915
26.2193 5.7935 -2.3492 0.8978
25.3308 8.9089 -2.3492 0.8978
24.1189 11.9171 -2.3537 0.8976
13.8711 9.0808 -1.4505 0.9356
8.0402 8.6356 -1.0323 0.9537
3.4788 8.5230 -0.8054 0.9637
1.5895 5.8152 -0.5276 0.9761
-9.3810 8.7583 -1.1228 0.9498
-25.9446 7.1296 -2.3540 0.8976
-26.8422 0.7178 -2.3492 0.8978
-27.9349 -6.0919 -2.5014 0.8915
-26.9979 -9.4118 -2.5014 0.8915
-10.8583 -19.3661 -1.9425 0.9147
-7.8919 -19.1837 -1.8148 0.9201
-5.5169 -19.9683 -1.8124 0.9202
-3.1163 -20.7830 -1.8386 0.9191
2.4833 -26.7367 -2.3492 0.8978
6.0535 -27.9432 -2.5014 0.8915
-18.7000 4.0469 -2.3492 0.9258
-20.1466 -3.0253 -2.5014 0.9212
-19.6356 -5.4295 -2.5014 0.9212
-18.8388 -7.7547 -2.5014 0.9212
-17.7678 -9.9671 -2.5014 0.9212
-14.8692 -13.9264 -2.5014 0.9212
-8.4245 -17.1783 -2.3492 0.9258
2.8974 -19.4776 -2.4179 0.9237
5.4025 -19.6431 -2.5014 0.9212
12.0117 -16.4547 -2.5014 0.9212
13.9060 -14.8883 -2.5014 0.9212
15.5978 -13.1052 -2.5014 0.9212
17.0625 -11.1314 -2.5014 0.9212
18.2789 -8.9955 -2.5014 0.9212
19.8996 -4.3639 -2.5014 0.9212
20.3658 0.5209 -2.5014 0.9212
8.6146 2.3566 -1.0966 0.9646
8.4221 3.4398 -1.1170 0.9640
2.9744 8.4628 -1.1014 0.9645
-0.2102 8.6863 -1.0669 0.9656
-1.2686 8.6928 -1.0787 0.9652
-2.3497 8.6364 -1.0990 0.9646
-3.4872 8.5721 -1.1363 0.9634
-6.3316 8.7239 -1.3236 0.9575
-10.3546 8.7487 -1.6644 0.9468
-18.6775 4.1498 -2.3492 0.9258
-19.0413 1.8703 -2.3492 0.9258
-20.3672 -0.4648 -2.5014 0.9212
-19.6652 -5.3213 -2.5014 0.9212
-18.8813 -7.6509 -2.5014 0.9212
-16.5041 -11.9437 -2.5014 0.9212
-14.9456 -13.8444 -2.5014 0.9212
-13.1695 -15.5435 -2.5014 0.9212
0.4102 -19.1285 -2.3492 0.9258
5.2942 -19.6725 -2.5014 0.9212
9.8446 -17.8360 -2.5014 0.9212
13.8238 -14.9647 -2.5014 0.9212
15.5254 -13.1909 -2.5014 0.9212
18.2291 -9.0960 -2.5014 0.9212
19.1919 -6.8345 -2.5014 0.9212
20.1709 2.8588 -2.5014 0.9212
8.6485 2.3147 -1.0993 0.9646
8.4048 3.3788 -1.1123 0.9642
16.7635 9.2225 -2.3492 0.9258
11.9689 8.6115 -1.8104 0.9423
7.3612 8.6398 -1.3937 0.9553
5.6658 8.5555 -1.2600 0.9595
3.0276 8.4648 -1.1038 0.9644
-1.2198 8.6925 -1.0778 0.9652
-4.6621 8.5019 -1.1905 0.9617
-8.0240 8.7344 -1.4563 0.9533
-13.1418 8.7292 -1.9371 0.9384
-17.0964 8.5897 -2.3492 0.9258
-20.3694 -0.3526 -2.5014 0.9212
-20.1787 -2.8032 -2.5014 0.9212
-17.8765 -9.7708 -2.5014 0.9212
-16.5696 -11.8526 -2.5014 0.9212
-10.6080 -15.9229 -2.3492 0.9258
-6.4930 -17.9975 -2.3492 0.9258
-1.6856 -16.0269 -1.9787 0.9371
0.3049 -19.1304 -2.3492 0.9258
2.6151 -19.0167 -2.3569 0.9256
7.5208 -18.9334 -2.5014 0.9212
13.7412 -15.0405 -2.5014 0.9212
15.4525 -13.2762 -2.5014 0.9212
19.1540 -6.9400 -2.5014 0.9212
19.8503 -4.5828 -2.5014 0.9212
8.7559 2.2919 -1.1113 0.9642
8.3883 3.3187 -1.1076 0.9643
12.1077 8.6106 -1.8242 0.9419
9.4687 8.6268 -1.5728 0.9497
5.7353 8.5577 -1.2649 0.9593
3.0810 8.4668 -1.1063 0.9643
2.0148 8.6726 -1.0932 0.9648
-0.1145 8.6857 -1.0666 0.9656
-1.1709 8.6922 -1.0769 0.9653
-2.2493 8.6419 -1.0964 0.9647
-3.3802 8.5783 -1.1321 0.9635
-6.1855 8.7230 -1.3130 0.9578
-7.9353 8.7338 -1.4489 0.9536
-10.1246 8.7473 -1.6428 0.9475
-13.0397 8.7652 -1.9292 0.9386
-18.6306 4.3552 -2.3492 0.9258
-20.3710 -0.2405 -2.5014 0.9212
-20.1938 -2.6921 -2.5014 0.9212
-19.7226 -5.1045 -2.5014 0.9212
-18.9643 -7.4425 -2.5014 0.9212
-16.6346 -11.7612 -2.5014 0.9212
-6.5920 -17.9615 -2.3492 0.9258
-4.3809 -18.6246 -2.3492 0.9258
2.5022 -18.9686 -2.3492 0.9258
5.0773 -19.7296 -2.5014 0.9212
7.4164 -18.9746 -2.5014 0.9212
11.7383 -16.6508 -2.5014 0.9212
13.6582 -15.1160 -2.5014 0.9212
18.1279 -9.2962 -2.5014 0.9212
19.1155 -7.0453 -2.5014 0.9212
8.8965 2.2764 -1.1275 0.9637
9.5734 8.6262 -1.5823 0.9494
7.5261 8.6388 -1.4068 0.9549
5.8053 8.5599 -1.2699 0.9592
4.3805 8.5133 -1.1756 0.9622
2.0651 8.6723 -1.0946 0.9647
-0.0667 8.6854 -1.0665 0.9656
-0.7600 5.8861 -0.7287 0.9764
-10.0119 8.7466 -1.6323 0.9478
-16.9990 8.7765 -2.3490 0.9258
-18.6064 4.4577 -2.3492 0.9258
-19.0078 2.1845 -2.3492 0.9258
-20.3721 -0.1283 -2.5014 0.9212
-20.2083 -2.5809 -2.5014 0.9212
-19.7504 -4.9958 -2.5014 0.9212
-19.0050 -7.3380 -2.5014 0.9212
-17.9830 -9.5734 -2.5014 0.9212
-13.4245 -15.3239 -2.5014 0.9212
-4.4833 -18.6002 -2.3492 0.9258
-1.8641 -16.0252 -1.9809 0.9371
0.0942 -19.1327 -2.3492 0.9258
2.3977 -18.9821 -2.3492 0.9258
11.6465 -16.7152 -2.5014 0.9212
15.3054 -13.4455 -2.5014 0.9212
18.0764 -9.3959 -2.5014 0.9212
19.0764 -7.1505 -2.5014 0.9212
19.7987 -4.8011 -2.5014 0.9212
20.3723 0.0723 -2.5014 0.9212
20.2154 2.5252 -2.5014 0.9212
7.6097 8.6383 -1.4135 0.9547
4.4411 8.5154 -1.1792 0.9620
3.1885 8.4709 -1.1113 0.9642
2.1156 8.6720 -1.0960 0.9647
1.0338 8.6787 -1.0731 0.9654
-4.4867 8.5126 -1.1815 0.9620
-7.7605 8.7327 -1.4345 0.9540
-9.9005 8.7459 -1.6220 0.9482
-17.8971 6.7647 -2.3492 0.9258
-18.9955 2.2892 -2.3492 0.9258
-19.7776 -4.8869 -2.5014 0.9212
-19.0452 -7.2332 -2.5014 0.9212
-18.0355 -9.4742 -2.5014 0.9212
-13.5086 -15.2497 -2.5014 0.9212
-10.8696 -15.7455 -2.3492 0.9258
-4.5857 -18.5752 -2.3492 0.9258
9.4494 -18.0485 -2.5014 0.9212
11.5542 -16.7790 -2.5014 0.9212
15.2311 -13.5296 -2.5014 0.9212
16.7497 -11.5968 -2.5014 0.9212
18.0244 -9.4952 -2.5014 0.9212
19.0367 -7.2555 -2.5014 0.9212
19.7719 -4.9100 -2.5014 0.9212
20.3724 -0.0399 -2.5014 0.9212
8.3681 3.1518 -1.0979 0.9646
16.9625 8.8511 -2.3492 0.9258
9.7865 8.6249 -1.6017 0.9488
5.9470 8.5643 -1.2802 0.9589
4.5020 8.5175 -1.1829 0.9619
3.2426 8.4729 -1.1139 0.9641
2.1661 8.6717 -1.0975 0.9646
0.0290 8.6849 -1.0664 0.9656
-2.0995 8.6501 -1.0929 0.9648
-5.9706 8.7217 -1.2978 0.9583
-7.6744 8.7322 -1.4274 0.9542
-9.7906 8.7452 -1.6119 0.9485
-12.5816 8.7624 -1.8826 0.9401
-16.9068 8.9660 -2.3497 0.9258
-17.8596 6.8632 -2.3492 0.9258
-20.3723 0.0960 -2.5014 0.9212
-20.2355 -2.3581 -2.5014 0.9212
-15.3210 -13.4278 -2.5014 0.9212
-13.5924 -15.1751 -2.5014 0.9212
-6.8877 -17.8502 -2.3492 0.9258
-4.6879 -18.5497 -2.3492 0.9258
2.1885 -19.0073 -2.3492 0.9258
11.4617 -16.8424 -2.5014 0.9212
16.6856 -11.6889 -2.5014 0.9212
17.9718 -9.5943 -2.5014 0.9212
18.9965 -7.3601 -2.5014 0.9212
19.7446 -5.0188 -2.5014 0.9212
20.3719 -0.1521 -2.5014 0.9212
20.2419 2.3024 -2.5014 0.9212
9.3783 2.2353 -1.1838 0.9619
8.3711 3.1004 -1.0961 0.9647
17.0109 8.7576 -2.3492 0.9258
12.6852 8.6071 -1.8822 0.9401
9.8950 8.6242 -1.6117 0.9485
7.7793 8.6372 -1.4273 0.9542
4.5633 8.5196 -1.1867 0.9618
3.2970 8.4749 -1.1166 0.9640
2.2169 8.6714 -1.0990 0.9646
1.1307 8.6781 -1.0745 0.9653
0.0768 8.6846 -1.0664 0.9656
-3.1682 8.5905 -1.1242 0.9638
-4.3712 8.5196 -1.1757 0.9621
-5.9000 8.7213 -1.2929 0.9585
-7.5892 8.7317 -1.4205 0.9544
-16.8592 9.0601 -2.3500 0.9258
-17.8215 6.9614 -2.3492 0.9258
-18.5302 4.7645 -2.3492 0.9258
-18.9691 2.4982 -2.3492 0.9258
-20.2482 -2.2467 -2.5014 0.9212
-19.8303 -4.6689 -2.5014 0.9212
-19.1237 -7.0230 -2.5014 0.9212
-15.3947 -13.3432 -2.5014 0.9212
-13.6757 -15.1001 -2.5014 0.9212
-11.0423 -15.6248 -2.3492 0.9258
-5.9691 -15.2195 -2.0073 0.9362
-2.5243 -18.9657 -2.3492 0.9258
-0.2218 -19.1316 -2.3492 0.9258
4.6416 -19.8367 -2.5014 0.9212
9.2501 -18.1514 -2.5014 0.9212
11.3687 -16.9053 -2.5014 0.9212
15.0812 -13.6965 -2.5014 0.9212
16.6210 -11.7805 -2.5014 0.9212
17.9187 -9.6931 -2.5014 0.9212
9.5570 2.2224 -1.2048 0.9612
8.3740 3.0492 -1.0942 0.9647
10.0049 8.6235 -1.6218 0.9482
7.8654 8.6367 -1.4343 0.9540
4.6249 8.5216 -1.1905 0.9617
3.3516 8.4769 -1.1192 0.9639
1.1793 8.6778 -1.0753 0.9653
0.1246 8.6843 -1.0664 0.9656
-0.9280 8.6907 -1.0732 0.9654
-5.8299 8.7209 -1.2880 0.9586
-7.5047 8.7312 -1.4136 0.9547
-12.2883 8.7606 -1.8530 0.9410
-18.5037 4.8664 -2.3492 0.9258
-18.9551 2.6026 -2.3492 0.9258
-20.3700 0.3203 -2.5014 0.9212
-18.1895 -9.1751 -2.5014 0.9212
-16.9521 -11.2988 -2.5014 0.9212
-13.7586 -15.0246 -2.5014 0.9212
-11.1915 -15.6525 -2.3626 0.9254
-9.1727 -16.7907 -2.3492 0.9258
1.9791 -19.0303 -2.3492 0.9258
4.5323 -19.8619 -2.5014 0.9212
6.8913 -19.1715 -2.5014 0.9212
11.2755 -16.9676 -2.5014 0.9212
13.2369 -15.4862 -2.5014 0.9212
15.0056 -13.7793 -2.5014 0.9212
16.5559 -11.8719 -2.5014 0.9212
18.9143 -7.5688 -2.5014 0.9212
19.6882 -5.2359 -2.5014 0.9212
20.1754 -2.8267 -2.5014 0.9212
20.3690 -0.3764 -2.5014 0.9212
9.7465 2.2100 -1.2271 0.9605
8.3768 2.9981 -1.0924 0.9648
7.9524 8.6362 -1.4415 0.9538
6.1916 8.6094 -1.3021 0.9582
2.3187 8.6708 -1.1020 0.9645
0.1724 8.6840 -1.0665 0.9656
-0.8796 8.6904 -1.0725 0.9654
-1.9506 8.6581 -1.0897 0.9649
-5.7605 8.7204 -1.2833 0.9588
-7.4210 8.7306 -1.4069 0.9549
-9.4688 8.7432 -1.5825 0.9494
-15.9189 8.7820 -2.2323 0.9294
-17.7438 7.1572 -2.3492 0.9258
-20.3679 0.4325 -2.5014 0.9212
-20.2717 -2.0236 -2.5014 0.9212
-19.8805 -4.4502 -2.5014 0.9212
-19.1998 -6.8120 -2.5014 0.9212
-17.0140 -11.2054 -2.5014 0.9212
-13.8412 -14.9485 -2.5014 0.9212
-11.3554 -15.6981 -2.3789 0.9249
-6.0873 -15.0319 -1.9913 0.9367
-4.9936 -18.4697 -2.3492 0.9258
1.8743 -19.0409 -2.3492 0.9258
6.7857 -19.2092 -2.5014 0.9212
9.0497 -18.2522 -2.5014 0.9212
11.1819 -17.0295 -2.5014 0.9212
13.1514 -15.5589 -2.5014 0.9212
16.4902 -11.9629 -2.5014 0.9212
18.8723 -7.6729 -2.5014 0.9212
19.6590 -5.3442 -2.5014 0.9212
20.1596 -2.9377 -2.5014 0.9212
20.3666 -0.4885 -2.5014 0.9212
20.2772 1.9678 -2.5014 0.9212
17.1533 8.4754 -2.3492 0.9258
10.2290 8.6222 -1.6426 0.9475
6.2751 8.6249 -1.3096 0.9579
4.7495 8.5258 -1.1983 0.9614
3.4617 8.4809 -1.1247 0.9638
1.2767 8.6772 -1.0769 0.9653
0.2202 8.6837 -1.0666 0.9656
-1.9012 8.6607 -1.0887 0.9649
-4.2000 8.5299 -1.1674 0.9624
-5.6915 8.7200 -1.2786 0.9589
-12.0039 8.7588 -1.8245 0.9419
-18.9253 2.8111 -2.3492 0.9258
-20.3652 0.5446 -2.5014 0.9212
-18.2894 -8.9742 -2.5014 0.9212
-13.9233 -14.8721 -2.5014 0.9212
-11.5213 -15.7443 -2.3955 0.9244
-9.3571 -16.6887 -2.3492 0.9258
-5.0952 -18.4420 -2.3492 0.9258
1.7695 -19.0509 -2.3492 0.9258
4.3133 -19.9106 -2.5014 0.9212
6.6798 -19.2463 -2.5014 0.9212
-14.4968 3.1373 -2.3492 0.9417
-15.7260 1.4573 -2.5014 0.9380
-15.6183 -2.3453 -2.5014 0.9380
-15.2221 -4.2091 -2.5014 0.9380
-14.6044 -6.0117 -2.5014 0.9380
-13.7741 -7.7268 -2.5014 0.9380
-12.7433 -9.3294 -2.5014 0.9380
-11.5270 -10.7962 -2.5014 0.9380
-8.6112 -13.2393 -2.5014 0.9380
-3.2421 -14.8818 -2.4123 0.9402
-1.4569 -15.4903 -2.4643 0.9389
2.3238 -15.6215 -2.5014 0.9380
4.1882 -15.2279 -2.5014 0.9380
9.3118 -12.7562 -2.5014 0.9380
10.7803 -11.5419 -2.5014 0.9380
12.0919 -10.1596 -2.5014 0.9380
15.7882 0.4038 -2.5014 0.9380
15.6247 2.3023 -2.5014 0.9380
9.2631 8.6281 -2.0050 0.9500
5.5565 8.4916 -1.6073 0.9597
2.9177 8.3016 -1.3937 0.9650
1.9145 8.6733 -1.4068 0.9647
-1.2686 8.6928 -1.3914 0.9650
-2.3299 8.5634 -1.4056 0.9647
-3.4568 8.4972 -1.4529 0.9635
-4.6451 8.3613 -1.5149 0.9620
-6.3316 8.7239 -1.7073 0.9573
-10.3546 8.7487 -2.1470 0.9466
-12.4002 8.1385 -2.3492 0.9417
-14.4793 3.2171 -2.3492 0.9417
-15.6309 -2.2592 -2.5014 0.9380
-12.7945 -9.2591 -2.5014 0.9380
-10.2094 -12.0498 -2.5014 0.9380
-8.6839 -13.1916 -2.5014 0.9380
-5.1751 -14.5957 -2.4527 0.9392
-3.3233 -14.8609 -2.4119 0.9402
2.2377 -15.6340 -2.5014 0.9380
4.1043 -15.2507 -2.5014 0.9380
5.9111 -14.6454 -2.5014 0.9380
7.6318 -13.8270 -2.5014 0.9380
9.2415 -12.8072 -2.5014 0.9380
13.1797 -8.7021 -2.5014 0.9380
15.4079 -3.4679 -2.5014 0.9380
15.7902 0.3169 -2.5014 0.9380
7.6376 3.0704 -1.3038 0.9672
12.9955 7.1496 -2.3492 0.9417
12.0399 8.6626 -2.3492 0.9417
7.3612 8.6398 -1.7977 0.9551
5.6329 8.5058 -1.6158 0.9595
4.2204 8.4289 -1.4930 0.9625
-0.1624 8.6860 -1.3760 0.9654
-1.2198 8.6925 -1.3903 0.9651
-3.4037 8.5004 -1.4502 0.9636
-8.0240 8.7344 -1.8785 0.9531
-10.2389 8.7480 -2.1330 0.9469
-13.2536 6.6590 -2.3492 0.9417
-13.9591 5.0144 -2.3492 0.9417
-14.4614 3.2967 -2.3492 0.9417
-15.7910 -0.2734 -2.5014 0.9380
-15.6431 -2.1732 -2.5014 0.9380
-13.8584 -7.5747 -2.5014 0.9380
-12.8453 -9.1885 -2.5014 0.9380
-11.6452 -10.6686 -2.5014 0.9380
-10.2756 -11.9934 -2.5014 0.9380
-7.1098 -14.1025 -2.5014 0.9380
-5.2643 -14.5917 -2.4569 0.9391
-3.4045 -14.8399 -2.4115 0.9402
0.2516 -15.7913 -2.5014 0.9380
2.1516 -15.6461 -2.5014 0.9380
5.8303 -14.6778 -2.5014 0.9380
9.1708 -12.8579 -2.5014 0.9380
10.6526 -11.6599 -2.5014 0.9380
11.9792 -10.2921 -2.5014 0.9380
14.0927 -7.1292 -2.5014 0.9380
14.8487 -5.3801 -2.5014 0.9380
15.3886 -3.5527 -2.5014 0.9380
15.7044 -1.6736 -2.5014 0.9380
15.7917 0.2299 -2.5014 0.9380
15.6491 2.1301 -2.5014 0.9380
8.2866 2.1691 -1.3567 0.9659
12.0874 8.5962 -2.3492 0.9417
7.4433 8.6393 -1.8061 0.9549
4.2795 8.4307 -1.4975 0.9624
-1.1709 8.6922 -1.3892 0.9651
-2.2304 8.5690 -1.4024 0.9648
-3.3507 8.5036 -1.4476 0.9637
-4.5416 8.3913 -1.5112 0.9621
-10.1246 8.7473 -2.1192 0.9473
-12.3098 8.2745 -2.3492 0.9417
-13.9313 5.0911 -2.3492 0.9417
-15.6549 -2.0870 -2.5014 0.9380
-15.2896 -3.9572 -2.5014 0.9380
-14.7017 -5.7697 -2.5014 0.9380
-13.8999 -7.4983 -2.5014 0.9380
-10.3415 -11.9367 -2.5014 0.9380
-7.1873 -14.0632 -2.5014 0.9380
-5.3538 -14.5878 -2.4612 0.9390
-3.4860 -14.8201 -2.4113 0.9402
-1.7037 -15.3837 -2.4514 0.9392
2.0655 -15.6577 -2.5014 0.9380
3.9361 -15.2950 -2.5014 0.9380
9.0999 -12.9082 -2.5014 0.9380
10.5882 -11.7183 -2.5014 0.9380
13.0831 -8.8467 -2.5014 0.9380
14.8189 -5.4618 -2.5014 0.9380
15.6950 -1.7600 -2.5014 0.9380
15.7927 0.1430 -2.5014 0.9380
8.4174 2.1538 -1.3761 0.9654
7.6398 2.9740 -1.2985 0.9673
12.1346 8.5295 -2.3492 0.9417
9.5734 8.6262 -2.0410 0.9492
7.5261 8.6388 -1.8147 0.9547
5.7882 8.5346 -1.6333 0.9591
4.3390 8.4325 -1.5020 0.9623
2.0651 8.6723 -1.4120 0.9645
0.9853 8.6790 -1.3834 0.9652
-0.0667 8.6854 -1.3757 0.9654
-0.7598 5.8848 -0.9398 0.9763
-4.4900 8.4063 -1.5094 0.9621
-10.0119 8.7466 -2.1056 0.9476
-13.1795 6.8045 -2.3492 0.9417
-15.7930 -0.0995 -2.5014 0.9380
-11.7620 -10.5397 -2.5014 0.9380
-10.4071 -11.8795 -2.5014 0.9380
-8.9006 -13.0464 -2.5014 0.9380
-7.2646 -14.0234 -2.5014 0.9380
-5.4436 -14.5837 -2.4655 0.9389
0.0778 -15.7932 -2.5014 0.9380
3.8518 -15.3165 -2.5014 0.9380
9.0287 -12.9581 -2.5014 0.9380
11.8652 -10.4234 -2.5014 0.9380
14.7886 -5.5433 -2.5014 0.9380
15.6851 -1.8464 -2.5014 0.9380
15.6716 1.9576 -2.5014 0.9380
8.5486 2.1373 -1.3956 0.9649
7.6436 2.9271 -1.2964 0.9674
13.1118 6.9340 -2.3492 0.9417
9.6793 8.6255 -2.0534 0.9488
7.6097 8.6383 -1.8233 0.9544
3.1430 8.3500 -1.4131 0.9645
-0.7264 5.8813 -0.9386 0.9763
-2.1317 8.5765 -1.3997 0.9648
-4.4385 8.4211 -1.5077 0.9622
-7.7605 8.7327 -1.8504 0.9538
-12.2180 8.4096 -2.3492 0.9417
-15.6799 1.8896 -2.5014 0.9380
-14.7644 -5.6074 -2.5014 0.9380
-12.9953 -8.9751 -2.5014 0.9380
-11.8198 -10.4748 -2.5014 0.9380
-10.4723 -11.8221 -2.5014 0.9380
-8.9723 -12.9972 -2.5014 0.9380
-7.3418 -13.9832 -2.5014 0.9380
-1.8668 -15.3136 -2.4434 0.9394
-0.0092 -15.7902 -2.5009 0.9381
3.7674 -15.3374 -2.5014 0.9380
7.3254 -13.9917 -2.5014 0.9380
8.9572 -13.0076 -2.5014 0.9380
13.9730 -7.3610 -2.5014 0.9380
15.3278 -3.8064 -2.5014 0.9380
8.6706 2.1172 -1.4136 0.9645
13.1498 6.8616 -2.3492 0.9417
12.2278 8.3953 -2.3492 0.9417
5.9468 8.5640 -1.6514 0.9587
1.0822 8.6784 -1.3852 0.9652
0.0290 8.6849 -1.3756 0.9654
-0.6952 5.8950 -0.9401 0.9762
-3.1931 8.5131 -1.4401 0.9638
-4.3872 8.4359 -1.5060 0.9622
-7.6744 8.7322 -1.8413 0.9540
-12.1715 8.4767 -2.3492 0.9417
-13.8453 5.3205 -2.3492 0.9417
-15.6693 1.9759 -2.5014 0.9380
-15.7932 0.0744 -2.5014 0.9380
-14.7950 -5.5261 -2.5014 0.9380
-11.8773 -10.4096 -2.5014 0.9380
-9.0438 -12.9476 -2.5014 0.9380
-7.4186 -13.9425 -2.5014 0.9380
-5.6242 -14.5756 -2.4745 0.9387
-0.0961 -15.7856 -2.5002 0.9381
1.8065 -15.6897 -2.5014 0.9380
5.5057 -14.8026 -2.5014 0.9380
10.3932 -11.8916 -2.5014 0.9380
12.9352 -9.0616 -2.5014 0.9380
13.9323 -7.4378 -2.5014 0.9380
14.7266 -5.7058 -2.5014 0.9380
15.7929 -0.1179 -2.5014 0.9380
13.1874 6.7892 -2.3492 0.9417
12.2738 8.3280 -2.3492 0.9417
6.0275 8.5790 -1.6606 0.9584
4.5196 8.4379 -1.5161 0.9620
2.2169 8.6714 -1.4176 0.9644
0.0768 8.6846 -1.3756 0.9654
-0.9765 8.6910 -1.3852 0.9652
-2.0359 8.5943 -1.3989 0.9649
-3.1408 8.5162 -1.4376 0.9639
-7.5892 8.7317 -1.8323 0.9542
-13.0653 7.0212 -2.3492 0.9417
-15.6970 -1.7417 -2.5014 0.9380
-15.3730 -3.6195 -2.5014 0.9380
-11.9344 -10.3441 -2.5014 0.9380
-2.0299 -15.2511 -2.4368 0.9396
1.7201 -15.6994 -2.5014 0.9380
5.4241 -14.8327 -2.5014 0.9380
8.8134 -13.1055 -2.5014 0.9380
10.3276 -11.9487 -2.5014 0.9380
11.6914 -10.6179 -2.5014 0.9380
12.8851 -9.1326 -2.5014 0.9380
14.6950 -5.7868 -2.5014 0.9380
15.7018 1.6985 -2.5014 0.9380
8.9978 2.0923 -1.4631 0.9633
7.6724 2.7937 -1.2932 0.9675
12.3195 8.2602 -2.3492 0.9417
10.0049 8.6235 -2.0920 0.9479
3.3160 8.3868 -1.4284 0.9641
2.2677 8.6711 -1.4196 0.9644
0.1246 8.6843 -1.3756 0.9654
-0.9280 8.6907 -1.3843 0.9652
-3.0888 8.5193 -1.4353 0.9640
-4.2750 8.4462 -1.4993 0.9624
-7.5047 8.7312 -1.8235 0.9544
-9.5748 8.7439 -2.0537 0.9488
-12.0774 8.6102 -2.3492 0.9417
-13.7859 5.4726 -2.3492 0.9417
-15.6466 2.1483 -2.5014 0.9380
-15.7064 -1.6553 -2.5014 0.9380
-14.8550 -5.3628 -2.5014 0.9380
-13.1418 -8.7592 -2.5014 0.9380
-11.9913 -10.2782 -2.5014 0.9380
-9.1858 -12.8473 -2.5014 0.9380
-7.5717 -13.8600 -2.5014 0.9380
-2.1113 -15.2219 -2.4340 0.9397
