ply
format ascii 1.0
element vertex 1546
property float32 x
property float32 y
property float32 z
property float32 I
end_header
60.4814 19.5579 1.1095 0.7755
43.5682 20.1620 0.8380 0.8253
13.8985 8.5996 0.2853 0.9367
8.4437 8.6145 0.2106 0.9529
5.0943 8.6143 0.1747 0.9608
0.4463 8.6751 0.1516 0.9658
-0.6013 8.6676 0.1517 0.9658
-1.6637 8.6542 0.1538 0.9654
-4.0076 8.7097 0.1673 0.9624
-5.3681 8.7180 0.1787 0.9599
-8.8778 8.7396 0.2174 0.9514
-14.7277 8.7528 0.2990 0.9338
-64.4232 -29.4744 1.2366 0.7532
-20.0047 -33.4945 0.6810 0.8555
-10.5855 8.7501 -0.2397 0.9465
-18.0229 8.6934 -0.3493 0.9231
-72.5773 -30.2768 -1.3726 0.7301
-61.5216 -34.8891 -1.2345 0.7536
-21.6919 -26.1265 -0.5927 0.8730
-13.4291 -20.8473 -0.4329 0.9056
-3.0168 -33.5765 -0.5884 0.8738
0.6962 -22.4112 -0.3914 0.9142
30.0348 -53.2305 -1.0678 0.7831
36.6796 -38.9773 -0.9342 0.8073
37.5755 -24.3204 -0.7813 0.8361
71.8994 -24.8770 -1.3281 0.7376
61.0826 -13.1753 -1.0907 0.7788
52.6483 7.9328 -0.9293 0.8082
11.7581 8.6128 -0.2544 0.9434
9.2089 8.6284 -0.2203 0.9508
4.2463 8.6589 -0.1683 0.9622
3.0197 8.6665 -0.1602 0.9640
0.8179 8.6800 -0.1522 0.9657
-6.3613 8.7241 -0.1885 0.9577
-8.1490 8.7351 -0.2085 0.9533
-17.6654 8.7107 -0.3438 0.9242
-53.8121 11.8517 -0.9618 0.8022
-54.0586 5.2121 -0.9480 0.8047
-86.4792 -2.1231 -1.5099 0.7075
-72.4198 -10.5906 -1.2775 0.7462
-72.4682 -29.4954 -1.3657 0.7312
-62.1921 -34.5595 -1.2419 0.7523
-57.7243 -53.6173 -1.3752 0.7297
-9.9439 -20.0565 -0.3907 0.9143
-2.0544 -20.8342 -0.3654 0.9197
0.4932 -22.0388 -0.3848 0.9156
25.0783 -92.8854 -1.6794 0.6805
35.3434 -87.3789 -1.6452 0.6859
29.8887 -54.0628 -1.0783 0.7810
35.0629 -29.7601 -0.8028 0.8319
36.8633 -24.3160 -0.7708 0.8381
48.9269 -24.3901 -0.9542 0.8036
61.3013 -13.7804 -1.0967 0.7777
52.0181 7.3766 -0.9171 0.8104
31.7192 8.4901 -0.5731 0.8769
16.1013 8.8560 -0.3208 0.9291
11.9729 8.6114 -0.2574 0.9427
7.3278 8.5956 -0.1972 0.9558
4.3397 8.6583 -0.1691 0.9620
0.8939 8.6795 -0.1523 0.9657
-1.2077 8.6511 -0.1525 0.9657
-2.2859 8.6151 -0.1556 0.9650
-4.7685 8.7143 -0.1734 0.9610
-6.2456 8.7234 -0.1873 0.9580
-8.0075 8.7342 -0.2068 0.9537
-86.4745 -1.3721 -1.5096 0.7075
-86.5407 -11.8893 -1.5248 0.7051
-54.6695 -14.3791 -0.9867 0.7976
-62.8143 -34.1950 -1.2484 0.7512
-60.2882 -42.9660 -1.2922 0.7437
-14.1043 -21.0824 -0.4427 0.9035
-3.6050 -33.5729 -0.5894 0.8736
31.7963 -80.6155 -1.5126 0.7070
30.8684 -56.9979 -1.1314 0.7716
35.4280 -38.9815 -0.9194 0.8100
36.1698 -24.3117 -0.7607 0.8400
47.8687 -24.3836 -0.9377 0.8066
50.3483 -18.4050 -0.9357 0.8070
32.8320 8.4833 -0.5919 0.8731
46.0248 18.0378 -0.8629 0.8206
16.1946 8.7252 -0.3211 0.9290
9.5332 8.6264 -0.2244 0.9499
5.7824 8.5626 -0.1803 0.9595
4.4338 8.6578 -0.1698 0.9618
1.3939 5.9008 -0.1058 0.9760
0.9701 8.6791 -0.1524 0.9657
-0.0810 8.6503 -0.1510 0.9660
-1.1311 8.6506 -0.1523 0.9657
-2.2060 8.6147 -0.1552 0.9650
-4.6703 8.7137 -0.1726 0.9612
-7.8683 8.7334 -0.2052 0.9541
-10.0374 8.7467 -0.2324 0.9481
-20.8977 2.3816 -0.3671 0.9193
-70.2450 -49.1482 -1.4964 0.7097
-57.0323 -51.1593 -1.3373 0.7360
-14.6470 -21.4877 -0.4539 0.9012
-7.3424 -19.6874 -0.3668 0.9194
-4.7016 -19.5242 -0.3505 0.9228
32.3225 -84.0803 -1.5723 0.6974
35.0564 -30.8173 -0.8147 0.8297
35.4942 -24.3076 -0.7509 0.8419
52.4786 -19.7018 -0.9784 0.7991
34.0201 8.4759 -0.6120 0.8691
16.2603 8.5793 -0.3209 0.9291
12.3681 8.5739 -0.2627 0.9416
5.8949 8.5678 -0.1815 0.9592
4.5097 8.6207 -0.1698 0.9618
2.1282 8.6720 -0.1559 0.9649
1.0463 8.6786 -0.1526 0.9656
-2.1263 8.6142 -0.1549 0.9651
-4.5731 8.7131 -0.1718 0.9614
-6.0183 8.7220 -0.1850 0.9585
-7.7313 8.7325 -0.2036 0.9544
-16.6079 8.7340 -0.3275 0.9277
-86.3313 21.3851 -1.5524 0.7006
-18.7688 2.3042 -0.3301 0.9271
-86.4651 0.1292 -1.5092 0.7076
-72.4594 -8.6761 -1.2738 0.7468
-72.1849 -27.2117 -1.3465 0.7345
-61.9824 -32.3603 -1.2205 0.7560
-60.3191 -41.4282 -1.2773 0.7462
-15.1706 -21.8459 -0.4642 0.8991
-10.6038 -20.0576 -0.3960 0.9132
-4.8890 -19.5552 -0.3518 0.9225
32.7169 -87.3628 -1.6283 0.6885
30.9403 -45.2589 -0.9570 0.8031
35.0953 -24.4846 -0.7469 0.8427
50.4452 -12.7283 -0.9081 0.8121
60.9669 14.6288 -1.0944 0.7782
38.1270 19.6955 -0.7491 0.8422
9.8700 8.6244 -0.2288 0.9489
7.7255 8.5982 -0.2018 0.9548
6.0088 8.5732 -0.1827 0.9590
34.9360 65.3949 -1.2941 0.7433
-0.9786 8.6497 -0.1519 0.9658
-2.0475 8.6154 -0.1546 0.9652
-9.9427 26.9047 -0.5007 0.8916
-5.9068 8.7213 -0.1839 0.9587
-7.5964 8.7317 -0.2020 0.9548
-16.2605 8.7322 -0.3222 0.9288
-22.6049 8.8240 -0.4236 0.9075
-86.3263 22.1808 -1.5558 0.7001
-20.6889 2.7224 -0.3642 0.9199
-86.4603 0.8798 -1.5092 0.7076
-72.2453 -8.0150 -1.2688 0.7477
-37.3823 -8.7984 -0.6703 0.8576
-15.7175 -22.2192 -0.4751 0.8968
-10.7448 -19.9043 -0.3948 0.9135
-5.0573 -19.5069 -0.3517 0.9225
-0.2696 -21.8396 -0.3812 0.9163
30.9353 -46.1054 -0.9691 0.8008
33.6023 -38.9645 -0.8981 0.8140
35.0497 -31.9068 -0.8273 0.8273
44.9024 -24.3654 -0.8917 0.8152
50.3755 -13.1770 -0.9089 0.8120
54.8727 19.8733 -1.0187 0.7918
12.8863 8.6058 -0.2705 0.9399
10.0433 8.6233 -0.2311 0.9484
6.1243 8.5786 -0.1840 0.9587
4.7088 8.6329 -0.1716 0.9614
3.4471 8.6638 -0.1628 0.9634
1.1994 8.6777 -0.1529 0.9656
0.1445 8.6609 -0.1512 0.9659
-0.9026 8.6492 -0.1518 0.9658
-1.9695 8.6191 -0.1543 0.9652
-3.1006 8.6196 -0.1599 0.9640
-5.7965 8.7207 -0.1828 0.9590
-9.5214 8.7435 -0.2256 0.9496
-12.1461 8.7110 -0.2609 0.9420
-22.0295 8.8204 -0.4142 0.9094
-50.2112 13.3670 -0.9070 0.8123
-86.4556 1.6304 -1.5093 0.7076
-72.4522 -25.8852 -1.3429 0.7351
-49.2822 -24.6507 -0.9618 0.8022
-11.1401 -20.2149 -0.4029 0.9118
-7.9444 -19.7176 -0.3711 0.9185
-2.9593 -20.7468 -0.3658 0.9196
43.5391 -87.5192 -1.7062 0.6763
30.9301 -46.9738 -0.9817 0.7985
35.0897 -25.3974 -0.7561 0.8409
43.9770 -24.3597 -0.8775 0.8178
50.4262 -13.6590 -0.9119 0.8114
61.4608 13.6236 -1.0989 0.7774
35.3247 12.4478 -0.6538 0.8608
13.1294 8.6043 -0.2740 0.9391
8.0121 8.6117 -0.2053 0.9540
4.7712 8.5697 -0.1712 0.9615
3.5343 8.6633 -0.1633 0.9633
2.3688 8.6705 -0.1569 0.9647
1.2762 8.6772 -0.1531 0.9655
-0.8267 8.6488 -0.1517 0.9658
-5.6876 8.7200 -0.1817 0.9592
-7.3116 8.7050 -0.1984 0.9555
-11.9380 8.7197 -0.2580 0.9426
-50.0933 13.8023 -0.9070 0.8123
-52.6140 7.8548 -0.9286 0.8083
-62.0479 -30.3653 -1.2058 0.7585
-59.6459 -38.7197 -1.2412 0.7524
-9.3190 -33.5379 -0.6076 0.8700
31.3764 -90.9234 -1.6790 0.6806
30.1707 -46.6980 -0.9704 0.8006
32.4310 -38.9536 -0.8847 0.8165
35.0428 -33.0312 -0.8406 0.8248
35.0869 -25.8624 -0.7608 0.8400
98.2317 8.7452 -1.7214 0.6740
64.6115 13.7345 -1.1530 0.7678
10.4008 8.6211 -0.2358 0.9474
8.1592 8.6185 -0.2072 0.9536
6.3601 8.5896 -0.1866 0.9581
2.4497 8.6700 -0.1573 0.9646
0.2952 8.6680 -0.1514 0.9659
-2.9324 8.6187 -0.1589 0.9642
-4.1929 8.7108 -0.1687 0.9621
-5.5799 8.7193 -0.1807 0.9594
-11.7357 8.7292 -0.2553 0.9432
-15.3644 8.7739 -0.3088 0.9317
-20.9514 8.8138 -0.3967 0.9131
-49.9716 14.2365 -0.9070 0.8123
-52.6110 8.3218 -0.9297 0.8081
-86.4462 3.1321 -1.5099 0.7075
-72.4479 -6.1328 -1.2691 0.7476
-46.5635 -9.6871 -0.8302 0.8267
-72.3816 -24.4517 -1.3336 0.7366
-62.7597 -30.0416 -1.2145 0.7570
-59.5047 -37.8980 -1.2314 0.7541
-17.0155 -22.7725 -0.4962 0.8925
-1.5551 -40.4944 -0.7073 0.8503
42.2117 -24.3489 -0.8506 0.8229
57.4041 -24.4422 -1.0890 0.7791
85.4245 -24.7383 -1.5523 0.7006
89.8266 -14.6084 -1.5885 0.6948
98.2265 7.8860 -1.7201 0.6742
58.7668 19.5685 -1.0811 0.7805
42.6068 20.1679 -0.8228 0.8281
10.5852 8.6200 -0.2383 0.9469
8.3090 8.6256 -0.2091 0.9532
6.4806 8.5952 -0.1879 0.9578
3.7105 8.6622 -0.1645 0.9630
2.5310 8.6695 -0.1576 0.9645
0.3707 8.6715 -0.1515 0.9659
-0.6754 8.6479 -0.1514 0.9659
-2.8490 8.6182 -0.1584 0.9643
-4.0999 8.7102 -0.1680 0.9622
-7.0766 8.7285 -0.1961 0.9560
-9.0343 8.7405 -0.2194 0.9510
-11.5377 8.7385 -0.2526 0.9437
-14.8860 8.6730 -0.3007 0.9334
-20.4457 8.8107 -0.3886 0.9148
-49.8462 14.6698 -0.9070 0.8123
-74.2845 -5.6393 -1.3004 0.7423
-46.2025 -9.1944 -0.8223 0.8282
-72.3601 -23.7467 -1.3293 0.7374
-59.4159 -37.1205 -1.2229 0.7556
-61.2566 -49.4436 -1.3741 0.7298
-8.6123 -19.8668 -0.3780 0.9170
-3.4371 -20.2995 -0.3594 0.9209
-1.0058 -21.3553 -0.3732 0.9180
40.7238 -87.5019 -1.6847 0.6797
31.2709 -38.9145 -0.8714 0.8190
35.0357 -34.1923 -0.8545 0.8221
41.3689 -24.3437 -0.8378 0.8253
83.4525 -24.9540 -1.5204 0.7058
50.5216 9.8260 -0.8984 0.8139
13.8985 8.5996 -0.2853 0.9367
5.0666 8.5675 -0.1737 0.9610
3.7996 8.6617 -0.1651 0.9629
2.6127 8.6690 -0.1580 0.9644
1.5077 8.6758 -0.1537 0.9654
0.4463 8.6751 -0.1516 0.9658
-2.7661 8.6178 -0.1580 0.9644
-4.0076 8.7097 -0.1673 0.9624
-5.3681 8.7180 -0.1787 0.9599
-8.8778 8.7396 -0.2174 0.9514
-14.5914 8.6718 -0.2963 0.9343
-19.9603 8.8077 -0.3808 0.9164
-26.8608 8.1592 -0.4900 0.8938
-86.4367 4.6352 -1.5109 0.7073
-57.4747 -18.3106 -1.0529 0.7856
-72.3168 -33.0858 -1.3881 0.7275
-58.8326 -36.0500 -1.2044 0.7588
-18.0910 -23.3552 -0.5157 0.8885
-12.1606 -20.3609 -0.4140 0.9095
-10.5855 8.7501 -0.7198 0.9465
-13.5046 8.6578 -0.8407 0.9378
-21.6263 7.3777 -1.1975 0.9125
-44.5344 9.4039 -2.3854 0.8333
-40.4441 -6.2735 -2.1449 0.8488
-42.5530 -17.7516 -2.4164 0.8314
-38.3835 -28.3724 -2.5015 0.8260
-34.6892 -32.7864 -2.5015 0.8260
-13.2870 -20.6268 -1.2859 0.9064
-9.5191 -19.6259 -1.1431 0.9163
-1.8552 -20.6483 -1.0865 0.9203
7.2140 -47.1831 -2.5015 0.8260
12.8411 -45.9717 -2.5015 0.8260
18.2813 -44.0917 -2.5015 0.8260
23.4558 -41.5706 -2.5015 0.8260
26.5679 -36.1058 -2.3493 0.8356
30.7208 -32.6453 -2.3493 0.8356
34.4270 -28.7100 -2.3493 0.8356
37.4119 -24.2145 -2.3355 0.8365
46.6584 -10.0640 -2.5015 0.8260
47.5305 -4.3745 -2.5015 0.8260
47.7115 1.3786 -2.5015 0.8260
44.3269 6.6789 -2.3493 0.8356
29.9171 8.2867 -1.6269 0.8831
20.8357 8.5860 -1.1810 0.9137
11.7581 8.6128 -0.7638 0.9433
9.2089 8.6284 -0.6614 0.9507
7.1806 8.5726 -0.5861 0.9562
3.0196 8.6665 -0.4810 0.9639
1.2881 5.9097 -0.3170 0.9761
0.8179 8.6800 -0.4569 0.9657
-0.2310 8.6433 -0.4531 0.9660
-2.3565 8.5799 -0.4663 0.9650
-6.3613 8.7241 -0.5659 0.9577
-10.3990 8.7489 -0.7122 0.9470
-13.2683 8.6697 -0.8306 0.9385
-17.5770 8.6671 -1.0271 0.9245
-44.4714 9.7945 -2.3865 0.8333
-45.1575 4.3539 -2.3776 0.8338
-45.2151 -1.1101 -2.3703 0.8343
-40.2125 -5.8806 -2.1299 0.8498
-38.6283 -28.0383 -2.5015 0.8260
-34.9724 -32.4841 -2.5015 0.8260
-28.9335 -34.2394 -2.3493 0.8356
-13.5766 -20.6798 -1.2965 0.9057
-6.7613 -19.1375 -1.0637 0.9219
-2.0309 -20.5966 -1.0847 0.9204
6.8042 -47.2439 -2.5015 0.8260
12.4416 -46.0814 -2.5015 0.8260
17.8979 -44.2487 -2.5015 0.8260
23.0941 -41.7726 -2.5015 0.8260
26.2535 -36.3350 -2.3493 0.8356
30.4363 -32.9107 -2.3493 0.8356
36.7029 -24.2101 -2.3043 0.8385
47.7217 0.9644 -2.5015 0.8260
31.7192 8.4901 -1.7208 0.8768
21.3224 8.5708 -1.2044 0.9121
15.9949 8.7976 -0.9567 0.9295
11.9729 8.6114 -0.7729 0.9426
9.3695 8.6275 -0.6675 0.9503
7.3135 8.5789 -0.5908 0.9558
4.3397 8.6583 -0.5076 0.9619
3.1041 8.6659 -0.4824 0.9638
1.3335 5.8722 -0.3156 0.9762
-0.1560 8.6468 -0.4532 0.9660
-1.2048 8.6307 -0.4567 0.9657
-3.4777 8.7064 -0.4913 0.9631
-4.7685 8.7143 -0.5206 0.9610
-6.2456 8.7234 -0.5623 0.9579
-17.2372 8.6864 -1.0116 0.9256
-44.4050 10.1847 -2.3876 0.8332
-45.2421 -0.7179 -2.3713 0.8342
-39.7627 -5.4627 -2.1034 0.8515
-37.6174 -9.8941 -2.0385 0.8557
-41.9221 -22.8216 -2.5015 0.8260
-35.2530 -32.1794 -2.5015 0.8260
-29.2296 -33.9870 -2.3493 0.8356
-9.9493 -19.6371 -1.1537 0.9156
-6.9916 -19.2556 -1.0736 0.9212
12.0411 -46.1876 -2.5015 0.8260
17.5132 -44.4024 -2.5015 0.8260
22.7306 -41.9715 -2.5015 0.8260
25.9371 -36.5616 -2.3493 0.8356
33.9234 -29.3033 -2.3493 0.8356
36.0123 -24.2059 -2.2740 0.8405
39.9436 -20.3467 -2.3493 0.8356
47.4474 -5.1990 -2.5015 0.8260
21.8646 8.5690 -1.2307 0.9102
12.1929 8.6101 -0.7823 0.9420
9.5332 8.6264 -0.6738 0.9498
5.7656 8.5378 -0.5399 0.9596
4.4338 8.6578 -0.5098 0.9618
-0.0810 8.6503 -0.4534 0.9659
-1.1285 8.6303 -0.4561 0.9657
-2.1990 8.5875 -0.4646 0.9651
-6.1313 8.7227 -0.5588 0.9582
-7.8683 8.7334 -0.6161 0.9540
-12.7928 8.6796 -0.8102 0.9400
-16.9011 8.7018 -0.9963 0.9267
-37.1132 -9.4179 -2.0067 0.8578
-41.8070 -16.1759 -2.3493 0.8356
-10.3303 -19.9576 -1.1777 0.9139
-7.2001 -19.3058 -1.0798 0.9208
0.1092 -21.7753 -1.1412 0.9165
5.6191 -44.4737 -2.3493 0.8356
11.6398 -46.2904 -2.5015 0.8260
17.1271 -44.5528 -2.5015 0.8260
22.3654 -42.1671 -2.5015 0.8260
29.8605 -33.4340 -2.3493 0.8356
35.3398 -24.2018 -2.2448 0.8423
41.9672 -15.7555 -2.3493 0.8356
46.3805 -11.2754 -2.5015 0.8260
47.7312 0.1359 -2.5015 0.8260
22.4310 8.5672 -1.2584 0.9083
16.2603 8.5793 -0.9635 0.9290
12.3681 8.5739 -0.7887 0.9415
9.7000 8.6254 -0.6803 0.9493
7.5858 8.5916 -0.6007 0.9551
-1.0523 8.6299 -0.4556 0.9658
-2.1207 8.5912 -0.4638 0.9652
-4.5731 8.7131 -0.5157 0.9614
-6.0183 8.7220 -0.5554 0.9584
-7.7313 8.7325 -0.6112 0.9544
-9.8620 8.7456 -0.6908 0.9486
-16.5757 8.7170 -0.9815 0.9277
-21.6591 8.2389 -1.2145 0.9114
-44.2619 10.9641 -2.3898 0.8331
-39.3452 -27.0230 -2.5015 0.8260
-35.8063 -31.5624 -2.5015 0.8260
-14.7068 -21.1781 -1.3513 0.9019
5.2328 -44.5208 -2.3493 0.8356
25.2986 -37.0063 -2.3493 0.8356
25.6359 -29.2103 -2.0368 0.8558
39.5844 -21.0370 -2.3493 0.8356
47.3500 -6.0218 -2.5015 0.8260
47.7306 -0.2784 -2.5015 0.8260
44.5320 5.1363 -2.3493 0.8356
36.0168 8.6421 -1.9411 0.8621
23.0236 8.5653 -1.2874 0.9063
12.6494 8.6073 -0.8018 0.9406
9.8700 8.6244 -0.6869 0.9489
7.7255 8.5982 -0.6058 0.9548
3.3606 8.6644 -0.4870 0.9635
2.2080 8.6715 -0.4690 0.9648
0.0693 8.6574 -0.4537 0.9659
-0.9764 8.6294 -0.4551 0.9658
-5.9068 8.7213 -0.5520 0.9587
-9.6901 8.7446 -0.6840 0.9491
-12.3558 8.7001 -0.7920 0.9413
-16.2598 8.7319 -0.9672 0.9287
-20.6935 2.7230 -1.0938 0.9198
-45.2648 0.4606 -2.3723 0.8342
-40.4479 -4.4873 -2.1328 0.8496
-42.5020 -21.7225 -2.5015 0.8260
-39.5783 -26.6805 -2.5015 0.8260
-32.0549 -35.3662 -2.5015 0.8260
-10.6859 -19.7951 -1.1789 0.9138
-7.5822 -19.3003 -1.0867 0.9203
-4.9189 -18.9733 -1.0272 0.9245
-2.7306 -20.4087 -1.0791 0.9208
4.8462 -44.5645 -2.3493 0.8356
10.8345 -46.4855 -2.5015 0.8260
34.9881 -24.8640 -2.2495 0.8420
39.4003 -21.3798 -2.3493 0.8356
47.2960 -6.4326 -2.5015 0.8260
10.0433 8.6233 -0.6937 0.9484
7.8675 8.6049 -0.6110 0.9544
3.4471 8.6638 -0.4887 0.9633
-4.3813 8.7120 -0.5111 0.9617
-9.5214 8.7435 -0.6775 0.9495
-20.8297 2.9251 -1.1023 0.9192
-42.3617 -4.3278 -2.2316 0.8432
-34.6895 -7.8474 -1.8639 0.8672
-42.2140 -15.0819 -2.3493 0.8356
-42.6890 -21.3528 -2.5015 0.8260
-20.7373 -22.4841 -1.6030 0.8847
-11.0240 -20.0041 -1.1970 0.9126
-7.8047 -19.3709 -1.0945 0.9198
-4.0652 -15.1380 -0.8215 0.9391
-2.8709 -20.1268 -1.0655 0.9218
-0.4489 -21.3487 -1.1191 0.9180
15.9613 -44.9836 -2.5015 0.8260
32.8859 -30.4631 -2.3493 0.8356
34.9853 -25.3219 -2.2634 0.8411
39.2133 -21.7210 -2.3493 0.8356
41.5428 -16.8429 -2.3493 0.8356
47.2384 -6.8429 -2.5015 0.8260
47.7186 -1.1069 -2.5015 0.8260
43.7650 9.7011 -2.3493 0.8356
24.3355 8.5754 -1.3522 0.9018
10.2203 8.6222 -0.7008 0.9478
8.0121 8.6117 -0.6164 0.9540
4.7458 8.5240 -0.5113 0.9617
3.5343 8.6633 -0.4904 0.9632
0.2198 8.6644 -0.4542 0.9659
-1.8873 8.6025 -0.4616 0.9653
-4.2867 8.7114 -0.5088 0.9619
-5.6876 8.7200 -0.5456 0.9592
-7.3116 8.7050 -0.5958 0.9555
-15.6543 8.7603 -0.9401 0.9307
-33.7705 0.9300 -1.7705 0.8734
-44.9556 -4.1989 -2.3663 0.8346
-42.8728 -20.9813 -2.5015 0.8260
-36.6160 -30.6196 -2.5015 0.8260
2.5169 -27.5937 -1.4521 0.8950
5.5557 -25.8595 -1.3862 0.8995
15.5704 -45.1204 -2.5015 0.8260
20.8882 -42.9182 -2.5015 0.8260
32.3974 -30.5376 -2.3332 0.8367
47.7072 -1.5211 -2.5015 0.8260
43.8476 9.3207 -2.3493 0.8356
30.2796 14.6559 -1.7630 0.8739
8.1592 8.6185 -0.6220 0.9536
6.3411 8.5638 -0.5585 0.9582
3.6221 8.6628 -0.4921 0.9631
-1.8099 8.6062 -0.4609 0.9654
-2.9179 8.5760 -0.4748 0.9644
-4.1929 8.7108 -0.5066 0.9620
-5.5799 8.7193 -0.5425 0.9594
-15.2330 18.4591 -1.2543 0.9086
-15.3644 8.7739 -0.9273 0.9316
-19.5597 8.2283 -1.1121 0.9185
-25.1064 7.1526 -1.3681 0.9007
-44.8696 7.0973 -2.3807 0.8336
-45.0156 -3.8106 -2.3676 0.8345
-37.0804 -7.7143 -1.9849 0.8592
-42.4694 -14.3468 -2.3493 0.8356
-43.0532 -20.6085 -2.5015 0.8260
-32.9649 -34.5197 -2.5015 0.8260
-8.2312 -19.4484 -1.1068 0.9189
2.1121 -25.6115 -1.3468 0.9022
9.6205 -46.7518 -2.5015 0.8260
15.1780 -45.2539 -2.5015 0.8260
20.5149 -43.0979 -2.5015 0.8260
24.8913 -39.2703 -2.4367 0.8301
34.9796 -26.2549 -2.2921 0.8393
38.8303 -22.3984 -2.3493 0.8356
41.2441 -17.5615 -2.3493 0.8356
42.4491 -12.2929 -2.3161 0.8378
47.1125 -7.6618 -2.5015 0.8260
43.9268 8.9400 -2.3493 0.8356
13.6352 8.6012 -0.8449 0.9375
10.5852 8.6200 -0.7154 0.9468
8.3090 8.6256 -0.6277 0.9532
6.4610 8.5692 -0.5624 0.9579
3.7105 8.6622 -0.4939 0.9630
2.5310 8.6695 -0.4733 0.9645
1.4303 8.6762 -0.4608 0.9654
-1.7328 8.6099 -0.4603 0.9654
-4.0999 8.7102 -0.5045 0.9622
-5.4734 8.7187 -0.5395 0.9596
-7.0766 8.7285 -0.5889 0.9560
-9.0343 8.7405 -0.6588 0.9509
-14.7522 8.5951 -0.8948 0.9339
-24.7120 7.2727 -1.3500 0.9020
-44.8141 7.4878 -2.3812 0.8336
-45.2637 2.0333 -2.3746 0.8340
-45.0687 -3.4214 -2.3687 0.8344
-37.3469 -7.4321 -1.9956 0.8585
-42.5924 -13.9777 -2.3493 0.8356
-40.4806 -25.2905 -2.5015 0.8260
-33.2632 -34.2322 -2.5015 0.8260
-17.4061 -22.8787 -1.5066 0.8912
-8.4875 -19.5788 -1.1183 0.9181
-3.3595 -19.8412 -1.0546 0.9226
-0.9909 -21.0396 -1.1039 0.9191
14.7848 -45.3839 -2.5015 0.8260
20.1401 -43.2743 -2.5015 0.8260
24.8786 -40.0141 -2.4693 0.8280
28.0796 -34.9431 -2.3493 0.8356
34.9767 -26.7305 -2.3071 0.8383
38.6345 -22.7346 -2.3493 0.8356
41.0902 -17.9188 -2.3493 0.8356
45.7307 -13.6744 -2.5015 0.8260
47.6736 -2.3490 -2.5015 0.8260
47.6097 3.4067 -2.5015 0.8260
44.0027 8.5581 -2.3493 0.8356
8.4437 8.6145 -0.6322 0.9528
6.5826 8.5747 -0.5665 0.9576
3.7996 8.6617 -0.4957 0.9628
2.6127 8.6690 -0.4745 0.9644
0.4463 8.6751 -0.4552 0.9658
-0.5985 8.6272 -0.4532 0.9660
-1.6559 8.6135 -0.4597 0.9655
-2.7525 8.5754 -0.4720 0.9646
-4.0077 8.7097 -0.5025 0.9623
-11.3438 8.7476 -0.7507 0.9442
-14.4849 8.6085 -0.8831 0.9347
-18.9163 8.3470 -1.0836 0.9205
-23.6621 7.1875 -1.2960 0.9057
-44.7551 7.8778 -2.3816 0.8336
-45.2545 2.4268 -2.3751 0.8340
-37.6164 -7.1469 -2.0067 0.8578
-33.5591 -33.9422 -2.5015 0.8260
-17.9169 -23.1305 -1.5334 0.8894
-10.5856 8.7501 -1.2016 0.9463
-17.6216 8.4998 -1.7117 0.9244
-21.5709 7.3588 -1.9940 0.9125
-26.3128 5.5562 -2.3528 0.8976
-26.7500 2.3450 -2.3493 0.8978
-26.3881 -11.0082 -2.5015 0.8915
-24.8712 -14.1046 -2.5015 0.8915
-22.9926 -16.9958 -2.5015 0.8915
-17.1532 -20.6598 -2.3493 0.8978
-13.3014 -20.6490 -2.1489 0.9061
-9.4397 -19.4622 -1.8924 0.9168
-6.6781 -19.4374 -1.7981 0.9208
4.0584 -26.5441 -2.3493 0.8978
7.6921 -27.5381 -2.5015 0.8915
14.0505 -24.9017 -2.5015 0.8915
16.9458 -23.0294 -2.5015 0.8915
19.5947 -20.8222 -2.5015 0.8915
21.9586 -18.3121 -2.5015 0.8915
25.6987 -12.5336 -2.5015 0.8915
27.9494 -6.0286 -2.5015 0.8915
28.5803 0.8258 -2.5015 0.8915
26.6237 4.0115 -2.3556 0.8975
24.8272 10.2308 -2.3493 0.8978
16.0081 8.9867 -1.6061 0.9289
4.2463 8.6589 -0.8437 0.9620
1.2876 5.9071 -0.5289 0.9760
0.8179 8.6800 -0.7628 0.9656
-0.2310 8.6433 -0.7565 0.9659
-1.2783 8.6108 -0.7616 0.9656
-2.3509 8.5594 -0.7766 0.9650
-4.8676 8.7149 -0.8733 0.9607
-13.1285 8.5783 -1.3721 0.9390
-21.6630 7.6008 -2.0085 0.9119
-26.7286 2.5771 -2.3493 0.8978
-28.2534 -4.1317 -2.4981 0.8917
-26.4827 -10.7788 -2.5015 0.8915
-24.9927 -13.8882 -2.5015 0.8915
-20.9493 -19.4587 -2.5015 0.8915
-17.3318 -20.5102 -2.3493 0.8978
-4.3043 -19.3436 -1.7337 0.9235
0.4834 -21.6023 -1.8904 0.9169
3.8279 -26.5783 -2.3493 0.8978
13.8339 -25.0228 -2.5015 0.8915
16.7453 -23.1756 -2.5015 0.8915
19.4132 -20.9915 -2.5015 0.8915
21.7988 -18.5020 -2.5015 0.8915
23.8674 -15.7436 -2.5015 0.8915
26.9384 -9.5832 -2.5015 0.8915
28.4481 -2.8675 -2.5015 0.8915
27.0882 3.8414 -2.3936 0.8960
25.9394 6.9431 -2.3493 0.8978
11.9729 8.6114 -1.2903 0.9425
9.3695 8.6275 -1.1143 0.9501
3.7834 5.7087 -0.5992 0.9729
4.3397 8.6583 -0.8473 0.9619
3.1041 8.6659 -0.8053 0.9637
0.8939 8.6795 -0.7634 0.9656
-1.2020 8.6104 -0.7606 0.9657
-3.4777 8.7064 -0.8202 0.9631
-12.9049 8.5930 -1.3564 0.9396
-16.9554 8.5444 -1.6611 0.9266
-26.2269 6.0154 -2.3541 0.8976
-26.7052 2.8089 -2.3493 0.8978
-27.6518 -7.2729 -2.5015 0.8915
-26.5752 -10.5485 -2.5015 0.8915
-17.5092 -20.3590 -2.3493 0.8978
-14.0817 -21.0486 -2.2156 0.9033
-7.0593 -19.4421 -1.8096 0.9203
-2.2047 -20.5323 -1.8067 0.9204
0.2212 -16.1544 -1.4135 0.9372
7.2129 -27.6675 -2.5015 0.8915
10.4908 -26.5981 -2.5015 0.8915
13.6161 -25.1419 -2.5015 0.8915
19.2303 -21.1591 -2.5015 0.8915
25.4773 -12.9778 -2.5015 0.8915
26.8542 -9.8167 -2.5015 0.8915
28.4221 -3.1143 -2.5015 0.8915
28.5903 0.3296 -2.5015 0.8915
28.3428 3.7686 -2.5015 0.8915
25.9987 6.7177 -2.3493 0.8978
25.0011 9.7983 -2.3493 0.8978
9.5332 8.6264 -1.1248 0.9497
5.7489 8.5130 -0.8987 0.9596
4.4338 8.6578 -0.8510 0.9617
0.9701 8.6791 -0.7640 0.9655
-0.0810 8.6503 -0.7568 0.9659
-1.1258 8.6100 -0.7597 0.9657
-2.1938 8.5671 -0.7737 0.9651
-3.3756 8.6685 -0.8139 0.9633
-4.6703 8.7137 -0.8649 0.9611
-7.8683 8.7334 -1.0284 0.9539
-10.0374 8.7467 -1.1648 0.9479
-12.6863 8.6073 -1.3413 0.9403
-16.6368 8.5657 -1.6371 0.9276
-26.1809 6.2446 -2.3548 0.8976
-26.8519 -0.1930 -2.3493 0.8978
-27.8869 -3.5849 -2.4599 0.8932
-25.2300 -13.4522 -2.5015 0.8915
-23.4273 -16.3913 -2.5015 0.8915
-17.6852 -20.2062 -2.3493 0.8978
-14.4903 -21.2578 -2.2508 0.9019
-10.1181 -19.5478 -1.9257 0.9154
-2.3777 -20.4680 -1.8028 0.9206
3.3660 -26.6408 -2.3493 0.8978
21.4744 -18.8777 -2.5015 0.8915
23.5905 -16.1555 -2.5015 0.8915
25.3637 -13.1984 -2.5015 0.8915
26.7680 -10.0494 -2.5015 0.8915
28.3940 -3.3609 -2.5015 0.8915
28.5921 0.0814 -2.5015 0.8915
28.3744 3.5225 -2.5015 0.8915
26.0560 6.4917 -2.3493 0.8978
7.5858 8.5916 -1.0027 0.9550
5.8605 8.5179 -0.9046 0.9593
4.5097 8.6207 -0.8512 0.9617
3.2745 8.6649 -0.8104 0.9635
2.1282 8.6720 -0.7812 0.9648
-2.1156 8.5708 -0.7724 0.9652
-4.5731 8.7131 -0.8609 0.9613
-6.0183 8.7220 -0.9271 0.9583
-7.7313 8.7325 -1.0204 0.9542
-9.8620 8.7456 -1.1532 0.9484
-16.3271 8.5863 -1.6139 0.9286
-26.1328 6.4733 -2.3554 0.8975
-26.8525 0.0401 -2.3493 0.8978
-27.7738 -6.7918 -2.5015 0.8915
-25.3458 -13.2327 -2.5015 0.8915
-23.5687 -16.1874 -2.5015 0.8915
-17.8600 -20.0520 -2.3493 0.8978
-10.3497 -19.5770 -1.9374 0.9149
-7.4173 -19.3730 -1.8149 0.9201
-2.5461 -20.3735 -1.7963 0.9209
-0.0781 -21.3045 -1.8639 0.9180
10.0275 -26.7762 -2.5015 0.8915
16.1362 -23.6037 -2.5015 0.8915
18.8601 -21.4898 -2.5015 0.8915
21.3097 -19.0633 -2.5015 0.8915
23.4494 -16.3597 -2.5015 0.8915
25.2482 -13.4181 -2.5015 0.8915
27.7233 -6.9951 -2.5015 0.8915
28.4039 3.2761 -2.5015 0.8915
15.4185 3.6996 -1.3872 0.9383
25.1674 9.3628 -2.3493 0.8978
17.0147 8.7894 -1.6755 0.9260
9.8700 8.6244 -1.1467 0.9487
5.9736 8.5229 -0.9106 0.9591
2.2080 8.6715 -0.7829 0.9647
1.1228 8.6781 -0.7656 0.9655
-2.0378 8.5746 -0.7711 0.9652
-5.9068 8.7213 -0.9215 0.9586
-7.5964 8.7317 -1.0126 0.9546
-12.2632 8.6349 -1.3122 0.9416
-16.0680 8.6289 -1.5956 0.9294
-21.6578 8.4543 -2.0341 0.9109
-26.0827 6.7017 -2.3561 0.8975
-20.6981 2.7236 -1.8265 0.9196
-26.9707 -2.9922 -2.3741 0.8968
-27.8317 -6.5505 -2.5015 0.8915
-23.7083 -15.9822 -2.5015 0.8915
-18.0333 -19.8962 -2.3493 0.8978
-15.3482 -21.6971 -2.3252 0.8988
-7.5853 -19.3079 -1.8149 0.9201
-0.2618 -21.2071 -1.8555 0.9184
2.9030 -26.6952 -2.3493 0.8978
6.4882 -27.8375 -2.5007 0.8916
9.7947 -26.8622 -2.5015 0.8915
15.9307 -23.7429 -2.5015 0.8915
18.6729 -21.6527 -2.5015 0.8915
23.3066 -16.5626 -2.5015 0.8915
25.1308 -13.6367 -2.5015 0.8915
26.5895 -10.5125 -2.5015 0.8915
27.6616 -7.2356 -2.5015 0.8915
28.4313 3.0294 -2.5015 0.8915
25.2477 9.1440 -2.3493 0.8978
17.2455 8.7198 -1.6907 0.9253
7.8675 8.6049 -1.0201 0.9543
6.0881 8.5279 -0.9167 0.9588
3.4471 8.6638 -0.8158 0.9633
1.1994 8.6777 -0.7664 0.9654
-0.8987 8.6119 -0.7575 0.9658
-4.3813 8.7120 -0.8532 0.9616
-5.7965 8.7207 -0.9161 0.9588
-7.4635 8.7309 -1.0049 0.9549
-9.5214 8.7435 -1.1310 0.9494
-12.0585 8.6482 -1.2982 0.9422
-15.8220 8.6745 -1.5786 0.9301
-21.2124 8.4933 -1.9991 0.9123
-26.0306 6.9297 -2.3567 0.8975
-20.8535 2.9284 -1.8423 0.9189
-26.8478 0.5063 -2.3493 0.8978
-26.7135 -2.7291 -2.3493 0.8978
-26.9254 -9.6197 -2.5015 0.8915
-23.8461 -15.7758 -2.5015 0.8915
-21.7738 -18.5315 -2.5015 0.8915
-15.6971 -21.7867 -2.3493 0.8978
-7.7560 -19.2499 -1.8157 0.9200
-2.8748 -20.1545 -1.7811 0.9215
5.8680 -26.2035 -2.3493 0.8978
12.7352 -25.5994 -2.5015 0.8915
18.4842 -21.8139 -2.5015 0.8915
20.9756 -19.4303 -2.5015 0.8915
23.1619 -16.7643 -2.5015 0.8915
25.0115 -13.8543 -2.5015 0.8915
26.4973 -10.7429 -2.5015 0.8915
27.5977 -7.4754 -2.5015 0.8915
28.2969 -4.0990 -2.5015 0.8915
28.4565 2.7825 -2.5015 0.8915
25.3261 8.9245 -2.3493 0.8978
24.1142 11.9312 -2.3538 0.8976
10.2203 8.6222 -1.1699 0.9477
3.5343 8.6633 -0.8186 0.9631
1.2762 8.6772 -0.7673 0.9654
-0.8235 8.6155 -0.7572 0.9658
-2.9864 8.5339 -0.7910 0.9643
-4.2867 8.7114 -0.8494 0.9618
-9.3560 8.7425 -1.1203 0.9499
-11.8579 8.6612 -1.2847 0.9427
-14.8445 8.3071 -1.4882 0.9340
-26.5582 3.9649 -2.3493 0.8978
-26.8424 0.7392 -2.3493 0.8978
-27.0079 -9.3856 -2.5015 0.8915
-23.9822 -15.5683 -2.5015 0.8915
-21.9338 -18.3418 -2.5015 0.8915
-19.4359 -20.7095 -2.4848 0.8922
-11.0617 -19.6667 -1.9741 0.9134
-5.3102 -19.1109 -1.7353 0.9234
-0.6244 -21.0148 -1.8394 0.9190
5.5321 -25.7495 -2.3042 0.8996
15.5162 -24.0159 -2.5015 0.8915
18.2942 -21.9735 -2.5015 0.8915
27.5318 -7.7145 -2.5015 0.8915
28.2602 -4.3445 -2.5015 0.8915
28.5777 -0.9112 -2.5015 0.8915
26.2657 5.5833 -2.3493 0.8978
25.4026 8.7044 -2.3493 0.8978
10.4008 8.6211 -1.1819 0.9472
2.4497 8.6700 -0.7882 0.9645
1.3532 8.6767 -0.7683 0.9654
-0.7485 8.6190 -0.7569 0.9659
-1.8056 8.5859 -0.7676 0.9654
-2.9034 8.5337 -0.7886 0.9645
-4.1929 8.7108 -0.8458 0.9619
-5.5799 8.7193 -0.9057 0.9593
-9.1937 8.7415 -1.1099 0.9503
-11.6615 8.6740 -1.2715 0.9433
-25.4914 7.2623 -2.3189 0.8990
-26.5228 4.1953 -2.3493 0.8978
-26.7569 -2.2650 -2.3493 0.8978
-25.7899 -12.3450 -2.5015 0.8915
-22.0922 -18.1508 -2.5015 0.8915
-19.7151 -20.6449 -2.4975 0.8917
-16.0729 -21.5110 -2.3493 0.8978
-8.1692 -19.3020 -1.8337 0.9193
-5.4667 -19.0319 -1.7324 0.9236
-3.2311 -20.1441 -1.7849 0.9213
-0.8034 -20.9198 -1.8316 0.9194
22.8674 -17.1638 -2.5015 0.8915
27.4638 -7.9533 -2.5015 0.8915
28.2215 -4.5896 -2.5015 0.8915
28.5687 -1.1592 -2.5015 0.8915
28.5005 2.2881 -2.5015 0.8915
26.3131 5.3552 -2.3493 0.8978
24.3012 11.5030 -2.3522 0.8977
13.6352 8.6012 -1.4104 0.9373
8.3048 8.6213 -1.0473 0.9531
2.5310 8.6695 -0.7901 0.9644
1.4303 8.6762 -0.7693 0.9653
0.3707 8.6715 -0.7594 0.9657
-1.7287 8.5896 -0.7666 0.9654
-2.8219 8.5364 -0.7866 0.9645
-4.0999 8.7102 -0.8422 0.9621
-7.0766 8.7285 -0.9831 0.9559
-9.0343 8.7405 -1.0998 0.9508
-14.4601 8.4249 -1.4642 0.9350
-24.1740 7.1144 -2.2046 0.9038
-26.7755 -2.0327 -2.3493 0.8978
-28.0423 -5.5805 -2.5015 0.8915
-25.8961 -12.1206 -2.5015 0.8915
-24.2488 -15.1496 -2.5015 0.8915
-19.9253 -20.5057 -2.5015 0.8915
-16.2589 -21.3708 -2.3493 0.8978
-11.5723 -19.7636 -2.0037 0.9121
-8.3789 -19.3284 -1.8431 0.9189
-3.3777 -19.9490 -1.7701 0.9220
-0.9808 -20.8257 -1.8240 0.9197
1.7560 -23.8151 -2.0892 0.9086
5.0946 -25.8939 -2.3089 0.8995
12.0644 -25.9223 -2.5015 0.8915
15.0970 -24.2816 -2.5015 0.8915
26.2086 -11.4292 -2.5015 0.8915
28.1806 -4.8344 -2.5015 0.8915
28.5576 -1.4071 -2.5015 0.8915
28.5193 2.0407 -2.5015 0.8915
25.5499 8.2621 -2.3493 0.8978
24.3918 11.2878 -2.3514 0.8977
6.5626 8.5486 -0.9429 0.9576
5.0153 8.4807 -0.8620 0.9612
3.7996 8.6617 -0.8275 0.9627
1.5077 8.6758 -0.7704 0.9653
0.4463 8.6751 -0.7600 0.9657
-0.5984 8.6260 -0.7565 0.9659
-1.6520 8.5933 -0.7656 0.9655
-2.7413 8.5404 -0.7847 0.9646
-5.3681 8.7180 -0.8957 0.9597
-11.3243 8.7325 -1.2511 0.9442
-18.6313 8.2213 -1.7817 0.9215
-26.4567 4.6569 -2.3502 0.8977
-28.0897 -5.3369 -2.5015 0.8915
-27.2431 -8.6793 -2.5015 0.8915
-26.0003 -11.8954 -2.5015 0.8915
-16.4439 -21.2287 -2.3493 0.8978
-8.5909 -19.3552 -1.8527 0.9185
-10.5855 8.7501 -1.6863 0.9462
-17.2385 8.3150 -2.3500 0.9258
-18.1087 6.1777 -2.3493 0.9258
-19.0604 1.6709 -2.3493 0.9258
-20.1323 -3.1228 -2.5015 0.9212
-19.6100 -5.5235 -2.5015 0.9212
-16.3831 -12.1101 -2.5015 0.9212
-14.8063 -13.9941 -2.5015 0.9212
-10.3615 -16.0851 -2.3493 0.9258
-6.2170 -18.0953 -2.3493 0.9258
5.4781 -19.6119 -2.5002 0.9212
10.0116 -17.7435 -2.5015 0.9212
12.0746 -16.4093 -2.5015 0.9212
13.9620 -14.8366 -2.5015 0.9212
15.6464 -13.0481 -2.5015 0.9212
17.1032 -11.0699 -2.5015 0.9212
19.2532 -6.6616 -2.5015 0.9212
19.9150 -4.2956 -2.5015 0.9212
20.2873 -1.8672 -2.5015 0.9212
20.1457 3.0354 -2.5015 0.9212
8.6671 2.4007 -1.1043 0.9644
8.5277 3.5141 -1.1325 0.9635
3.7188 5.7184 -0.8375 0.9729
4.2463 8.6589 -1.1841 0.9619
1.2873 5.9058 -0.7422 0.9759
-3.5659 8.7069 -1.1553 0.9628
-4.8676 8.7149 -1.2257 0.9606
-6.3613 8.7241 -1.3257 0.9574
-8.1490 8.7351 -1.4668 0.9530
-12.9473 8.4600 -1.8990 0.9396
-17.1689 8.4659 -2.3504 0.9258
-18.0544 6.3347 -2.3493 0.9258
-19.0452 1.8362 -2.3493 0.9258
-20.1586 -2.9480 -2.5015 0.9212
-17.8082 -9.8958 -2.5015 0.9212
-16.4876 -11.9675 -2.5015 0.9212
-14.9272 -13.8651 -2.5015 0.9212
-8.4990 -17.1422 -2.3493 0.9258
-4.1559 -18.6767 -2.3493 0.9258
5.3016 -19.6361 -2.4973 0.9213
11.9317 -16.5135 -2.5015 0.9212
13.8327 -14.9572 -2.5015 0.9212
15.5325 -13.1834 -2.5015 0.9212
17.0065 -11.2179 -2.5015 0.9212
20.3689 0.4116 -2.5015 0.9212
8.5013 3.4172 -1.1250 0.9637
16.1013 8.8560 -2.2563 0.9286
11.9729 8.6114 -1.8108 0.9423
9.3695 8.6275 -1.5639 0.9500
4.3397 8.6583 -1.1892 0.9617
3.1041 8.6659 -1.1302 0.9636
0.8939 8.6795 -1.0713 0.9654
-0.1558 8.6385 -1.0608 0.9658
-1.1987 8.5868 -1.0646 0.9657
-2.2635 8.5304 -1.0836 0.9651
-6.2456 8.7234 -1.3173 0.9577
-8.0075 8.7342 -1.4549 0.9534
-12.7289 8.4758 -1.8777 0.9402
-17.0980 8.6162 -2.3509 0.9257
-17.9988 6.4912 -2.3493 0.9258
-18.6492 4.2774 -2.3493 0.9258
-20.3705 -0.3232 -2.5015 0.9212
-20.1835 -2.7729 -2.5015 0.9212
-19.7029 -5.1822 -2.5015 0.9212
-18.9359 -7.5162 -2.5015 0.9212
-17.8935 -9.7409 -2.5015 0.9212
-15.0470 -13.7350 -2.5015 0.9212
-13.2842 -15.4464 -2.5015 0.9212
-10.8448 -16.2102 -2.3947 0.9244
-8.6475 -17.0678 -2.3493 0.9258
-6.5302 -17.9846 -2.3493 0.9258
-4.3178 -18.6399 -2.3493 0.9258
-2.0428 -19.0241 -2.3493 0.9258
0.2197 -16.0395 -1.9696 0.9374
5.1251 -19.6588 -2.4945 0.9214
7.4751 -18.9521 -2.5015 0.9212
9.7020 -17.9146 -2.5015 0.9212
16.9085 -11.3651 -2.5015 0.9212
20.2518 -2.2191 -2.5015 0.9212
20.3717 0.2348 -2.5015 0.9212
20.1953 2.6853 -2.5015 0.9212
8.8526 2.2874 -1.1227 0.9638
16.1946 8.7252 -2.2587 0.9285
7.3706 8.4953 -1.3810 0.9557
5.7033 8.4455 -1.2513 0.9598
-4.6703 8.7137 -1.2139 0.9609
-12.5389 8.5073 -1.8605 0.9408
-17.9417 6.6471 -2.3493 0.9258
-18.6818 2.1291 -2.3087 0.9270
-20.3725 -0.1464 -2.5015 0.9212
-15.1656 -13.6039 -2.5015 0.9212
-13.4178 -15.3305 -2.5015 0.9212
-11.1090 -16.2973 -2.4217 0.9236
-8.7954 -16.9921 -2.3493 0.9258
-4.4795 -18.6017 -2.3493 0.9258
-2.2078 -19.0057 -2.3493 0.9258
2.3984 -18.9826 -2.3493 0.9258
9.5462 -17.9981 -2.5015 0.9212
11.6432 -16.7181 -2.5015 0.9212
13.5710 -15.1951 -2.5015 0.9212
15.3013 -13.4510 -2.5015 0.9212
18.0726 -9.4044 -2.5015 0.9212
20.2318 -2.3948 -2.5015 0.9212
16.2603 8.5793 -2.2574 0.9286
12.3681 8.5739 -1.8478 0.9412
5.8131 8.4489 -1.2592 0.9595
4.5097 8.6207 -1.1946 0.9616
3.2745 8.6649 -1.1374 0.9634
2.1282 8.6720 -1.0964 0.9647
1.0463 8.6786 -1.0733 0.9654
-1.0480 8.5945 -1.0631 0.9657
-6.8710 18.1076 -2.3780 0.9249
-6.0183 8.7220 -1.3011 0.9582
-7.7313 8.7325 -1.4321 0.9541
-20.3566 0.0304 -2.4995 0.9212
-19.0635 -7.1864 -2.5015 0.9212
-18.0599 -9.4288 -2.5015 0.9212
-16.7936 -11.5341 -2.5015 0.9212
-15.2831 -13.4718 -2.5015 0.9212
-11.3793 -16.3864 -2.4495 0.9227
-6.8414 -17.8686 -2.3493 0.9258
2.2335 -19.0027 -2.3493 0.9258
4.5594 -18.8216 -2.3778 0.9249
7.1450 -19.0790 -2.5015 0.9212
11.4977 -16.8186 -2.5015 0.9212
13.4386 -15.3123 -2.5015 0.9212
16.7086 -11.6569 -2.5015 0.9212
17.9903 -9.5609 -2.5015 0.9212
19.0104 -7.3258 -2.5015 0.9212
8.4513 3.1441 -1.1072 0.9643
12.6494 8.6073 -1.8786 0.9402
7.6399 8.5030 -1.4036 0.9550
9.1065 17.0459 -2.3729 0.9251
3.3606 8.6644 -1.1411 0.9632
1.1228 8.6781 -1.0744 0.9653
0.0692 8.6491 -1.0620 0.9657
-4.4768 8.7125 -1.2027 0.9613
-5.9068 8.7213 -1.2933 0.9584
-7.5964 8.7317 -1.4211 0.9544
-9.6901 8.7446 -1.6026 0.9488
-12.1773 8.5743 -1.8286 0.9417
-17.8237 6.9576 -2.3493 0.9258
-18.5316 4.7615 -2.3493 0.9258
-20.3343 0.2069 -2.4969 0.9213
-18.1410 -9.2718 -2.5015 0.9212
-13.6819 -15.0953 -2.5015 0.9212
-9.0890 -16.8369 -2.3493 0.9258
-3.9036 -15.0570 -1.9099 0.9392
-2.5373 -18.9645 -2.3493 0.9258
6.9791 -19.1404 -2.5015 0.9212
9.2323 -18.1611 -2.5015 0.9212
15.0656 -13.7146 -2.5015 0.9212
16.6068 -11.8015 -2.5015 0.9212
19.7099 -5.1556 -2.5015 0.9212
20.3709 -0.2957 -2.5015 0.9212
9.6173 2.2196 -1.2119 0.9610
8.4559 3.0625 -1.1043 0.9644
17.0749 8.6336 -2.3493 0.9258
10.0434 8.6233 -1.6254 0.9481
4.7087 8.6329 -1.2074 0.9611
3.4471 8.6638 -1.1449 0.9631
0.1444 8.6526 -1.0626 0.9657
-0.8977 8.6021 -1.0619 0.9657
-5.7965 8.7207 -1.2857 0.9587
-7.4635 8.7309 -1.4103 0.9548
-12.0010 8.6070 -1.8133 0.9422
-16.0034 8.7740 -2.2409 0.9291
-18.4895 4.9222 -2.3493 0.9258
-20.3106 0.3830 -2.4943 0.9214
-20.2676 -2.0706 -2.5015 0.9212
-19.1854 -6.8544 -2.5015 0.9212
-18.2208 -9.1139 -2.5015 0.9212
-16.9913 -11.2409 -2.5015 0.9212
-15.5147 -13.2044 -2.5015 0.9212
-11.8790 -16.4875 -2.4951 0.9214
-9.2348 -16.7574 -2.3493 0.9258
-7.1505 -17.7471 -2.3493 0.9258
-4.0429 -15.0553 -1.9140 0.9391
1.9033 -19.0386 -2.3493 0.9258
6.8127 -19.2002 -2.5015 0.9212
9.0743 -18.2405 -2.5015 0.9212
11.2040 -17.0156 -2.5015 0.9212
13.1707 -15.5433 -2.5015 0.9212
16.5037 -11.9452 -2.5015 0.9212
20.3676 -0.4725 -2.5015 0.9212
20.2763 1.9827 -2.5015 0.9212
17.1492 8.4850 -2.3493 0.9258
13.1294 8.6043 -1.9274 0.9387
10.2203 8.6222 -1.6418 0.9475
6.1507 8.4593 -1.2842 0.9587
9.3986 16.8809 -2.3723 0.9251
1.2762 8.6772 -1.0769 0.9653
0.2196 8.6562 -1.0632 0.9657
-5.6876 8.7200 -1.2783 0.9589
-15.5810 8.7192 -2.1923 0.9306
-17.7002 7.2659 -2.3493 0.9258
-18.4461 5.0825 -2.3493 0.9258
-18.9238 2.8251 -2.3493 0.9258
-20.2848 -1.8946 -2.5015 0.9212
-19.2441 -6.6876 -2.5015 0.9212
-18.2993 -8.9554 -2.5015 0.9212
-7.3043 -17.6844 -2.3493 0.9258
-2.8662 -18.9176 -2.3493 0.9258
1.7380 -19.0544 -2.3493 0.9258
4.0190 -18.7066 -2.3493 0.9258
6.6459 -19.2586 -2.5015 0.9212
8.9157 -18.3186 -2.5015 0.9212
11.0559 -17.1122 -2.5015 0.9212
13.0353 -15.6570 -2.5015 0.9212
14.8252 -13.9741 -2.5015 0.9212
18.8132 -7.8183 -2.5015 0.9212
20.2928 1.8066 -2.5015 0.9212
10.3822 2.2070 -1.3033 0.9581
8.4691 2.9020 -1.0992 0.9646
17.2222 8.3359 -2.3493 0.9258
6.2663 8.4629 -1.2930 0.9585
3.6221 8.6628 -1.1529 0.9629
1.3531 8.6767 -1.0782 0.9652
0.2949 8.6597 -1.0639 0.9657
-0.7477 8.6096 -1.0611 0.9658
-2.8905 8.4955 -1.1018 0.9645
-4.1929 8.7108 -1.1870 0.9618
-17.6365 7.4193 -2.3493 0.9258
-18.8985 2.9893 -2.3493 0.9258
-19.6250 0.7110 -2.4112 0.9239
-20.3005 -1.7185 -2.5015 0.9212
-19.9460 -4.1496 -2.5015 0.9212
-14.0703 -14.7339 -2.5015 0.9212
-9.5243 -16.5945 -2.3493 0.9258
-7.4575 -17.6203 -2.3493 0.9258
-0.7342 -19.1194 -2.3493 0.9258
3.8564 -18.7408 -2.3493 0.9258
10.9069 -17.2075 -2.5015 0.9212
12.8989 -15.7695 -2.5015 0.9212
14.7034 -14.1022 -2.5015 0.9212
18.7446 -7.9813 -2.5015 0.9212
19.5690 -5.6670 -2.5015 0.9212
20.3077 1.6304 -2.5015 0.9212
8.2833 8.5990 -1.4660 0.9530
6.3834 8.4664 -1.3019 0.9582
3.7105 8.6622 -1.1571 0.9627
2.5310 8.6695 -1.1089 0.9643
1.4303 8.6762 -1.0797 0.9652
0.3703 8.6631 -1.0647 0.9657
-0.6727 8.6133 -1.0608 0.9658
-2.8099 8.5001 -1.0992 0.9646
-7.0766 8.7285 -1.3797 0.9557
-9.0343 8.7405 -1.5435 0.9506
-14.0711 8.1983 -1.9996 0.9365
-18.3551 5.4019 -2.3493 0.9258
-18.8719 3.1532 -2.3493 0.9258
-19.2660 0.8654 -2.3679 0.9252
-20.3146 -1.5422 -2.5015 0.9212
-19.3573 -6.3526 -2.5015 0.9212
-17.2782 -10.7947 -2.5015 0.9212
-12.3356 -16.2140 -2.5015 0.9212
-9.6680 -16.5112 -2.3493 0.9258
-7.6102 -17.5549 -2.3493 0.9258
-5.4417 -18.3433 -2.3493 0.9258
-3.1942 -18.8650 -2.3493 0.9258
-0.9002 -19.1123 -2.3493 0.9258
6.3106 -19.3711 -2.5015 0.9212
8.5963 -18.4706 -2.5015 0.9212
17.5586 -10.3324 -2.5015 0.9212
18.6746 -8.1437 -2.5015 0.9212
20.3484 -1.0026 -2.5015 0.9212
20.3211 1.4541 -2.5015 0.9212
17.3643 8.0357 -2.3493 0.9258
6.5022 8.4700 -1.3111 0.9579
2.6127 8.6690 -1.1117 0.9642
1.5077 8.6758 -1.0812 0.9651
0.4459 8.6666 -1.0655 0.9656
-0.5978 8.6170 -1.0606 0.9658
-2.7298 8.5046 -1.0967 0.9646
-4.0077 8.7097 -1.1772 0.9621
-5.3681 8.7180 -1.2571 0.9596
-6.9513 8.7278 -1.3700 0.9560
-8.8778 8.7396 -1.5296 0.9510
-11.3243 8.7325 -1.7558 0.9440
-13.8915 8.2559 -1.9842 0.9370
-17.5050 7.7243 -2.3493 0.9258
-18.8438 3.3169 -2.3493 0.9258
-19.1060 1.0246 -2.3493 0.9258
-20.3272 -1.3658 -2.5015 0.9212
-20.0150 -3.8027 -2.5015 0.9212
-19.4117 -6.1843 -2.5015 0.9212
-15.9637 -12.6579 -2.5015 0.9212
-14.3239 -14.4875 -2.5015 0.9212
-12.4760 -16.1063 -2.5015 0.9212
-9.8109 -16.4267 -2.3493 0.9258
-12.4871 8.0055 -2.3493 0.9417
-13.3599 6.4442 -2.3493 0.9417
-14.0384 4.7892 -2.3493 0.9417
-14.5128 3.0645 -2.3493 0.9417
-15.7851 -0.5247 -2.5015 0.9380
-15.6072 -2.4209 -2.5015 0.9380
-15.2023 -4.2820 -2.5015 0.9380
-12.7007 -9.3881 -2.5015 0.9380
-11.4783 -10.8487 -2.5015 0.9380
-10.0889 -12.1514 -2.5015 0.9380
-6.8925 -14.2105 -2.5015 0.9380
-3.1210 -14.6232 -2.3683 0.9412
-1.3351 -14.8595 -2.3630 0.9414
2.3870 -15.6124 -2.5015 0.9380
6.0491 -14.5895 -2.5015 0.9380
7.7613 -13.7553 -2.5015 0.9380
10.8237 -11.5018 -2.5015 0.9380
12.1295 -10.1153 -2.5015 0.9380
13.2589 -8.5817 -2.5015 0.9380
15.6175 2.3532 -2.5015 0.9380
8.1197 2.2491 -1.3345 0.9665
11.9661 8.7651 -2.3493 0.9417
9.2089 8.6284 -1.9987 0.9502
3.7144 5.7116 -1.0791 0.9728
4.2463 8.6589 -1.5275 0.9617
1.2870 5.9044 -0.9571 0.9758
0.8179 8.6800 -1.3809 0.9653
-0.2288 8.5635 -1.3568 0.9659
-4.8676 8.7149 -1.5810 0.9604
-6.3613 8.7241 -1.7101 0.9572
-10.3990 8.7489 -2.1524 0.9465
-13.9963 4.9108 -2.3493 0.9417
-14.4857 3.1904 -2.3493 0.9417
-15.7209 1.5158 -2.5015 0.9380
-14.6285 -5.9540 -2.5015 0.9380
-13.8055 -7.6716 -2.5015 0.9380
-11.5720 -10.7486 -2.5015 0.9380
-10.1940 -12.0634 -2.5015 0.9380
-8.6678 -13.2028 -2.5015 0.9380
0.3443 -15.3856 -2.4374 0.9396
2.2514 -15.6325 -2.5015 0.9380
4.1168 -15.2478 -2.5015 0.9380
7.6416 -13.8221 -2.5015 0.9380
9.2498 -12.8018 -2.5015 0.9380
10.7235 -11.5953 -2.5015 0.9380
12.0413 -10.2202 -2.5015 0.9380
14.1349 -7.0462 -2.5015 0.9380
14.8803 -5.2936 -2.5015 0.9380
15.3685 -3.4548 -2.4949 0.9382
15.7142 -1.5839 -2.5015 0.9380
15.6374 2.2175 -2.5015 0.9380
8.2401 2.2056 -1.3510 0.9660
9.3695 8.6275 -2.0173 0.9497
7.1581 8.3965 -1.7475 0.9563
3.1041 8.6659 -1.4579 0.9634
0.8939 8.6795 -1.3820 0.9653
-0.1545 8.5670 -1.3571 0.9659
-1.1887 8.5156 -1.3618 0.9658
-4.7685 8.7143 -1.5733 0.9606
-6.2456 8.7234 -1.6993 0.9575
-8.0075 8.7342 -1.8768 0.9531
-12.3462 8.2210 -2.3493 0.9417
-13.2460 6.6751 -2.3493 0.9417
-15.7063 1.6520 -2.5014 0.9380
-15.7918 -0.2506 -2.5015 0.9380
-15.6469 -2.1496 -2.5015 0.9380
-15.2743 -4.0174 -2.5015 0.9380
-13.8716 -7.5514 -2.5015 0.9380
-11.6649 -10.6478 -2.5015 0.9380
-10.2983 -11.9745 -2.5015 0.9380
-7.1381 -14.0887 -2.5015 0.9380
-5.3569 -14.7535 -2.4860 0.9384
0.2099 -15.3286 -2.4280 0.9398
3.9843 -15.2830 -2.5015 0.9380
5.7949 -14.6923 -2.5015 0.9380
7.5213 -13.8879 -2.5015 0.9380
9.1383 -12.8816 -2.5015 0.9380
11.9521 -10.3243 -2.5015 0.9380
14.0732 -7.1687 -2.5015 0.9380
14.8338 -5.4225 -2.5015 0.9380
15.3406 -3.5887 -2.4953 0.9382
15.6998 -1.7203 -2.5015 0.9380
15.7928 0.1820 -2.5015 0.9380
7.7226 3.0266 -1.3137 0.9670
12.1164 8.5561 -2.3493 0.9417
7.3027 8.4171 -1.7650 0.9559
5.6287 8.3350 -1.5930 0.9601
4.4338 8.6578 -1.5406 0.9614
1.3914 5.8900 -0.9586 0.9758
0.9701 8.6791 -1.3832 0.9653
-1.1140 8.5195 -1.3608 0.9658
-3.3756 8.6685 -1.4734 0.9630
-4.6703 8.7137 -1.5659 0.9608
-10.0374 8.7467 -2.1087 0.9475
-14.4281 3.4413 -2.3493 0.9417
-15.6786 1.7868 -2.4993 0.9381
-14.7297 -5.6992 -2.5015 0.9380
-11.7568 -10.5461 -2.5015 0.9380
-10.4019 -11.8847 -2.5015 0.9380
-8.8957 -13.0503 -2.5015 0.9380
-5.5031 -14.7554 -2.4943 0.9382
0.0766 -15.2780 -2.4198 0.9400
1.9797 -15.6692 -2.5015 0.9380
3.8515 -15.3169 -2.5015 0.9380
5.6672 -14.7420 -2.5015 0.9380
7.4005 -13.9527 -2.5015 0.9380
10.5206 -11.7797 -2.5015 0.9380
11.8620 -10.4277 -2.5015 0.9380
13.0310 -8.9240 -2.5015 0.9380
14.0104 -7.2905 -2.5015 0.9380
14.7861 -5.5511 -2.5015 0.9380
15.3468 -3.7309 -2.5015 0.9380
15.7937 0.0450 -2.5015 0.9380
7.7242 2.9501 -1.3096 0.9671
13.1188 6.9218 -2.3493 0.9417
9.7000 8.6254 -2.0559 0.9488
7.4570 8.4457 -1.7845 0.9554
3.2745 8.6649 -1.4671 0.9632
2.1282 8.6720 -1.4143 0.9645
1.0463 8.6786 -1.3845 0.9652
-6.0183 8.7220 -1.6784 0.9580
-7.7313 8.7325 -1.8473 0.9539
-14.3977 3.5665 -2.3493 0.9417
-15.7938 0.0236 -2.5015 0.9380
-15.3418 -3.7517 -2.5015 0.9380
-14.7786 -5.5711 -2.5015 0.9380
-11.8479 -10.4437 -2.5015 0.9380
-10.5047 -11.7939 -2.5015 0.9380
-9.0086 -12.9726 -2.5015 0.9380
-7.3816 -13.9627 -2.5015 0.9380
-5.6334 -14.7135 -2.4954 0.9382
-1.8450 -14.7635 -2.3565 0.9415
-0.0558 -15.2310 -2.4124 0.9402
5.5390 -14.7907 -2.5015 0.9380
10.4180 -11.8705 -2.5015 0.9380
14.7374 -5.6792 -2.5015 0.9380
15.6676 -1.9926 -2.5015 0.9380
15.7935 -0.0921 -2.5015 0.9380
8.7809 2.1069 -1.4302 0.9641
7.7378 2.8786 -1.3076 0.9671
9.8700 8.6244 -2.0760 0.9483
7.6148 8.4750 -1.8045 0.9549
5.8628 8.3648 -1.6179 0.9595
7.0162 13.1333 -2.3583 0.9415
3.3606 8.6644 -1.4719 0.9631
0.0687 8.5862 -1.3600 0.9658
-3.0625 8.2871 -1.3993 0.9649
-5.9068 8.7213 -1.6683 0.9582
-12.1280 8.5396 -2.3493 0.9417
-13.0677 7.0177 -2.3493 0.9417
-13.8174 5.3937 -2.3493 0.9417
-15.6198 2.0554 -2.4953 0.9382
-15.7930 0.1607 -2.5015 0.9380
-15.6975 -1.7415 -2.5015 0.9380
-13.0960 -8.8283 -2.5015 0.9380
-11.9381 -10.3405 -2.5015 0.9380
-9.1209 -12.8939 -2.5015 0.9380
-3.7881 -14.6113 -2.3907 0.9407
-1.9723 -14.7411 -2.3556 0.9415
1.7061 -15.6885 -2.4995 0.9381
3.5850 -15.3815 -2.5015 0.9380
5.4104 -14.8382 -2.5015 0.9380
8.7998 -13.1151 -2.5015 0.9380
10.3146 -11.9605 -2.5015 0.9380
13.8818 -7.5326 -2.5015 0.9380
14.6875 -5.8069 -2.5015 0.9380
15.2797 -3.9968 -2.5015 0.9380
15.6497 -2.1285 -2.5015 0.9380
15.7049 1.6734 -2.5015 0.9380
9.0386 2.0860 -1.4692 0.9631
7.7529 2.8079 -1.3060 0.9672
12.3351 8.2377 -2.3493 0.9417
10.0433 8.6233 -2.0966 0.9478
5.9738 8.3677 -1.6284 0.9592
3.4471 8.6638 -1.4768 0.9629
2.2882 8.6710 -1.4204 0.9643
1.1994 8.6777 -1.3875 0.9651
-0.8903 8.5309 -1.3585 0.9659
-1.9367 8.4755 -1.3770 0.9654
-2.9884 8.3075 -1.3983 0.9649
-4.3813 8.7120 -1.5445 0.9613
-5.7965 8.7207 -1.6585 0.9585
-7.4635 8.7309 -1.8192 0.9545
-9.5214 8.7435 -2.0474 0.9490
-13.7701 5.5134 -2.3493 0.9417
-15.5093 2.1779 -2.4805 0.9385
-15.7120 -1.6052 -2.5015 0.9380
-12.0274 -10.2365 -2.5015 0.9380
-10.7078 -11.6098 -2.5015 0.9380
-9.2325 -12.8143 -2.5015 0.9380
-7.6229 -13.8324 -2.5015 0.9380
-2.0995 -14.7186 -2.3548 0.9416
-0.3185 -15.1447 -2.3992 0.9405
3.4514 -15.4121 -2.5015 0.9380
10.2104 -12.0496 -2.5015 0.9380
11.5865 -10.7329 -2.5015 0.9380
12.7942 -9.2603 -2.5015 0.9380
13.8159 -7.6529 -2.5015 0.9380
15.6307 -2.2642 -2.5015 0.9380
15.7189 1.5370 -2.5015 0.9380
9.3560 2.0739 -1.5178 0.9619
7.7672 2.7370 -1.3043 0.9672
13.2946 6.5779 -2.3493 0.9417
10.2203 8.6222 -2.1178 0.9473
7.9412 8.5355 -1.8465 0.9539
3.5343 8.6633 -1.4819 0.9628
2.3688 8.6705 -1.4236 0.9643
0.2185 8.6140 -1.3648 0.9657
-1.8603 8.4797 -1.3750 0.9655
-4.2867 8.7114 -1.5377 0.9614
-5.6876 8.7200 -1.6489 0.9587
-9.3560 8.7425 -2.0281 0.9495
-11.9779 8.7489 -2.3493 0.9417
-13.7217 5.6328 -2.3493 0.9417
-14.3000 3.9401 -2.3493 0.9417
-15.2281 2.2734 -2.4386 0.9395
-15.7878 0.4348 -2.5015 0.9380
-15.7254 -1.4688 -2.5015 0.9380
-14.9186 -5.1845 -2.5015 0.9380
-14.1861 -6.9425 -2.5015 0.9380
-13.2473 -8.5996 -2.5015 0.9380
-12.1158 -10.1317 -2.5015 0.9380
-7.7427 -13.7657 -2.5015 0.9380
-2.2277 -14.7033 -2.3553 0.9416
1.4320 -15.6999 -2.4969 0.9381
8.5709 -13.2659 -2.5015 0.9380
15.2081 -4.2614 -2.5015 0.9380
15.6104 -2.3998 -2.5015 0.9380
15.7858 -0.5033 -2.5015 0.9380
15.7316 1.4005 -2.5015 0.9380
9.7073 2.0635 -1.5718 0.9606
12.4762 8.0224 -2.3493 0.9417
8.1103 8.5669 -1.8685 0.9533
3.6221 8.6628 -1.4872 0.9627
1.3531 8.6767 -1.3909 0.9651
-1.7842 8.4839 -1.3731 0.9655
-4.1929 8.7108 -1.5312 0.9616
-9.4633 11.4674 -2.3548 0.9416
-9.1937 8.7415 -2.0093 0.9499
-11.9015 8.8525 -2.3493 0.9417
-12.8806 7.3555 -2.3493 0.9417
-14.2653 4.0641 -2.3493 0.9417
-14.9561 2.3657 -2.3983 0.9405
-15.4627 -3.2169 -2.5015 0.9380
-12.2033 -10.0261 -2.5015 0.9380
-10.9077 -11.4222 -2.5015 0.9380
-7.8619 -13.6980 -2.5015 0.9380
-4.2003 -14.6231 -2.4097 0.9402
-0.5783 -15.0593 -2.3869 0.9408
6.7882 -14.2606 -2.5015 0.9380
12.6315 -9.4810 -2.5015 0.9380
14.5314 -6.1874 -2.5015 0.9380
15.1705 -4.3933 -2.5015 0.9380
15.5890 -2.5352 -2.5015 0.9380
15.7808 -0.6403 -2.5015 0.9380
15.7431 1.2639 -2.5015 0.9380
13.4068 6.3461 -2.3493 0.9417
12.5454 7.9138 -2.3493 0.9417
8.2833 8.5990 -1.8911 0.9528
7.4648 12.8766 -2.3574 0.9415
3.7105 8.6622 -1.4925 0.9626
-0.6671 8.5421 -1.3571 0.9659
-2.7664 8.3684 -1.3960 0.9649
-9.0343 8.7405 -1.9910 0.9504
-12.8162 7.4671 -2.3493 0.9417
-13.6219 5.8701 -2.3493 0.9417
-15.7779 0.7088 -2.5015 0.9380
-14.3045 -6.6952 -2.5015 0.9380
-13.3946 -8.3684 -2.5015 0.9380
-12.2899 -9.9198 -2.5015 0.9380
-9.5630 -12.5696 -2.5015 0.9380
-7.9804 -13.6293 -2.5015 0.9380
-4.3401 -14.6300 -2.4170 0.9401
-0.7073 -15.0186 -2.3814 0.9409
3.0489 -15.4967 -2.5015 0.9380
6.6641 -14.3190 -2.5015 0.9380
8.3393 -13.4127 -2.5015 0.9380
12.5488 -9.5902 -2.5015 0.9380
15.1318 -4.5247 -2.5015 0.9380
15.7747 -0.7772 -2.5015 0.9380
15.7535 1.1272 -2.5015 0.9380
10.4739 2.0371 -1.6900 0.9577
12.6136 7.8046 -2.3493 0.9417
10.7733 8.6188 -2.1852 0.9457
6.4325 8.3792 -1.6731 0.9581
2.6127 8.6690 -1.4340 0.9640
0.4453 8.6561 -1.3728 0.9655
-0.5929 8.5458 -1.3568 0.9659
-1.6325 8.4921 -1.3696 0.9656
-5.3681 8.7180 -1.6216 0.9594
-12.7510 7.5780 -2.3493 0.9417
-13.5704 5.9881 -2.3493 0.9417
-15.7712 0.8458 -2.5015 0.9380
-15.7583 -1.0588 -2.5015 0.9380
-15.0486 -4.7943 -2.5015 0.9380
-13.4667 -8.2518 -2.5015 0.9380
-12.3755 -9.8128 -2.5015 0.9380
-11.1044 -11.2311 -2.5015 0.9380
-9.6717 -12.4861 -2.5015 0.9380
-9.3155 7.7003 -2.3493 0.9519
-11.4388 3.9023 -2.3493 0.9519
-12.3871 -3.4890 -2.5015 0.9489
-11.8770 -4.9547 -2.5015 0.9489
-8.2206 -9.9012 -2.5015 0.9489
0.3996 -12.8629 -2.5015 0.9489
3.4621 -12.3946 -2.5015 0.9489
6.3240 -11.2080 -2.5015 0.9489
8.8194 -9.3718 -2.5015 0.9489
9.8834 -8.2421 -2.5015 0.9489
10.8036 -6.9925 -2.5015 0.9489
11.5667 -5.6412 -2.5015 0.9489
12.5798 -2.7134 -2.5015 0.9489
7.7450 2.1453 -1.5622 0.9678
7.4298 3.0617 -1.5620 0.9678
10.5390 5.9164 -2.3493 0.9519
8.8196 8.2637 -2.3493 0.9519
7.0040 8.3617 -2.1202 0.9565
1.2867 5.9030 -1.1744 0.9757
0.8179 8.6800 -1.6947 0.9651
-1.2531 8.4408 -1.6587 0.9658
-2.2859 8.3230 -1.6777 0.9654
-4.8676 8.7149 -1.9403 0.9601
-6.3613 8.7241 -2.0987 0.9570
-9.2483 7.7808 -2.3493 0.9519
-10.1177 6.6111 -2.3493 0.9519
-10.8399 5.3451 -2.3493 0.9519
-12.5497 2.7640 -2.4979 0.9490
-12.8652 -0.3158 -2.5015 0.9489
-12.4169 -3.3814 -2.5015 0.9489
-11.2490 -6.2509 -2.5015 0.9489
-9.4291 -8.7582 -2.5015 0.9489
-8.3063 -9.8295 -2.5015 0.9489
-5.7164 -11.5298 -2.5015 0.9489
-4.2870 -12.1340 -2.5015 0.9489
0.2879 -12.8659 -2.5015 0.9489
1.8345 -12.7376 -2.5015 0.9489
4.8255 -11.9301 -2.5015 0.9489
7.5369 -10.4311 -2.5015 0.9489
9.8114 -8.3276 -2.5015 0.9489
11.5173 -5.7414 -2.5015 0.9489
12.1247 -4.3133 -2.5015 0.9489
12.8042 -1.2906 -2.5015 0.9489
7.4198 2.9825 -1.5544 0.9679
10.5899 5.8247 -2.3493 0.9519
9.8118 7.0571 -2.3493 0.9519
7.8409 9.1975 -2.3493 0.9519
4.3397 8.6583 -1.8826 0.9613
0.8939 8.6795 -1.6961 0.9651
-0.1541 8.5449 -1.6612 0.9658
-1.1789 8.4447 -1.6574 0.9659
-2.2136 8.3424 -1.6777 0.9654
-3.4777 8.7064 -1.8224 0.9625
-6.2456 8.7234 -2.0854 0.9572
-10.0599 6.6986 -2.3493 0.9519
-11.3693 4.1003 -2.3493 0.9519
-12.5171 2.8709 -2.4963 0.9490
-12.8675 -0.2042 -2.5015 0.9489
-11.3028 -6.1530 -2.5015 0.9489
-9.5047 -8.6760 -2.5015 0.9489
-8.3913 -9.7570 -2.5015 0.9489
-5.8163 -11.4797 -2.5015 0.9489
-2.9042 -12.5371 -2.5015 0.9489
-1.3740 -12.7955 -2.5015 0.9489
0.1762 -12.8679 -2.5015 0.9489
4.7218 -11.9715 -2.5015 0.9489
6.1285 -11.3161 -2.5015 0.9489
7.4461 -10.4961 -2.5015 0.9489
