ply
format ascii 1.0
element vertex 1573
property float32 x
property float32 y
property float32 z
property float32 I
end_header
4.7374 8.6559 1.5629 0.9608
3.4615 8.6638 1.4777 0.9629
2.3015 8.6709 1.4209 0.9643
1.2121 8.6776 1.3877 0.9651
-0.8943 8.6905 1.3837 0.9652
-5.7785 8.7205 1.6569 0.9585
-58.0491 53.4600 12.4990 0.7264
-79.8824 43.9450 14.4403 0.6913
-17.4785 -31.6096 5.7209 0.8639
-6.1238 -15.1366 2.5862 0.9360
25.9677 -39.5599 7.4950 0.8256
47.2781 -43.9206 10.2207 0.7700
61.5126 -25.0413 10.5190 0.7642
55.8353 19.5864 9.3718 0.7869
34.1614 28.7369 7.0704 0.8346
6.3054 8.6463 1.6949 0.9576
4.8350 8.6553 1.5703 0.9606
2.3820 8.6704 1.4241 0.9642
1.2888 8.6771 1.3894 0.9651
-0.8183 8.6901 1.3825 0.9653
-1.8950 8.6967 1.4097 0.9646
-3.0320 8.7037 1.4598 0.9634
-4.2713 8.7113 1.5367 0.9615
-7.3115 8.7300 1.8036 0.9549
-80.4860 45.1902 14.6196 0.6881
-17.8366 -31.6074 5.7482 0.8633
-4.8369 -31.6232 5.0669 0.8785
27.8824 -81.1707 13.5935 0.7064
26.0015 -40.3697 7.6054 0.8233
59.1439 -24.6767 10.1503 0.7714
57.3957 19.5768 9.6048 0.7822
41.8274 20.1727 7.3550 0.8286
34.1583 28.2323 7.0189 0.8357
8.1975 8.6346 1.8857 0.9529
3.6364 8.6627 1.4880 0.9627
1.3656 8.6766 1.3912 0.9651
-4.1778 8.7107 1.5301 0.9616
-7.1830 8.7292 1.7905 0.9553
-56.6097 53.9770 12.3886 0.7285
-81.0839 46.4547 14.8008 0.6849
-66.4680 -31.7022 11.6636 0.7421
-25.1852 -33.6083 6.6518 0.8436
-13.4260 -31.5994 5.4379 0.8702
-9.1406 -31.6554 5.2186 0.8751
-5.1175 -31.6215 5.0735 0.8783
20.1203 -42.4211 7.4363 0.8268
25.3923 -40.1847 7.5288 0.8249
45.5558 -43.8157 10.0110 0.7742
58.4056 -33.7985 10.6878 0.7609
58.5570 -25.0299 10.0863 0.7727
67.6950 13.6787 10.9385 0.7560
42.7587 20.1670 7.4878 0.8258
34.1553 27.7353 6.9686 0.8368
8.3308 8.6241 1.8991 0.9526
6.5329 8.6395 1.7155 0.9571
5.0331 8.6541 1.5856 0.9603
3.7248 8.6621 1.4934 0.9625
1.6792 5.7220 0.9445 0.9761
-4.0851 8.7101 1.5237 0.9618
-5.4364 8.6865 1.6230 0.9593
-7.0564 8.7284 1.7777 0.9556
-67.4224 -31.4430 11.7828 0.7399
-82.0479 -51.1023 15.3096 0.6761
-63.2142 -64.8758 14.3466 0.6929
-5.3987 -31.6197 5.0805 0.8782
-4.0415 -83.3531 13.2174 0.7132
30.1572 -93.0083 15.4861 0.6730
23.6856 -51.0766 8.9172 0.7961
32.7356 -40.8529 8.2915 0.8090
58.7680 -45.0413 11.7273 0.7409
58.4014 -34.4752 10.7413 0.7598
58.6530 -25.6741 10.1407 0.7716
70.1602 13.5454 11.3175 0.7487
43.4079 20.0151 7.5708 0.8240
33.6121 20.7331 6.2550 0.8522
6.6548 8.6441 1.7278 0.9568
3.8138 8.6616 1.4990 0.9624
1.7341 5.7250 0.9474 0.9761
0.4587 8.6822 1.3770 0.9654
-2.7800 8.7021 1.4469 0.9637
-14.9388 24.3361 4.5227 0.8908
-6.9316 8.7276 1.7652 0.9559
-69.6337 -13.1309 11.2233 0.7505
-82.8054 -50.5834 15.3685 0.6750
-9.7370 -31.6518 5.2450 0.8745
-8.2675 8.7358 1.4768 0.9527
-10.5527 8.7499 1.6832 0.9463
-81.9245 7.3065 10.0990 0.7179
-26.2528 -31.5227 5.0370 0.8476
-21.7349 -33.6295 4.9165 0.8510
-16.3851 -33.6522 4.5957 0.8600
-3.6817 -40.2939 4.9681 0.8495
21.0222 -50.9194 6.7640 0.8009
30.6138 -41.7358 6.3553 0.8117
58.3803 -37.9110 8.5470 0.7554
65.3464 -14.1980 8.2107 0.7638
63.0076 -5.8947 7.7701 0.7749
63.0545 1.7269 7.7450 0.7755
61.0775 9.1088 7.5823 0.7797
46.6538 19.1430 6.1918 0.8161
35.2396 19.7132 4.9579 0.8498
5.6440 8.6503 1.2682 0.9592
3.0342 8.6664 1.1274 0.9637
1.9042 8.6733 1.0903 0.9648
-1.2750 8.6782 1.0770 0.9653
-8.1244 8.7350 1.4647 0.9531
-13.3737 8.7672 1.9635 0.9376
-26.7148 -31.5180 5.0730 0.8466
-22.1487 -33.6270 4.9440 0.8502
-11.8999 -33.5220 4.3676 0.8664
-7.5503 -33.6931 4.2396 0.8701
20.4943 -50.8862 6.7357 0.8017
23.0085 -41.7651 5.8548 0.8252
29.5866 -41.0771 6.2157 0.8155
58.3758 -38.6314 8.5950 0.7542
62.7974 -22.4456 8.1883 0.7643
65.3925 -6.6900 8.0711 0.7673
65.4412 1.2248 8.0366 0.7681
60.7116 8.5172 7.5274 0.7811
47.8119 19.1359 6.3233 0.8126
35.9597 19.7088 5.0350 0.8477
5.7511 8.6497 1.2754 0.9590
1.9830 8.6728 1.0924 0.9648
0.9070 8.6794 1.0715 0.9654
-0.1437 8.6859 1.0666 0.9656
-2.2944 8.6991 1.1046 0.9644
-3.4627 8.7063 1.1504 0.9629
-4.7516 8.7142 1.2187 0.9608
-6.2259 8.7233 1.3159 0.9577
-82.0169 -32.4142 10.8283 0.7009
-27.1851 -31.5151 5.1103 0.8456
-22.4837 -33.5000 4.9538 0.8499
-11.9241 -32.6888 4.2724 0.8692
-1.7599 -16.1646 1.9965 0.9366
22.3331 -41.3837 5.7740 0.8274
38.2262 -42.1857 6.9899 0.7950
62.7668 -23.0499 8.2100 0.7638
62.9527 -14.8250 7.9410 0.7706
63.0569 0.6336 7.7428 0.7756
61.0835 8.0302 7.5646 0.7801
51.5435 20.1128 6.7935 0.8001
9.5613 8.6263 1.5812 0.9494
4.4499 8.6577 1.1952 0.9615
0.9830 8.6790 1.0725 0.9654
-0.0685 8.6854 1.0665 0.9656
-0.7637 5.9086 0.7315 0.9763
-2.2138 8.6986 1.1021 0.9645
-3.3754 8.7058 1.1465 0.9631
-4.6538 8.7136 1.2129 0.9610
-6.1120 8.7226 1.3078 0.9580
-10.0074 8.7465 1.6319 0.9478
-79.5851 -55.5094 11.9139 0.6764
27.4848 -39.5881 5.9174 0.8235
37.5622 -42.1817 6.9351 0.7964
65.2732 -24.6144 8.5654 0.7549
65.3354 -15.9849 8.2588 0.7626
62.8622 -7.5340 7.7737 0.7748
63.0887 0.0872 7.7463 0.7755
58.7001 14.5336 7.4251 0.7837
52.8708 20.1047 6.9452 0.7962
37.4690 19.6995 5.1977 0.8432
7.6493 8.6380 1.4167 0.9546
5.9689 8.6483 1.2902 0.9585
3.2890 8.6648 1.1380 0.9633
2.1416 8.6719 1.0968 0.9646
-0.7095 5.8899 0.7284 0.9764
-81.4831 43.0032 11.3127 0.6898
-22.7198 2.8229 2.8111 0.9119
-59.2778 -14.4044 7.4902 0.7820
-64.8247 -33.7242 8.9721 0.7449
-23.1274 -33.2006 4.9681 0.8495
-12.1522 -31.6021 4.1572 0.8725
19.6148 -52.6093 6.8940 0.7975
26.9599 -39.5595 5.8780 0.8245
36.9081 -42.1776 6.8816 0.7978
47.1843 -42.3338 7.7835 0.7746
60.3166 -42.2104 9.0393 0.7433
58.4218 -31.1569 8.1296 0.7658
62.9085 -24.3474 8.2824 0.7620
62.8588 -8.0868 7.7817 0.7746
58.7969 14.0180 7.4217 0.7838
53.4485 19.7959 6.9983 0.7948
38.2612 19.6947 5.2837 0.8408
9.8987 8.6242 1.6120 0.9485
6.0797 8.6477 1.2979 0.9583
4.6407 8.6565 1.2060 0.9612
3.3749 8.6643 1.1417 0.9632
2.2213 8.6714 1.0991 0.9646
1.1356 8.6780 1.0746 0.9653
-0.9706 8.6910 1.0738 0.9654
-2.0537 8.6976 1.0973 0.9646
-3.2026 8.7047 1.1388 0.9633
-4.4608 8.7124 1.2018 0.9613
-9.6618 8.7444 1.6000 0.9488
-12.4046 8.7613 1.8647 0.9406
-22.9274 3.0507 2.8399 0.9110
-66.9055 -34.0731 9.2189 0.7389
-28.6711 -31.5412 5.2337 0.8422
-23.4142 -32.9989 4.9681 0.8495
-18.2229 -33.6410 4.6977 0.8571
-5.1073 -37.7574 4.6782 0.8577
4.1551 -38.7282 4.7825 0.8547
27.3858 -40.9427 6.0480 0.8200
36.2639 -42.1734 6.8294 0.7992
46.4296 -42.3886 7.7193 0.7762
63.1086 6.6327 7.7914 0.7744
59.3944 13.6174 7.4819 0.7823
40.0605 20.1836 5.5078 0.8346
12.9051 8.5916 1.9036 0.9394
10.0724 8.6231 1.6280 0.9480
7.9191 8.6364 1.4387 0.9539
-1.9742 8.6972 1.0950 0.9647
-3.1170 8.7042 1.1352 0.9634
-4.3657 8.7119 1.1965 0.9615
-9.4939 8.7434 1.5847 0.9493
-6.1232 -15.1351 2.0048 0.9363
-9.0969 -33.6836 4.2840 0.8688
26.0648 -39.7078 5.8320 0.8258
45.5592 -42.3238 7.6353 0.7783
58.5965 -42.5385 8.8907 0.7469
60.3902 -24.5844 8.0059 0.7689
65.4725 6.3079 8.0762 0.7671
56.1155 19.6847 7.3017 0.7869
10.2496 8.6220 1.6446 0.9475
8.0572 8.6355 1.4502 0.9535
3.5487 8.6632 1.1495 0.9630
2.3820 8.6704 1.1040 0.9644
1.2887 8.6771 1.0771 0.9653
0.2326 8.6836 1.0666 0.9656
-0.8183 8.6901 1.0717 0.9654
-3.0320 8.7037 1.1317 0.9635
-4.2713 8.7113 1.1913 0.9617
-5.6700 8.7199 1.2771 0.9589
-7.3115 8.7300 1.3982 0.9551
-57.0682 53.4776 9.6028 0.7297
-11.9555 8.7585 1.8197 0.9420
-36.7879 -7.9327 4.6205 0.8593
-51.5170 -25.1216 7.0375 0.7938
-18.9000 -33.4918 4.7219 0.8564
-9.3701 -33.5375 4.2756 0.8691
-2.6212 -84.2189 10.3458 0.7121
27.2064 -79.2027 10.2826 0.7136
20.9032 -43.1034 5.8819 0.8244
35.0049 -42.1659 6.7289 0.8018
44.5777 -42.1373 7.5317 0.7810
57.1019 -42.2140 8.7191 0.7511
58.3598 -33.1005 8.2380 0.7631
36.3322 -15.1590 4.8338 0.8533
62.7997 -17.6923 8.0110 0.7688
33.6172 21.5495 4.9029 0.8514
8.1975 8.6346 1.4619 0.9532
6.3943 8.6103 1.3169 0.9577
4.9336 8.6547 1.2232 0.9606
3.6364 8.6627 1.1536 0.9628
1.6321 5.7454 0.7334 0.9762
1.3656 8.6766 1.0785 0.9652
0.3079 8.6831 1.0668 0.9656
-0.7423 8.6896 1.0708 0.9655
-2.9475 8.7031 1.1282 0.9636
-4.1778 8.7107 1.1862 0.9618
-80.3643 46.0424 11.3722 0.6885
-81.6595 -51.8480 11.8768 0.6772
-62.5930 -65.3615 11.1118 0.6944
-24.2641 -32.3792 4.9681 0.8495
-19.0150 -33.0235 4.6789 0.8576
-14.3037 -33.6650 4.4912 0.8629
-9.7251 -33.6798 4.3043 0.8682
-5.4549 -33.7059 4.1924 0.8714
21.1166 -44.5217 6.0503 0.8199
27.4629 -43.4616 6.3125 0.8129
34.3889 -42.1621 6.6805 0.8031
44.3961 -42.7002 7.5633 0.7802
56.0707 -42.2077 8.6172 0.7536
58.4056 -33.7985 8.2855 0.7619
63.0460 -10.3433 7.8444 0.7730
65.4654 5.1640 8.0631 0.7675
58.7304 19.4655 7.5969 0.7793
42.7587 20.1670 5.8048 0.8265
33.6147 21.1391 4.8757 0.8521
0.3833 8.6827 1.0671 0.9656
-0.6665 8.6891 1.0700 0.9655
-1.7375 8.6957 1.0888 0.9649
-2.8635 8.7026 1.1249 0.9638
-5.4364 8.6865 1.2582 0.9595
-9.0091 8.7404 1.5412 0.9507
-11.5274 8.7559 1.7774 0.9433
-24.5438 -32.1677 4.9681 0.8495
-8.4384 -28.3011 3.6261 0.8878
-4.1494 -85.5795 10.5202 0.7080
24.0789 -38.8475 5.6118 0.8318
43.5916 -42.6599 7.4889 0.7821
54.9208 -42.0927 8.4962 0.7566
65.4619 4.5932 8.0575 0.7676
62.9833 12.1597 7.8762 0.7722
58.8271 18.9336 7.5879 0.7795
10.8036 8.6186 1.6969 0.9458
6.6548 8.6441 1.3395 0.9570
3.8138 8.6616 1.1620 0.9626
1.5200 8.6757 1.0815 0.9651
-0.5907 8.6887 1.0693 0.9655
-2.7800 8.7021 1.1217 0.9639
-3.9931 8.7096 1.1764 0.9621
-14.9388 24.3361 3.5062 0.8913
-6.9316 8.7276 1.3685 0.9561
-8.8532 8.7394 1.5275 0.9511
-11.3207 8.7546 1.7572 0.9440
-68.2737 -31.1225 9.2129 0.7391
-19.0070 -31.7253 4.5410 0.8615
-6.0554 -33.7023 4.2044 0.8711
-13.6323 8.7688 1.4181 0.9370
-18.1668 8.7967 1.7659 0.9222
-15.3798 -31.5875 3.0737 0.8684
-6.8092 -31.6697 2.8341 0.8780
21.0768 -51.0515 4.8321 0.8011
30.8060 -41.9979 4.5568 0.8113
50.5216 -42.2612 5.7626 0.7676
62.8723 -5.8820 5.5246 0.7760
62.9191 1.7232 5.5068 0.7767
57.1903 8.5291 5.0588 0.7928
46.6538 19.1430 4.4119 0.8167
11.7950 8.6125 1.2777 0.9430
9.2365 8.6283 1.1058 0.9505
7.2596 8.6404 0.9873 0.9557
3.0342 8.6664 0.8033 0.9638
1.9042 8.6733 0.7769 0.9650
-0.2191 8.6864 0.7602 0.9657
-2.3753 8.6996 0.7890 0.9644
-4.8504 8.7148 0.8726 0.9607
-17.7675 8.7942 1.7344 0.9235
-22.1487 -33.6270 3.5228 0.8507
-11.2327 -31.6427 2.9376 0.8739
23.0875 -86.0230 7.7924 0.6993
30.3220 -42.0982 4.5390 0.8119
49.6347 -42.2558 5.7030 0.7697
58.0346 -20.7433 5.3919 0.7808
62.8690 -6.4318 5.5290 0.7759
62.9158 1.1776 5.5054 0.7767
57.5274 8.0705 5.0823 0.7920
36.1402 19.8077 3.6056 0.8475
12.0103 8.6112 1.2929 0.9424
7.3876 8.6396 0.9945 0.9554
3.1186 8.6659 0.8058 0.9637
1.9830 8.6728 0.7784 0.9649
0.9070 8.6794 0.7635 0.9656
-3.4627 8.7063 0.8197 0.9631
-10.1854 8.7476 1.1746 0.9475
-17.3170 8.7589 1.6978 0.9250
-22.5673 -33.6244 3.5429 0.8499
-17.1105 -33.6478 3.3026 0.8594
-5.8619 -25.1360 2.2581 0.9016
-1.7597 -16.1624 1.4224 0.9368
22.4602 -86.6787 7.8339 0.6980
21.1411 -53.8340 5.0600 0.7928
29.9550 -42.3580 4.5389 0.8120
38.2112 -42.1691 4.9787 0.7957
47.2181 -40.9094 5.4659 0.7781
58.4297 -29.8721 5.7412 0.7684
62.9124 0.6321 5.5044 0.7768
58.7034 15.0756 5.3025 0.7840
12.2309 8.6099 1.3086 0.9417
9.5613 8.6263 1.1266 0.9496
7.5174 8.6388 1.0019 0.9551
3.2035 8.6653 0.8083 0.9636
2.0621 8.6723 0.7799 0.9648
0.9830 8.6790 0.7642 0.9655
-3.3754 8.7058 0.8169 0.9632
-7.8449 8.7332 1.0271 0.9540
-16.9856 8.7769 1.6727 0.9261
-66.1300 -35.1346 6.5515 0.7403
-22.8914 -33.4768 3.5481 0.8497
-17.4780 -33.6456 3.3171 0.8588
-11.8527 -31.6389 2.9559 0.8731
-1.9050 -16.1919 1.4263 0.9366
22.1440 -88.6143 7.9912 0.6930
37.7351 -42.3759 4.9643 0.7963
58.4258 -30.5116 5.7666 0.7675
62.7630 -23.6678 5.8685 0.7639
62.8140 -15.3680 5.6576 0.7713
58.0901 7.1252 5.1203 0.7906
58.7001 14.5336 5.2907 0.7844
50.2831 19.1207 4.7065 0.8057
9.7284 8.6252 1.1375 0.9491
7.6493 8.6380 1.0095 0.9547
5.9689 8.6483 0.9193 0.9587
4.5449 8.6571 0.8554 0.9615
3.2890 8.6648 0.8108 0.9635
1.0592 8.6785 0.7649 0.9655
0.0068 8.6850 0.7598 0.9657
-0.7094 5.8889 0.5189 0.9765
-2.1336 8.6981 0.7835 0.9647
-7.7085 8.7324 1.0191 0.9543
-9.8329 8.7454 1.1513 0.9485
-12.6376 8.7627 1.3454 0.9401
-22.7249 2.8235 2.0034 0.9122
-64.9123 -33.7698 6.4016 0.7454
-12.1523 -31.6022 2.9622 0.8729
-7.9650 -31.6627 2.8564 0.8771
-4.0023 -31.6521 2.7912 0.8798
20.7551 -86.2261 7.7593 0.7004
20.5923 -55.2311 5.1570 0.7892
60.3895 -42.2615 6.4486 0.7438
58.8703 -31.3961 5.8372 0.7650
62.7592 -24.2896 5.8876 0.7632
62.8105 -15.9453 5.6695 0.7709
62.8588 -8.0868 5.5448 0.7753
62.9057 -0.4581 5.5037 0.7768
51.6035 19.1125 4.8144 0.8018
7.7831 8.6372 1.0172 0.9544
6.0797 8.6477 0.9248 0.9584
4.6407 8.6565 0.8593 0.9613
2.2213 8.6714 0.7831 0.9647
-3.2026 8.7047 0.8115 0.9634
-5.8883 8.7212 0.9206 0.9586
-7.5741 8.7316 1.0113 0.9546
-12.4046 8.7613 1.3287 0.9408
-16.3024 8.7852 1.6202 0.9283
-22.9533 3.0541 2.0258 0.9112
-69.5185 -16.2560 6.2462 0.7508
-23.8525 -33.6165 3.6062 0.8475
-18.2229 -33.6410 3.3473 0.8576
-12.4670 -31.6002 2.9720 0.8725
6.3016 -58.7346 5.1681 0.7888
22.4018 -96.7449 8.6880 0.6712
28.6295 -78.8690 7.3407 0.7140
26.5595 -39.7074 4.1794 0.8255
59.2793 -42.2546 6.3690 0.7465
62.9024 -1.0033 5.5039 0.7768
52.9860 19.1040 4.9278 0.7976
12.9261 8.6056 1.3586 0.9396
10.0724 8.6231 1.1600 0.9482
6.1919 8.6470 0.9305 0.9582
-0.8943 8.6905 0.7643 0.9655
-4.3657 8.7119 0.8525 0.9616
-7.4419 8.7308 1.0037 0.9550
-9.4939 8.7434 1.1292 0.9495
-12.1773 8.7599 1.3124 0.9415
-39.3939 -8.8526 3.5325 0.8503
-24.2911 -33.6138 3.6283 0.8466
-18.6005 -33.6387 3.3630 0.8570
-6.1226 -15.1336 1.4283 0.9366
-8.5502 -31.6591 2.8690 0.8766
-4.5655 -31.6835 2.8006 0.8794
27.2901 -77.2604 7.1687 0.7196
21.6137 -43.6020 4.2576 0.8225
35.6148 -42.1517 4.8279 0.8013
32.7401 -30.4151 3.9097 0.8357
58.8622 -32.7145 5.8917 0.7631
62.8033 -17.1072 5.6948 0.7700
62.8520 -9.1957 5.5574 0.7749
62.8990 -1.5487 5.5046 0.7768
62.9458 6.0645 5.5325 0.7758
62.4117 13.7412 5.5911 0.7737
40.9284 20.1782 3.9923 0.8326
13.1699 8.6041 1.3763 0.9388
8.0572 8.6355 1.0333 0.9537
6.3054 8.6463 0.9362 0.9579
4.8350 8.6553 0.8674 0.9610
3.5487 8.6632 0.8191 0.9631
2.3820 8.6704 0.7867 0.9645
1.2888 8.6771 0.7675 0.9654
0.2326 8.6836 0.7600 0.9657
-0.8183 8.6901 0.7636 0.9656
-1.8950 8.6967 0.7787 0.9649
-3.0320 8.7037 0.8064 0.9637
-5.6700 8.7199 0.9100 0.9591
-54.7149 51.2723 6.5602 0.7400
-11.9555 8.7585 1.2966 0.9422
-81.7520 -52.9065 8.5195 0.6764
-61.2962 -65.1280 7.8247 0.6983
-24.7353 -33.6111 3.6511 0.8457
-18.9000 -33.4918 3.3645 0.8569
-13.1026 -31.5964 2.9926 0.8717
26.6698 -77.6408 7.1823 0.7192
21.3686 -44.0630 4.2844 0.8215
35.1661 -42.3601 4.8167 0.8017
44.6706 -42.2251 5.3778 0.7813
58.8581 -33.3832 5.9200 0.7621
62.7997 -17.6923 5.7081 0.7695
62.8486 -9.7523 5.5643 0.7746
62.9903 13.2973 5.6324 0.7722
57.3959 19.5769 5.3056 0.7839
33.1532 27.4016 3.7630 0.8414
4.9336 8.6547 0.8716 0.9608
3.6364 8.6627 0.8220 0.9630
1.6321 5.7454 0.5225 0.9763
-0.7423 8.6896 0.7630 0.9656
-1.8161 8.6962 0.7772 0.9650
-2.9475 8.7031 0.8039 0.9638
-4.1778 8.7107 0.8452 0.9620
-5.5626 8.7192 0.9049 0.9593
-9.1560 8.7302 1.1068 0.9505
-11.7390 8.7572 1.2813 0.9429
-25.1852 -33.6084 3.6743 0.8448
-19.0150 -33.0235 3.3339 0.8581
-9.1406 -31.6555 2.8826 0.8761
-5.1270 -31.6800 2.8077 0.8791
-3.3519 -84.2144 7.3736 0.7129
25.0974 -39.7180 4.1105 0.8281
34.3742 -42.1441 4.7581 0.8038
55.6854 -41.9177 6.0979 0.7559
58.5570 -25.0299 5.5715 0.7744
62.8451 -10.3103 5.5717 0.7744
62.9390 4.9647 5.5236 0.7761
62.9868 12.7274 5.6220 0.7726
58.7304 19.4655 5.4131 0.7800
13.6770 8.6010 1.4135 0.9372
6.5329 8.6395 0.9476 0.9574
3.7248 8.6621 0.8249 0.9628
1.6791 5.7219 0.5217 0.9763
1.4427 8.6762 0.7695 0.9653
0.3833 8.6827 0.7604 0.9657
-0.6665 8.6891 0.7624 0.9656
-4.0851 8.7101 0.8417 0.9621
-11.5274 8.7559 1.2665 0.9435
-15.0172 8.7773 1.5218 0.9325
-20.3669 8.8102 1.9414 0.9148
-25.5303 -33.4606 3.6822 0.8445
-19.0109 -32.3646 3.2839 0.8601
-9.4380 -31.6536 2.8898 0.8758
-4.0774 -84.0934 7.3659 0.7132
26.1294 -80.5861 7.4117 0.7117
24.7879 -39.9912 4.1164 0.8279
42.0007 -41.1030 5.1414 0.7898
55.1780 -42.2899 6.0822 0.7564
58.6530 -25.6741 5.6016 0.7733
62.8889 -3.1857 5.5091 0.7766
62.9357 4.4160 5.5197 0.7762
62.9833 12.1598 5.6121 0.7729
43.4080 20.0151 4.1820 0.8254
8.4850 8.6329 1.0590 0.9526
6.6548 8.6441 0.9544 0.9571
3.8138 8.6616 0.8280 0.9627
1.5200 8.6757 0.7706 0.9653
-3.9931 8.7096 0.8383 0.9623
-14.9388 24.3361 2.4983 0.8917
-6.9316 8.7276 0.9751 0.9562
-11.3207 8.7546 1.2520 0.9442
-14.7197 8.7755 1.4993 0.9335
-19.0070 -31.7253 3.2356 0.8620
-8.6810 -28.2192 2.5830 0.8882
-5.6914 -31.6766 2.8157 0.8788
-3.2413 -56.6929 4.9681 0.7961
-18.1668 8.7967 1.0578 0.9223
-60.1673 -16.8490 3.2744 0.7786
-58.3501 -42.9953 3.7984 0.7480
-26.2804 -31.5558 2.1522 0.8483
-14.8937 -30.5892 1.7830 0.8726
22.3969 -54.2491 3.0758 0.7905
24.3063 -43.2302 2.5991 0.8198
39.5868 -42.1940 3.0322 0.7931
58.7488 -38.1503 3.6711 0.7553
58.4350 -28.6084 3.4098 0.7706
67.9086 -14.7547 3.6420 0.7570
35.2396 19.7132 2.1162 0.8507
11.7950 8.6125 0.7654 0.9432
9.2365 8.6283 0.6624 0.9506
5.6440 8.6503 0.5413 0.9595
3.0322 8.6605 0.4809 0.9639
1.9008 8.6581 0.4646 0.9651
0.8303 8.6727 0.4566 0.9657
-2.3712 8.6846 0.4718 0.9646
-3.5506 8.7069 0.4928 0.9630
-4.8504 8.7148 0.5227 0.9608
-8.1244 8.7350 0.6252 0.9533
-10.3672 8.7487 0.7109 0.9471
-17.7675 8.7942 1.0390 0.9237
-25.0087 8.8168 1.3897 0.8992
-58.7926 -15.9159 3.1921 0.7835
-82.0824 -33.2653 4.6416 0.7013
-20.7848 -31.5562 1.9803 0.8595
-15.2221 -30.5872 1.7905 0.8721
23.2454 -42.1952 2.5247 0.8245
30.2893 -42.0527 2.7160 0.8125
38.9009 -42.1896 3.0075 0.7946
49.8633 -42.4504 3.4320 0.7693
58.3758 -38.6314 3.6686 0.7555
52.1041 -18.6235 2.8998 0.8012
67.9128 -15.3730 3.6492 0.7566
67.8567 -6.9421 3.5748 0.7609
67.8026 1.2690 3.5540 0.7621
52.2429 7.3291 2.7647 0.8095
47.8119 19.1359 2.6989 0.8136
12.0103 8.6112 0.7745 0.9425
9.3974 8.6273 0.6686 0.9502
7.3876 8.6396 0.5957 0.9555
4.3558 8.6583 0.5079 0.9619
3.1171 8.6615 0.4824 0.9638
0.9062 8.6719 0.4569 0.9657
-0.1437 8.6803 0.4550 0.9658
-3.4627 8.7063 0.4910 0.9632
-4.7516 8.7142 0.5202 0.9610
-6.2259 8.7233 0.5617 0.9580
-13.1040 8.7537 0.8259 0.9388
-17.3170 8.7589 1.0170 0.9252
-24.3840 8.8349 1.3592 0.9013
-20.8763 2.2272 1.1003 0.9193
-27.2153 -31.5501 2.1836 0.8463
-21.1776 -31.5538 1.9916 0.8588
-11.9242 -32.6890 1.8236 0.8699
-1.7596 -16.1611 0.8520 0.9370
22.8071 -88.0175 4.7651 0.6948
21.4111 -54.5213 3.0698 0.7909
23.0381 -42.6900 2.5423 0.8234
58.3714 -39.3601 3.6896 0.7543
67.9169 -15.9940 3.6567 0.7562
56.1033 7.3754 2.9655 0.7972
32.9918 8.4726 1.7851 0.8725
5.8594 8.6490 0.5475 0.9590
-0.0684 8.6799 0.4549 0.9658
-0.7632 5.9042 0.3120 0.9764
-10.0074 8.7465 0.6965 0.9482
-12.8767 8.7642 0.8163 0.9395
-16.9856 8.7769 1.0020 0.9263
-23.7289 8.8309 1.3269 0.9036
-21.5748 -31.5514 2.0032 0.8580
-15.8871 -30.5831 1.8061 0.8711
-1.9047 -16.1894 0.8543 0.9368
22.1774 -88.7480 4.7941 0.6932
20.8254 -54.4110 3.0533 0.7919
22.0028 -41.6309 2.4678 0.8281
29.2149 -42.0802 2.6847 0.8145
46.4308 -40.9371 3.2441 0.7804
35.3683 -24.2974 2.2488 0.8421
67.6361 -16.5478 3.6492 0.7566
67.8646 -8.1335 3.5821 0.7605
67.7566 8.3108 3.5776 0.7608
7.6493 8.6380 0.6047 0.9548
4.5449 8.6571 0.5124 0.9616
3.2885 8.6637 0.4857 0.9636
-0.7092 5.8879 0.3108 0.9765
-2.1291 8.6797 0.4684 0.9648
-3.2887 8.7052 0.4877 0.9634
-4.5569 8.7130 0.5153 0.9614
-16.6504 8.7874 0.9867 0.9274
-23.1040 8.8270 1.2962 0.9057
-28.1471 -31.5093 2.2142 0.8443
-12.1522 -31.6021 1.7744 0.8732
-5.8701 -23.3348 1.2610 0.9081
21.0655 -87.5157 4.7175 0.6973
20.9533 -56.1995 3.1433 0.7864
36.9080 -42.1775 2.9372 0.7989
46.0893 -41.3513 3.2451 0.7803
58.8703 -31.3961 3.4966 0.7655
51.6964 -20.0080 2.9051 0.8009
67.8141 -0.4938 3.5541 0.7621
58.7969 14.0180 3.1677 0.7850
33.2571 12.3175 1.8586 0.8676
9.8987 8.6242 0.6880 0.9488
6.0797 8.6477 0.5540 0.9585
4.6407 8.6565 0.5147 0.9614
1.1344 8.6692 0.4582 0.9656
-0.9696 8.6825 0.4579 0.9656
-2.0495 8.6796 0.4674 0.9649
-12.4046 8.7613 0.7959 0.9410
-16.3024 8.7852 0.9705 0.9285
-22.5073 8.8233 1.2670 0.9077
-28.6711 -31.5412 2.2339 0.8430
-22.3836 -31.5464 2.0272 0.8565
-16.5642 -30.5790 1.8226 0.8700
-6.0916 -23.3582 1.2651 0.9078
-4.6892 -34.6666 1.8333 0.8693
28.5614 -78.6815 4.3868 0.7151
25.7640 -50.8618 2.9880 0.7958
36.2638 -42.1734 2.9150 0.8003
45.8120 -41.8248 3.2510 0.7800
34.0892 -24.2989 2.1939 0.8456
58.8663 -32.0521 3.5127 0.7645
52.1910 -20.7214 2.9429 0.7986
67.8725 -9.3304 3.5905 0.7600
67.8180 -1.0817 3.5546 0.7621
67.7643 7.1220 3.5709 0.7612
59.3945 13.6175 3.1935 0.7834
52.9860 19.1040 2.9519 0.7980
10.0724 8.6231 0.6949 0.9483
6.1919 8.6470 0.5574 0.9583
3.4615 8.6638 0.4889 0.9633
2.2968 8.6533 0.4692 0.9648
1.2107 8.6682 0.4587 0.9655
-0.8935 8.6824 0.4574 0.9656
-1.9703 8.6800 0.4665 0.9650
-3.1162 8.7018 0.4844 0.9637
-4.3657 8.7119 0.5107 0.9617
-5.7785 8.7205 0.5483 0.9590
-15.9658 8.7832 0.9550 0.9296
-21.9372 8.8198 1.2391 0.9096
-39.4208 -8.8587 2.1175 0.8506
-29.1713 -31.5381 2.2515 0.8419
-22.7952 -31.5439 2.0396 0.8557
-9.0156 -33.3824 1.8122 0.8707
-4.8796 -33.8636 1.7930 0.8719
35.6298 -42.1696 2.8932 0.8016
58.8622 -32.7145 3.5293 0.7636
61.5126 -25.0413 3.4806 0.7664
67.8219 -1.6698 3.5555 0.7621
67.7682 6.5291 3.5680 0.7613
62.5455 13.7707 3.3564 0.7737
56.0317 19.6553 3.1119 0.7883
33.2935 16.4141 1.9454 0.8618
8.0572 8.6355 0.6190 0.9538
6.3054 8.6463 0.5608 0.9580
4.8350 8.6553 0.5196 0.9611
1.2873 8.6672 0.4592 0.9655
-1.8915 8.6804 0.4656 0.9650
-5.6699 8.7199 0.5451 0.9592
-7.3115 8.7300 0.5968 0.9554
-15.6397 8.7812 0.9400 0.9307
-36.7813 -7.9312 1.9719 0.8601
-61.1581 -64.9813 4.6767 0.6995
-23.2108 -31.5395 2.0523 0.8548
-17.2538 -30.5748 1.8399 0.8688
-13.1026 -31.5963 1.7926 0.8720
-9.3262 -33.3805 1.8164 0.8704
27.5969 -80.3397 4.4519 0.7116
24.4175 -50.3500 2.9326 0.7992
44.6707 -42.2252 3.2214 0.7818
33.0295 -24.4179 2.1527 0.8483
58.8581 -33.3832 3.5462 0.7626
36.3543 -15.1682 2.0644 0.8540
67.8805 -10.5331 3.6000 0.7595
67.8257 -2.2580 3.5566 0.7620
64.3944 13.5937 3.4491 0.7683
13.4200 8.6025 0.8354 0.9381
8.1975 8.6346 0.6240 0.9534
4.9336 8.6547 0.5221 0.9609
0.3077 8.6774 0.4551 0.9658
-0.7417 8.6823 0.4567 0.9657
-1.8129 8.6808 0.4648 0.9651
-5.5626 8.7192 0.5420 0.9594
-7.1830 8.7292 0.5924 0.9557
-15.3236 8.7792 0.9255 0.9317
-20.8683 8.8133 1.1872 0.9133
-13.2093 -31.0893 1.7703 0.8735
-8.6269 -29.8763 1.6297 0.8829
-3.3519 -84.2144 4.4170 0.7135
28.6824 -85.9149 4.7469 0.6957
34.3887 -42.1619 2.8514 0.8042
42.5634 -40.9376 3.0950 0.7893
33.0268 -24.8612 2.1664 0.8474
58.5570 -25.0299 3.3374 0.7749
66.8558 -19.4620 3.6492 0.7566
67.8845 -11.1371 3.6052 0.7592
67.8296 -2.8468 3.5579 0.7619
67.7759 5.3463 3.5630 0.7616
67.6950 13.6787 3.6194 0.7583
25.7270 8.5269 1.4204 0.8971
42.7587 20.1670 2.4776 0.8275
10.6150 8.6198 0.7166 0.9467
6.5329 8.6395 0.5676 0.9575
3.7248 8.6621 0.4942 0.9629
0.3830 8.6768 0.4552 0.9658
-1.7346 8.6811 0.4639 0.9652
-2.8612 8.6956 0.4798 0.9640
-5.4364 8.6865 0.5370 0.9598
-11.5274 8.7559 0.7586 0.9437
-24.0606 -31.5343 2.0788 0.8531
-4.0774 -84.0934 4.4123 0.7137
23.9093 -51.5590 2.9785 0.7964
25.2758 -40.7784 2.5143 0.8252
32.6811 -40.7849 2.7390 0.8111
41.8535 -40.9590 3.0690 0.7909
33.0240 -25.3105 2.1806 0.8465
58.6530 -25.6741 3.3554 0.7738
67.8885 -11.7428 3.6107 0.7588
67.8335 -3.4362 3.5596 0.7618
67.7797 4.7559 3.5609 0.7617
52.3713 10.1110 2.7953 0.8076
13.9411 8.5993 0.8584 0.9365
8.4850 8.6329 0.6344 0.9527
5.1336 8.6535 0.5273 0.9605
3.8138 8.6616 0.4960 0.9628
1.7340 5.7249 0.3135 0.9763
0.4583 8.6762 0.4553 0.9658
-1.6565 8.6814 0.4632 0.9652
-2.7773 8.6936 0.4783 0.9641
-3.9931 8.7096 0.5021 0.9623
-6.9316 8.7276 0.5841 0.9563
-28.9576 8.8395 1.5867 0.8858
-18.3138 -30.5683 1.8675 0.8670
-11.2670 -25.2908 1.4510 0.8950
-8.7035 -28.2922 1.5513 0.8882
-4.3552 -24.2399 1.2907 0.9061
-10.5527 8.7499 0.2393 0.9466
-25.7614 8.8319 0.4754 0.8968
-81.8905 -12.5757 1.4462 0.7179
-58.4840 -16.3776 1.0601 0.7843
-58.2592 -42.9283 1.2632 0.7486
-25.9531 -31.1628 0.7079 0.8502
-21.6411 -33.4844 0.6959 0.8526
-17.2119 -35.3503 0.6863 0.8545
-10.7709 -31.1965 0.5761 0.8763
-6.7128 -31.2214 0.5574 0.8801
-3.6988 -40.4812 0.7095 0.8499
30.9107 -42.1406 0.9122 0.8113
32.9636 -35.1346 0.8409 0.8247
49.8301 -24.3957 0.9684 0.8009
49.5205 7.3853 0.8739 0.8185
9.2365 8.6283 0.2206 0.9507
7.2596 8.6404 0.1970 0.9559
1.9042 8.6733 0.1550 0.9651
0.8310 8.6799 0.1522 0.9657
-0.2191 8.6864 0.1517 0.9658
-1.2750 8.6782 0.1531 0.9655
-8.1244 8.7350 0.2082 0.9534
-10.3672 8.7487 0.2368 0.9472
-13.3662 8.7623 0.2790 0.9381
-17.7508 8.7860 0.3457 0.9238
-25.0087 8.8168 0.4629 0.8993
-58.3386 -15.7930 1.0549 0.7852
-26.4114 -31.1600 0.7130 0.8492
-22.0531 -33.4819 0.6998 0.8518
-17.5913 -35.3480 0.6892 0.8539
-11.0737 -31.1946 0.5778 0.8760
35.2014 -87.4032 1.6447 0.6859
28.8308 -52.3337 1.0429 0.7874
33.0069 -28.1000 0.7566 0.8408
48.7422 -24.3890 0.9514 0.8041
53.2291 -19.0256 0.9867 0.7976
88.8732 -20.1177 1.5905 0.6945
31.9053 8.4889 0.5763 0.8763
50.2727 20.1207 0.9452 0.8052
12.0103 8.6112 0.2580 0.9426
5.7384 8.6306 0.1809 0.9594
4.3406 8.6282 0.1686 0.9621
3.1037 8.6245 0.1600 0.9640
1.9830 8.6728 0.1553 0.9650
-0.1437 8.6859 0.1516 0.9658
-2.2889 8.6783 0.1567 0.9647
-3.4525 8.6806 0.1631 0.9633
-4.7298 8.6743 0.1725 0.9612
-6.2259 8.7233 0.1871 0.9580
-7.9835 8.7341 0.2065 0.9538
-10.1854 8.7476 0.2344 0.9477
-13.1040 8.7537 0.2751 0.9389
-24.3751 8.8316 0.4525 0.9015
-20.8662 2.2261 0.3663 0.9195
-26.8764 -31.1572 0.7182 0.8482
-17.9739 -35.3456 0.6921 0.8533
-1.7595 -16.1610 0.2838 0.9370
34.3475 -87.4628 1.6402 0.6867
28.9476 -53.6404 1.0639 0.7836
30.2209 -42.7339 0.9136 0.8111
33.0038 -28.5943 0.7622 0.8397
36.0535 -24.3110 0.7590 0.8403
32.9918 8.4726 0.5946 0.8726
5.8465 8.6300 0.1819 0.9592
4.4371 8.6328 0.1694 0.9619
3.1882 8.6240 0.1605 0.9639
0.9830 8.6790 0.1525 0.9657
-0.7629 5.9020 0.1039 0.9765
-3.3672 8.6846 0.1626 0.9634
-4.6324 8.6736 0.1716 0.9614
-10.0074 8.7465 0.2320 0.9482
-16.9746 8.7713 0.3335 0.9264
-22.7680 2.6287 0.4001 0.9124
-56.9732 -14.3684 1.0256 0.7905
-64.3796 -34.2048 1.2725 0.7470
-21.3285 -31.1912 0.6596 0.8597
-18.3599 -35.3433 0.6952 0.8527
-7.5656 -31.2161 0.5607 0.8794
33.4736 -87.4574 1.6346 0.6875
28.8173 -54.5244 1.0765 0.7814
29.6664 -42.7305 0.9080 0.8121
33.0008 -29.0961 0.7679 0.8386
46.6775 -24.3763 0.9192 0.8100
58.7001 14.5336 1.0555 0.7851
37.4690 19.6996 0.7389 0.8442
9.7284 8.6252 0.2269 0.9493
7.6493 8.6380 0.2014 0.9549
5.9558 8.6294 0.1830 0.9589
3.2733 8.6236 0.1610 0.9638
2.1416 8.6719 0.1559 0.9649
0.0068 8.6850 0.1516 0.9659
-2.1285 8.6773 0.1560 0.9649
-4.5359 8.6729 0.1708 0.9616
-5.9995 8.7219 0.1848 0.9585
-9.8329 8.7454 0.2297 0.9487
-16.6143 8.7683 0.3279 0.9276
-21.7259 -31.1887 0.6635 0.8589
-18.6621 -35.1764 0.6950 0.8527
-4.9960 -39.5103 0.6951 0.8527
31.2028 -83.6901 1.5590 0.6995
28.9737 -55.9892 1.1004 0.7771
28.8919 -42.3944 0.8955 0.8144
34.2580 -39.1492 0.9080 0.8121
34.7276 -24.3029 0.7399 0.8440
38.2612 19.6947 0.7511 0.8418
12.6885 8.6070 0.2676 0.9405
9.8987 8.6242 0.2292 0.9488
7.7831 8.6372 0.2029 0.9546
6.0673 8.6300 0.1841 0.9587
4.6301 8.6368 0.1711 0.9616
3.3589 8.6231 0.1615 0.9637
2.2213 8.6714 0.1562 0.9648
0.0821 8.6845 0.1516 0.9659
-0.9706 8.6910 0.1526 0.9656
-2.0488 8.6768 0.1556 0.9650
-3.1950 8.6842 0.1615 0.9637
-5.8883 8.7212 0.1837 0.9588
-7.5741 8.7316 0.2018 0.9548
-9.6618 8.7444 0.2275 0.9492
-12.4046 8.7613 0.2651 0.9411
-16.2657 8.7654 0.3225 0.9287
-56.9176 -13.3095 1.0203 0.7915
-12.4669 -31.6002 0.5930 0.8729
-8.1400 -31.2126 0.5630 0.8789
31.7432 -87.4467 1.6238 0.6892
28.8029 -56.8610 1.1126 0.7749
48.7895 -19.3709 0.9163 0.8106
59.1495 13.5613 1.0592 0.7844
54.3496 19.5956 1.0084 0.7936
40.0605 20.1836 0.7830 0.8357
10.0724 8.6231 0.2314 0.9483
6.1837 8.6355 0.1854 0.9584
3.4451 8.6227 0.1621 0.9635
2.3015 8.6709 0.1566 0.9647
1.2121 8.6776 0.1529 0.9656
0.1573 8.6841 0.1516 0.9658
-0.8943 8.6905 0.1525 0.9657
-1.9695 8.6763 0.1553 0.9650
-3.1097 8.6837 0.1610 0.9638
-4.3454 8.6715 0.1693 0.9619
-7.4419 8.7308 0.2002 0.9551
-9.4939 8.7434 0.2253 0.9497
-12.1773 8.7599 0.2618 0.9418
-21.9372 8.8198 0.4127 0.9097
-39.4477 -8.8647 0.7057 0.8507
-22.5350 -31.1838 0.6716 0.8573
-6.1204 -15.1282 0.2849 0.9368
-8.4291 -31.2108 0.5643 0.8787
-4.9651 -34.4563 0.6076 0.8700
-1.9216 -85.5932 1.4944 0.7100
30.8862 -87.4415 1.6187 0.6900
23.4980 -47.4032 0.9235 0.8092
33.1042 -39.1804 0.8953 0.8145
43.8281 -24.3588 0.8752 0.8182
48.7909 -19.8624 0.9195 0.8100
90.9335 -24.7697 1.6451 0.6859
13.8888 9.0738 0.2896 0.9358
10.2496 8.6220 0.2338 0.9478
4.8240 8.6357 0.1727 0.9612
3.5319 8.6222 0.1626 0.9634
1.2888 8.6771 0.1531 0.9655
-1.8904 8.6758 0.1550 0.9651
-4.2515 8.6709 0.1686 0.9621
-15.6020 8.7600 0.3123 0.9309
-36.7767 -7.9302 0.6567 0.8603
-5.1337 -33.5635 0.5927 0.8730
42.4377 -87.5085 1.6976 0.6777
32.5219 -39.1750 0.8887 0.8157
33.0295 -24.4179 0.7170 0.8485
42.9375 -24.3533 0.8616 0.8208
36.3479 -15.1655 0.6875 0.8542
89.3205 7.8249 1.5651 0.6986
64.1082 13.5333 1.1437 0.7694
57.3959 19.5769 1.0585 0.7846
41.8274 20.1727 0.8106 0.8305
13.9724 8.9567 0.2897 0.9358
13.0190 10.7604 0.2948 0.9347
6.3943 8.6103 0.1872 0.9580
3.6192 8.6218 0.1632 0.9633
1.3656 8.6766 0.1533 0.9655
-0.7423 8.6896 0.1522 0.9657
-1.8125 8.6787 0.1548 0.9652
-2.9405 8.6826 0.1600 0.9640
-5.5626 8.7192 0.1805 0.9595
-11.7390 8.7572 0.2556 0.9431
-15.2909 8.7605 0.3076 0.9319
-20.8447 8.8033 0.3950 0.9135
-74.7308 -6.2206 1.3089 0.7408
-13.9290 -24.1908 0.4872 0.8943
-5.4315 -33.5616 0.5934 0.8728
41.5026 -87.5029 1.6904 0.6788
28.8718 -45.6913 0.9434 0.8056
31.9481 -39.1696 0.8823 0.8169
33.0268 -24.8612 0.7216 0.8476
58.4573 -24.9872 1.1097 0.7754
84.9717 -24.7356 1.5447 0.7018
94.9153 7.4871 1.6619 0.6832
42.7587 20.1670 0.8252 0.8277
6.5329 8.6395 0.1891 0.9576
-0.6665 8.6891 0.1521 0.9657
-1.7348 8.6824 0.1545 0.9652
-2.8567 8.6820 0.1595 0.9641
-5.4364 8.6865 0.1789 0.9598
-11.5274 8.7559 0.2527 0.9437
-14.9982 8.7662 0.3032 0.9329
-74.8691 -5.5795 1.3105 0.7406
-64.4734 -30.0677 1.2417 0.7523
-23.7872 -31.1761 0.6845 0.8548
-19.0109 -32.3646 0.6552 0.8606
-11.0222 -25.3296 0.4822 0.8954
-9.3044 -31.2055 0.5684 0.8779
-5.7300 -33.5598 0.5943 0.8727
30.1572 -93.0085 1.7067 0.6763
31.3825 -39.1643 0.8760 0.8181
58.4536 -25.5868 1.1138 0.7747
26.4750 8.5210 0.4855 0.8947
43.4076 20.0150 0.8343 0.8259
6.6548 8.6441 0.1904 0.9573
3.7959 8.6208 0.1644 0.9630
1.7340 5.7248 0.1044 0.9764
0.4586 8.6822 0.1518 0.9658
-0.5907 8.6887 0.1520 0.9658
-1.6574 8.6860 0.1543 0.9652
-3.9744 8.6689 0.1665 0.9626
-6.9316 8.7276 0.1945 0.9564
-11.3207 8.7546 0.2498 0.9444
-14.7006 8.7641 0.2987 0.9338
-18.9114 -31.5658 0.6423 0.8631
-11.2626 -25.2809 0.4831 0.8952
-8.7291 -28.3754 0.5182 0.8880
-5.6108 -31.2281 0.5538 0.8808
-3.8040 -66.5342 1.1632 0.7660
-8.2675 8.7358 -0.2099 0.9530
-10.5527 8.7499 -0.2393 0.9466
-18.0827 8.7560 -0.3507 0.9228
-25.7953 8.8436 -0.4760 0.8966
-56.1261 5.0057 -0.9836 0.7982
-88.5498 -2.8091 -1.5464 0.7016
-58.2382 -16.3087 -1.0557 0.7851
-74.4246 -30.9154 -1.4067 0.7244
-58.2722 -42.9379 -1.2634 0.7486
-12.9314 -20.0083 -0.4158 0.9091
-9.5664 -19.6480 -0.3814 0.9163
-4.4326 -20.6160 -0.3681 0.9191
-2.0196 -22.1034 -0.3874 0.9150
32.9636 -35.1346 -0.8409 0.8247
37.4505 -24.3196 -0.7794 0.8364
59.2006 -12.8627 -1.0575 0.7848
49.9563 7.4502 -0.8816 0.8170
30.8512 8.4954 -0.5586 0.8798
44.2190 18.1439 -0.8343 0.8260
35.2397 19.7133 -0.7048 0.8508
7.2596 8.6404 -0.1970 0.9559
3.0047 8.5822 -0.1587 0.9643
1.9042 8.6733 -0.1550 0.9651
0.8310 8.6799 -0.1522 0.9657
-1.2750 8.6782 -0.1531 0.9655
-2.3639 8.6579 -0.1567 0.9647
-3.5295 8.6552 -0.1632 0.9633
-4.8022 8.6283 -0.1724 0.9613
-6.3412 8.7240 -0.1883 0.9578
-13.3662 8.7623 -0.2790 0.9381
-25.0087 8.8168 -0.4629 0.8993
-88.5450 -2.0411 -1.5460 0.7016
-58.6923 -15.8888 -1.0613 0.7841
-62.6315 -45.3180 -1.3494 0.7340
-19.6006 -23.1246 -0.5291 0.8858
-9.7006 -19.4924 -0.3800 0.9166
-4.6081 -20.5637 -0.3678 0.9191
-2.1777 -21.7515 -0.3816 0.9163
0.5861 -28.0639 -0.4900 0.8938
35.1913 -87.3780 -1.6442 0.6860
28.3066 -51.3822 -1.0240 0.7908
33.0069 -28.0999 -0.7566 0.8408
36.7347 -24.3099 -0.7689 0.8384
68.9284 -24.6370 -1.2777 0.7461
31.9053 8.4889 -0.5763 0.8763
49.9471 19.9904 -0.9391 0.8064
12.0103 8.6112 -0.2580 0.9426
9.3974 8.6273 -0.2227 0.9502
7.3876 8.6396 -0.1984 0.9555
4.3291 8.6051 -0.1681 0.9622
3.0883 8.5816 -0.1592 0.9642
1.9830 8.6728 -0.1553 0.9650
-0.1437 8.6859 -0.1516 0.9658
-1.2003 8.6924 -0.1532 0.9655
-2.2834 8.6574 -0.1563 0.9648
-4.7045 8.6278 -0.1715 0.9614
-6.2259 8.7233 -0.1871 0.9580
-7.9835 8.7341 -0.2065 0.9538
-10.1854 8.7476 -0.2344 0.9477
-55.8719 12.9022 -1.0009 0.7950
-20.8561 2.2250 -0.3661 0.9195
-74.5820 -29.4758 -1.3998 0.7255
-63.6966 -34.5530 -1.2649 0.7483
-20.1547 -23.3650 -0.5386 0.8839
-13.4715 -20.0720 -0.4220 0.9078
-10.0155 -19.6957 -0.3857 0.9154
-7.0497 -19.3262 -0.3591 0.9210
-1.7595 -16.1608 -0.2838 0.9370
0.3322 -27.2009 -0.4748 0.8969
28.8241 -53.4116 -1.0594 0.7844
35.2497 -38.9008 -0.9163 0.8106
33.0038 -28.5943 -0.7622 0.8397
36.0535 -24.3110 -0.7590 0.8403
47.6921 -24.3825 -0.9349 0.8071
32.9918 8.4726 -0.5946 0.8726
51.1038 19.9413 -0.9575 0.8030
36.7024 19.7043 -0.7271 0.8465
12.2309 8.6099 -0.2611 0.9419
9.5613 8.6263 -0.2248 0.9498
5.8393 8.6193 -0.1817 0.9592
4.4252 8.6097 -0.1690 0.9620
3.1723 8.5810 -0.1597 0.9641
2.0621 8.6723 -0.1556 0.9650
-0.0685 8.6854 -0.1516 0.9658
-0.7627 5.9007 -0.1039 0.9765
-3.3589 8.6633 -0.1622 0.9635
-4.6077 8.6274 -0.1707 0.9616
-6.1120 8.7226 -0.1859 0.9583
-12.8767 8.7642 -0.2719 0.9396
-22.7731 2.6293 -0.4001 0.9124
-65.1470 -34.6125 -1.2877 0.7444
-59.7773 -53.4635 -1.3998 0.7255
-10.1898 -19.6157 -0.3858 0.9154
-11.9188 -31.8153 -0.5930 0.8729
-5.0087 -20.6661 -0.3712 0.9184
24.4776 -35.2568 -0.7492 0.8422
33.0008 -29.0961 -0.7679 0.8386
50.4166 -19.0120 -0.9405 0.8061
52.3806 19.9183 -0.9782 0.7992
37.4690 19.6996 -0.7389 0.8442
7.6493 8.6380 -0.2014 0.9549
4.5224 8.6142 -0.1698 0.9618
1.0592 8.6785 -0.1526 0.9656
0.0068 8.6850 -0.1516 0.9659
-2.1252 8.6640 -0.1557 0.9649
-4.5118 8.6269 -0.1699 0.9618
-5.9995 8.7219 -0.1848 0.9585
-7.7085 8.7324 -0.2033 0.9545
-9.8329 8.7454 -0.2297 0.9487
-22.7412 2.8255 -0.4000 0.9124
-88.5305 0.2612 -1.5453 0.7018
-74.3956 -8.7981 -1.3076 0.7410
-74.4554 -27.9438 -1.3881 0.7275
-62.3284 -42.6751 -1.3185 0.7392
-22.5017 -25.1895 -0.5896 0.8736
-10.4143 -19.6301 -0.3879 0.9149
-12.1522 -31.6021 -0.5910 0.8733
-0.1336 -26.0967 -0.4555 0.9009
49.6432 -12.6026 -0.8940 0.8147
58.7969 14.0180 -1.0551 0.7852
33.2571 12.3175 -0.6190 0.8677
38.2612 19.6947 -0.7511 0.8418
9.8987 8.6242 -0.2292 0.9488
6.0673 8.6300 -0.1841 0.9587
-0.9706 8.6910 -0.1526 0.9656
-3.1871 8.6626 -0.1611 0.9637
-9.6618 8.7444 -0.2275 0.9492
-57.2670 -13.3912 -1.0266 0.7903
-74.5690 -27.2515 -1.3858 0.7279
-10.8359 -20.0042 -0.3971 0.9130
-0.3393 -24.6124 -0.4296 0.9062
30.4950 -84.0082 -1.5599 0.6994
28.8030 -56.8612 -1.1126 0.7749
33.5095 -38.9702 -0.8971 0.8141
32.9944 -30.1228 -0.7798 0.8363
34.0892 -24.2989 -0.7307 0.8458
44.7472 -24.3644 -0.8893 0.8156
50.4104 -20.0144 -0.9467 0.8049
40.0605 20.1836 -0.7830 0.8357
12.9261 8.6056 -0.2711 0.9398
6.1837 8.6355 -0.1854 0.9584
0.1573 8.6841 -0.1516 0.9658
-0.8943 8.6905 -0.1525 0.9657
-3.1020 8.6621 -0.1606 0.9639
-7.4419 8.7308 -0.2002 0.9551
-12.1773 8.7599 -0.2618 0.9418
-21.9372 8.8198 -0.4127 0.9097
-51.3495 13.7485 -0.9279 0.8084
-54.6774 7.7581 -0.9640 0.8018
-88.5208 1.7957 -1.5454 0.7017
-39.4745 -8.8708 -0.7062 0.8506
-62.2018 -41.0232 -1.3006 0.7422
-6.1192 -15.1251 -0.2848 0.9368
-3.0822 -21.3902 -0.3772 0.9172
-0.5371 -23.9211 -0.4176 0.9087
30.8544 -87.3513 -1.6170 0.6903
23.4940 -47.3949 -0.9233 0.8093
32.6924 -30.3707 -0.7789 0.8365
33.4663 -24.2951 -0.7219 0.8475
50.4073 -20.5204 -0.9500 0.8043
48.4058 -13.1854 -0.8757 0.8182
55.8355 19.5865 -1.0328 0.7892
33.2935 16.4141 -0.6479 0.8620
10.2496 8.6220 -0.2338 0.9478
6.3016 8.6410 -0.1867 0.9581
4.8112 8.6127 -0.1722 0.9613
3.5140 8.5786 -0.1618 0.9636
2.3820 8.6704 -0.1569 0.9647
0.2326 8.6836 -0.1516 0.9658
-5.6699 8.7199 -0.1816 0.9592
-11.9555 8.7585 -0.2587 0.9424
-15.5108 8.7088 -0.3105 0.9313
-21.3913 8.8165 -0.4039 0.9116
-54.6743 8.2414 -0.9651 0.8016
-74.4157 -6.8443 -1.3044 0.7416
-36.7698 -7.9288 -0.6566 0.8603
-51.3731 -25.0514 -0.9976 0.7956
-62.1348 -40.2110 -1.2919 0.7437
-15.3439 -20.8499 -0.4519 0.9016
-11.2891 -20.0049 -0.4009 0.9122
-8.0198 -19.3395 -0.3654 0.9197
-0.7449 -23.9339 -0.4180 0.9086
31.2791 -64.4989 -1.2512 0.7507
32.3429 -38.9593 -0.8838 0.8166
32.9879 -31.1820 -0.7923 0.8339
33.0295 -24.4179 -0.7170 0.8485
42.9375 -24.3533 -0.8616 0.8208
41.8274 20.1727 -0.8106 0.8305
13.4863 11.1466 -0.3054 0.9324
8.1975 8.6346 -0.2078 0.9535
4.9093 8.6121 -0.1730 0.9611
3.6008 8.5780 -0.1624 0.9635
1.6320 5.7452 -0.1043 0.9764
1.3656 8.6766 -0.1533 0.9655
0.3079 8.6831 -0.1517 0.9658
-0.7423 8.6896 -0.1522 0.9657
-2.9333 8.6612 -0.1596 0.9641
-5.5626 8.7192 -0.1805 0.9595
-11.7390 8.7572 -0.2556 0.9431
-15.2248 8.7226 -0.3063 0.9322
-20.5907 8.6960 -0.3901 0.9145
-74.3891 -6.1921 -1.3029 0.7418
-39.6359 -8.1880 -0.7064 0.8505
-74.4423 -25.0316 -1.3709 0.7304
-48.7650 -23.2587 -0.9431 0.8056
-61.7891 -39.2317 -1.2775 0.7462
-15.6376 -20.8675 -0.4552 0.9009
-11.5324 -20.0285 -0.4034 0.9117
-8.2660 -19.4549 -0.3690 0.9189
-3.4384 -21.2459 -0.3757 0.9175
-0.9007 -22.6296 -0.3953 0.9134
30.0850 -90.1163 -1.6583 0.6838
38.1413 -80.4161 -1.5535 0.7004
23.1215 -36.5911 -0.7555 0.8410
31.7722 -38.9540 -0.8774 0.8178
33.0268 -24.8612 -0.7216 0.8476
58.5570 -25.0299 -1.1116 0.7751
39.2383 18.5066 -0.7573 0.8407
14.0561 8.8394 -0.2898 0.9357
8.3401 8.6338 -0.2095 0.9531
3.6883 8.5774 -0.1630 0.9633
1.4427 8.6762 -0.1535 0.9654
-0.6665 8.6891 -0.1521 0.9657
-2.8497 8.6607 -0.1591 0.9642
-5.4364 8.6865 -0.1789 0.9598
-11.5274 8.7559 -0.2527 0.9437
-51.3381 15.1864 -0.9345 0.8072
-54.6681 9.2123 -0.9677 0.8011
-76.1695 -5.6764 -1.3332 0.7367
-74.4768 -24.3268 -1.3676 0.7309
-16.1099 -21.1140 -0.4636 0.8992
-8.4226 -19.3556 -0.3685 0.9190
-1.0983 -22.6517 -0.3958 0.9133
40.5765 -87.5010 -1.6836 0.6799
28.8662 -46.5710 -0.9564 0.8032
33.0240 -25.3105 -0.7263 0.8467
41.2371 -24.3429 -0.8358 0.8257
88.4888 -15.3061 -1.5675 0.6982
96.9011 6.7992 -1.6956 0.6780
50.5933 9.7677 -0.8994 0.8137
26.0938 8.3983 -0.4785 0.8961
39.8960 18.3958 -0.7668 0.8388
14.1398 8.7219 -0.2900 0.9357
8.4850 8.6329 -0.2113 0.9527
6.6548 8.6441 -0.1904 0.9573
5.1083 8.6107 -0.1748 0.9607
1.5200 8.6757 -0.1537 0.9654
-0.5907 8.6887 -0.1520 0.9658
-1.6574 8.6860 -0.1543 0.9652
-2.7666 8.6602 -0.1587 0.9643
-14.9388 24.3362 -0.4984 0.8920
-6.9316 8.7276 -0.1945 0.9564
-8.8532 8.7394 -0.2171 0.9514
-11.3207 8.7546 -0.2498 0.9444
-14.6331 8.7239 -0.2974 0.9341
-19.6950 8.7230 -0.3760 0.9174
-28.9576 8.8395 -0.5285 0.8859
-55.8902 9.9171 -0.9908 0.7969
-55.9172 3.0755 -0.9775 0.7993
-69.1663 -4.5520 -1.2099 0.7578
-48.4253 -9.1316 -0.8602 0.8211
-65.1942 -29.7187 -1.2506 0.7508
-61.3632 -37.4849 -1.2551 0.7500
-16.6966 -21.4942 -0.4751 0.8968
-11.2582 -25.2709 -0.4829 0.8952
-3.8122 -21.2174 -0.3763 0.9174
-8.2675 8.7358 -0.6303 0.9530
-13.6048 8.7511 -0.8478 0.9373
-23.7260 8.1341 -1.3145 0.9044
-45.1002 -1.4308 -2.3648 0.8347
-43.1650 -12.0877 -2.3492 0.8356
-41.5536 -23.4823 -2.5014 0.8260
-38.4249 -28.3134 -2.5014 0.8260
-34.7374 -32.7328 -2.5014 0.8260
-18.6497 -22.3934 -1.5273 0.8898
-12.7420 -19.7153 -1.2302 0.9103
-9.4577 -19.4247 -1.1323 0.9171
-4.3982 -20.4563 -1.0966 0.9196
0.8353 -28.2623 -1.4818 0.8929
18.2141 -44.1176 -2.5014 0.8260
22.8128 -40.5739 -2.4394 0.8299
32.9055 -27.5254 -2.2483 0.8421
37.2875 -24.2137 -2.3300 0.8369
47.5221 -4.4459 -2.5014 0.8260
47.7118 1.3067 -2.5014 0.8260
44.3352 6.6119 -2.3492 0.8356
5.6170 8.6089 -0.5387 0.9597
-1.2750 8.6782 -0.4597 0.9655
-4.7765 8.5821 -0.5147 0.9614
-8.1244 8.7350 -0.6252 0.9533
-17.7208 8.7711 -1.0362 0.9239
-23.7246 8.3641 -1.3184 0.9041
-35.1740 3.4445 -1.8522 0.8680
-45.1186 -1.0401 -2.3652 0.8346
-42.6156 -6.1668 -2.2566 0.8416
-43.2681 -11.7132 -2.3492 0.8356
-41.7556 -23.1213 -2.5014 0.8260
-13.0531 -19.8177 -1.2436 0.9093
-9.6050 -19.3003 -1.1298 0.9173
-6.8180 -19.2063 -1.0681 0.9216
0.5774 -27.6484 -1.4493 0.8951
6.7333 -47.2523 -2.5014 0.8260
26.1982 -36.3728 -2.3492 0.8356
32.9026 -28.0111 -2.2646 0.8411
36.5828 -24.2094 -2.2990 0.8389
47.4818 -4.8576 -2.5014 0.8260
44.3908 6.2275 -2.3492 0.8356
31.9053 8.4889 -1.7303 0.8761
29.0948 15.9463 -1.7388 0.8756
12.0103 8.6112 -0.7745 0.9425
3.0730 8.5391 -0.4756 0.9643
1.9830 8.6728 -0.4663 0.9650
0.9070 8.6794 -0.4573 0.9656
-0.1437 8.6859 -0.4553 0.9658
-1.2003 8.6924 -0.4599 0.9655
-2.2832 8.6566 -0.4692 0.9648
-6.2259 8.7233 -0.5617 0.9580
-13.1040 8.7537 -0.8259 0.9388
-16.9887 8.5928 -0.9977 0.9266
-45.1299 -0.6491 -2.3654 0.8346
-43.3680 -11.3378 -2.3492 0.8356
-44.2899 -17.5040 -2.4958 0.8263
-38.9098 -27.6432 -2.5014 0.8260
-19.9008 -23.0707 -1.5968 0.8851
-13.3671 -19.9166 -1.2571 0.9084
-9.8379 -19.3463 -1.1375 0.9167
-4.7371 -20.3126 -1.0931 0.9198
-1.7595 -16.1607 -0.8520 0.9370
0.3265 -26.7331 -1.4011 0.8984
6.3236 -47.3088 -2.5014 0.8260
17.4468 -44.4267 -2.5014 0.8260
22.6242 -41.9230 -2.4966 0.8263
23.6108 -33.3869 -2.1431 0.8489
32.8995 -28.5039 -2.2813 0.8400
35.8965 -24.2052 -2.2690 0.8408
47.4379 -5.2689 -2.5014 0.8260
47.7272 0.4796 -2.5014 0.8260
44.4431 5.8426 -2.3492 0.8356
32.9918 8.4726 -1.7851 0.8725
21.9592 8.5687 -1.2353 0.9099
29.6957 15.9426 -1.7664 0.8737
12.2309 8.6099 -0.7839 0.9418
9.5613 8.6263 -0.6749 0.9497
3.1566 8.5384 -0.4771 0.9642
0.9830 8.6790 -0.4578 0.9656
-0.0685 8.6854 -0.4552 0.9658
-0.7625 5.8993 -0.3117 0.9765
-2.2041 8.6604 -0.4683 0.9648
-3.3507 8.6420 -0.4858 0.9636
-6.1120 8.7226 -0.5582 0.9582
-7.8449 8.7332 -0.6152 0.9541
-10.0074 8.7465 -0.6965 0.9482
-12.8767 8.7642 -0.8163 0.9395
-44.2984 10.6347 -2.3875 0.8332
-22.7781 2.6299 -1.2017 0.9122
-45.1450 -0.2581 -2.3660 0.8346
-41.7799 -5.3084 -2.2072 0.8448
-39.8421 -10.0480 -2.1534 0.8482
-42.1500 -22.3942 -2.5014 0.8260
-39.1479 -27.3050 -2.5014 0.8260
-35.5765 -31.8188 -2.5014 0.8260
-20.4811 -23.3314 -1.6270 0.8831
5.9135 -47.3619 -2.5014 0.8260
17.0612 -44.5762 -2.5014 0.8260
22.3028 -42.1984 -2.5014 0.8260
25.5639 -36.8214 -2.3492 0.8356
29.8103 -33.4765 -2.3492 0.8356
31.2257 -27.5311 -2.1817 0.8464
41.9424 -15.8164 -2.3492 0.8356
46.3622 -11.3429 -2.5014 0.8260
44.4921 5.4573 -2.3492 0.8356
7.6493 8.6380 -0.6047 0.9548
2.1416 8.6719 -0.4681 0.9649
-0.7089 5.8849 -0.3106 0.9765
-2.1252 8.6640 -0.4675 0.9649
-7.7085 8.7324 -0.6104 0.9544
-16.3434 8.6253 -0.9685 0.9287
-22.7664 2.8287 -1.2023 0.9122
-45.1566 0.1332 -2.3666 0.8345
-41.6179 -4.9217 -2.1963 0.8455
-39.3439 -9.5606 -2.1219 0.8503
-39.3830 -26.9648 -2.5014 0.8260
-35.8509 -31.5092 -2.5014 0.8260
-10.2913 -19.3983 -1.1508 0.9158
-7.2788 -18.9288 -1.0628 0.9220
-5.0762 -20.1788 -1.0905 0.9200
-2.6963 -21.3234 -1.1264 0.9175
-0.1281 -25.0261 -1.3116 0.9046
5.5028 -47.4114 -2.5014 0.8260
16.6742 -44.7224 -2.5014 0.8260
29.5190 -33.7335 -2.3492 0.8356
39.5523 -21.0936 -2.3492 0.8356
41.8038 -16.1793 -2.3492 0.8356
46.2622 -11.7443 -2.5014 0.8260
44.5377 5.0714 -2.3492 0.8356
43.6034 10.3957 -2.3492 0.8356
23.1252 8.5649 -1.2924 0.9059
28.1667 14.4986 -1.6602 0.8808
12.6885 8.6070 -0.8035 0.9404
7.7831 8.6372 -0.6093 0.9545
6.0673 8.6300 -0.5529 0.9586
4.6058 8.5914 -0.5109 0.9617
3.3253 8.5369 -0.4801 0.9640
0.0821 8.6845 -0.4552 0.9658
-0.6632 5.9390 -0.3132 0.9763
-5.8883 8.7212 -0.5515 0.9587
-7.5741 8.7316 -0.6058 0.9548
-12.4046 8.7613 -0.7959 0.9410
-21.0122 8.2373 -1.1828 0.9136
-27.9244 7.2180 -1.5116 0.8909
-35.1665 4.6792 -1.8592 0.8675
-43.2116 -15.7918 -2.4111 0.8317
-39.6152 -26.6225 -2.5014 0.8260
-36.1226 -31.1974 -2.5014 0.8260
-24.1797 -26.6001 -1.8839 0.8659
-14.2469 -20.0789 -1.2903 0.9061
-7.4601 -18.9095 -1.0653 0.9218
-5.2327 -20.0645 -1.0867 0.9203
-0.3339 -24.2215 -1.2695 0.9075
21.5682 -42.5786 -2.5014 0.8260
39.3681 -21.4355 -2.3492 0.8356
47.2849 -6.5003 -2.5014 0.8260
47.7236 -0.7612 -2.5014 0.8260
44.5799 4.6854 -2.3492 0.8356
43.6919 10.0173 -2.3492 0.8356
10.0724 8.6231 -0.6949 0.9483
2.3015 8.6709 -0.4702 0.9647
1.2121 8.6776 -0.4592 0.9655
0.1573 8.6841 -0.4552 0.9658
-0.8943 8.6905 -0.4579 0.9656
-1.9684 8.6714 -0.4660 0.9650
-3.0943 8.6407 -0.4810 0.9639
-35.1649 4.9895 -1.8614 0.8674
-43.7448 -4.4060 -2.3042 0.8385
-38.2957 -8.6058 -2.0570 0.8545
-42.7727 -15.2127 -2.3792 0.8337
-39.8445 -26.2781 -2.5014 0.8260
-14.6725 -20.3037 -1.3128 0.9045
-10.7462 -19.4344 -1.1638 0.9149
-6.1180 -15.1221 -0.8549 0.9367
-5.3908 -19.9608 -1.0836 0.9205
-0.5281 -23.5203 -1.2330 0.9101
4.6804 -47.4996 -2.5014 0.8260
10.3638 -46.5909 -2.5014 0.8260
28.9300 -34.2400 -2.3492 0.8356
39.1808 -21.7759 -2.3492 0.8356
41.5171 -16.9013 -2.3492 0.8356
47.1421 4.5419 -2.4820 0.8272
43.7770 9.6384 -2.3492 0.8356
4.7985 8.5899 -0.5157 0.9614
3.5001 8.5448 -0.4839 0.9637
2.3820 8.6704 -0.4712 0.9646
1.2888 8.6771 -0.4597 0.9655
-7.3115 8.7300 -0.5968 0.9554
-15.4430 8.6707 -0.9282 0.9315
-20.8085 8.5763 -1.1795 0.9138
-44.8642 6.7626 -2.3778 0.8338
-35.8135 1.0371 -1.8777 0.8663
-36.6333 -7.8993 -1.9640 0.8606
-42.9007 -20.9200 -2.5014 0.8260
-40.0706 -25.9320 -2.5014 0.8260
-36.6579 -30.5666 -2.5014 0.8260
-30.7216 -32.6421 -2.3492 0.8356
-15.1516 -20.5885 -1.3397 0.9027
-11.1121 -19.6914 -1.1850 0.9134
-3.2233 -21.0738 -1.1173 0.9182
-0.7131 -22.9096 -1.2012 0.9123
15.5060 -45.1407 -2.5014 0.8260
24.2724 -37.6852 -2.3492 0.8356
32.5756 -30.7922 -2.3492 0.8356
32.9251 -24.3408 -2.1459 0.8487
38.9906 -22.1147 -2.3492 0.8356
43.4569 -12.2429 -2.3661 0.8346
47.7032 -1.5881 -2.5014 0.8260
43.8589 9.2587 -2.3492 0.8356
28.0898 9.5810 -1.5554 0.8879
28.1511 13.5769 -1.6380 0.8823
6.3943 8.6103 -0.5621 0.9580
4.8962 8.5891 -0.5181 0.9612
1.6320 5.7452 -0.3130 0.9764
1.3656 8.6766 -0.4603 0.9654
0.3079 8.6831 -0.4553 0.9658
-1.8125 8.6787 -0.4646 0.9651
-4.1268 8.6043 -0.5001 0.9625
-5.5626 8.7192 -0.5420 0.9594
-9.1560 8.7302 -0.6630 0.9506
-15.1592 8.6850 -0.9156 0.9324
-24.9558 7.1476 -1.3605 0.9012
-45.1674 1.6996 -2.3688 0.8344
-38.8421 -8.0240 -2.0786 0.8531
-43.0804 -20.5474 -2.5014 0.8260
-36.9213 -30.2479 -2.5014 0.8260
-31.0034 -32.3746 -2.3492 0.8356
-15.4714 -20.6458 -1.3521 0.9018
-5.7865 -20.0397 -1.0931 0.9198
-0.8836 -22.2001 -1.1644 0.9149
15.1143 -45.2733 -2.5014 0.8260
23.1215 -36.5911 -2.2684 0.8408
32.9224 -24.7827 -2.1596 0.8478
38.7976 -22.4516 -2.3492 0.8356
41.2179 -17.6184 -2.3492 0.8356
47.1000 -7.7272 -2.5014 0.8260
47.5818 3.7533 -2.5014 0.8260
43.9375 8.8782 -2.3492 0.8356
28.1461 13.2750 -1.6309 0.8828
14.0561 8.8394 -0.8702 0.9357
8.3401 8.6338 -0.6291 0.9531
3.6778 8.5529 -0.4879 0.9634
1.6791 5.7217 -0.3125 0.9764
1.4427 8.6762 -0.4609 0.9654
-1.7348 8.6824 -0.4640 0.9652
-5.4364 8.6865 -0.5370 0.9598
-7.0564 8.7284 -0.5882 0.9560
-9.0091 8.7404 -0.6578 0.9510
-11.5274 8.7559 -0.7586 0.9437
-19.9661 8.6368 -1.1401 0.9166
-24.1573 7.1460 -1.3203 0.9040
-44.9398 -3.3491 -2.3617 0.8348
-39.1209 -7.7288 -2.0899 0.8524
-42.6100 -13.9180 -2.3492 0.8356
-43.2569 -20.1733 -2.5014 0.8260
-40.5141 -25.2335 -2.5014 0.8260
-31.2826 -32.1049 -2.3492 0.8356
-15.8400 -20.7603 -1.3685 0.9007
-11.5432 -19.6515 -1.1944 0.9128
-5.8722 -19.6945 -1.0770 0.9210
-3.5417 -20.7431 -1.1028 0.9192
-1.0711 -22.0911 -1.1591 0.9152
9.1492 -46.8446 -2.5014 0.8260
14.7214 -45.4026 -2.5014 0.8260
20.0796 -43.3005 -2.5014 0.8260
23.6157 -38.1002 -2.3492 0.8356
32.0369 -31.3522 -2.3492 0.8356
38.6015 -22.7870 -2.3492 0.8356
41.0638 -17.9748 -2.3492 0.8356
40.3705 -12.1325 -2.2092 0.8446
44.0127 8.4972 -2.3492 0.8356
28.1413 12.9758 -1.6240 0.8833
14.1398 8.7219 -0.8707 0.9356
8.4850 8.6329 -0.6344 0.9527
1.7340 5.7247 -0.3135 0.9763
-0.5907 8.6887 -0.4564 0.9657
-2.7598 8.6390 -0.4753 0.9643
-3.9488 8.6130 -0.4966 0.9628
-8.8532 8.7394 -0.6520 0.9514
-44.7350 7.9377 -2.3811 0.8336
-45.1515 2.4834 -2.3699 0.8343
-43.4301 -19.7976 -2.5014 0.8260
-40.7312 -24.8815 -2.5014 0.8260
-37.4401 -29.6034 -2.5014 0.8260
-8.5339 -19.1560 -1.0990 0.9194
2.8469 -44.7350 -2.3492 0.8356
-13.5497 8.7157 -1.4095 0.9374
-23.2743 7.9793 -2.1526 0.9059
-26.2681 5.5883 -2.3496 0.8978
-22.0177 1.9637 -1.9339 0.9151
-28.2599 -4.3398 -2.5014 0.8915
-27.5320 -7.7099 -2.5014 0.8915
-26.4038 -10.9679 -2.5014 0.8915
-12.6647 -19.5956 -2.0413 0.9106
