ply
format ascii 1.0
element vertex 1569
property float32 x
property float32 y
property float32 z
property float32 I
end_header
65.4485 -3.3635 8.0466 0.7679
60.9826 19.5548 7.8633 0.7725
43.8597 20.1602 5.9269 0.8232
36.0336 22.1620 5.1942 0.8433
8.5109 8.6327 1.4885 0.9523
6.6774 8.6440 1.3411 0.9569
3.8331 8.6615 1.1630 0.9625
2.6445 8.6688 1.1128 0.9641
1.5388 8.6756 1.0819 0.9651
-0.5704 8.6885 1.0691 0.9655
-2.7554 8.7020 1.1208 0.9639
-3.9649 8.7094 1.1750 0.9622
-5.3180 8.7177 1.2538 0.9597
-17.5202 22.1914 3.4716 0.8923
-20.3693 -33.6379 4.8284 0.8534
-15.1907 -33.6596 4.5343 0.8617
-2.5185 -40.3840 4.9682 0.8495
32.2994 -41.5304 6.4599 0.8089
42.0261 -42.3496 7.3257 0.7863
60.7978 -37.1192 8.7464 0.7505
60.8032 -27.7077 8.2043 0.7639
65.4743 -4.3231 8.0567 0.7676
45.5769 20.1497 6.1186 0.8181
36.0292 21.4414 5.1479 0.8445
11.1626 8.6164 1.7314 0.9448
8.7612 8.6312 1.5101 0.9516
6.8800 8.6428 1.3564 0.9565
0.6050 8.6813 1.0685 0.9655
-1.5060 8.6943 1.0834 0.9651
-2.6162 8.7011 1.1156 0.9640
-3.8122 8.7085 1.1672 0.9624
-5.1445 8.7167 1.2428 0.9600
-6.6850 8.7261 1.3497 0.9567
-8.5452 8.7375 1.5006 0.9519
-10.8617 8.7113 1.7096 0.9454
-57.7914 -17.1467 7.4016 0.7843
-21.0432 -33.6338 4.8714 0.8522
-10.4050 -31.6129 4.0864 0.8745
-2.7018 -35.0785 4.3199 0.8678
22.9094 -53.3908 7.1336 0.7913
29.7857 -39.4731 6.0717 0.8193
40.6569 -42.1827 7.1935 0.7897
52.1630 -42.4646 8.2588 0.7626
65.3312 -21.7673 8.4552 0.7577
65.3746 -13.3247 8.1920 0.7642
65.5319 10.6147 8.1512 0.7653
61.1319 17.6537 7.8128 0.7738
46.0178 19.5475 6.1389 0.8175
11.5029 8.6143 1.7645 0.9437
8.9787 8.5910 1.5258 0.9512
7.0874 8.6415 1.3723 0.9560
2.9229 8.6671 1.1231 0.9638
0.7323 8.6805 1.0696 0.9655
-0.3163 8.6870 1.0673 0.9656
-1.3757 8.6935 1.0807 0.9652
-3.6614 8.7075 1.1598 0.9626
-8.2980 8.7360 1.4794 0.9526
-10.5898 8.7501 1.6867 0.9461
-79.5138 27.1388 10.3161 0.7128
-80.1941 -12.3903 9.9634 0.7211
-79.6293 -33.1414 10.5902 0.7064
-61.7065 -34.9174 8.7055 0.7515
-26.2391 -31.5210 5.0358 0.8477
-21.7293 -33.6296 4.9161 0.8510
-16.3145 -33.5077 4.5760 0.8605
-8.7672 -25.3841 3.2974 0.8974
-6.0854 -28.2724 3.5509 0.8900
25.6217 -45.6669 6.4294 0.8098
29.0759 -39.7240 6.0444 0.8200
39.4797 -42.1754 7.0933 0.7923
64.9290 -42.2894 9.5141 0.7318
65.4127 -14.3292 8.2221 0.7635
65.3365 -6.2325 8.0587 0.7676
65.4668 1.6663 8.0409 0.7680
90.9158 13.3685 11.2831 0.6905
61.3264 16.7451 7.8056 0.7740
-10.0317 -31.6152 2.9019 0.8753
-5.9836 -31.6748 2.8202 0.8786
-2.1001 -31.6986 2.7793 0.8802
26.3075 -86.4226 7.9035 0.6958
32.6935 -42.3745 4.6824 0.8066
41.5436 -42.1888 5.1802 0.7884
53.0838 -42.2769 5.9371 0.7615
61.2442 -37.7181 6.2928 0.7492
65.2439 -12.5716 5.8131 0.7658
65.2931 -4.5651 5.7264 0.7689
65.3416 3.3187 5.7240 0.7690
65.3908 11.3121 5.8059 0.7661
45.8208 20.0459 4.3756 0.8181
11.2517 8.6159 1.2399 0.9447
8.8000 8.6024 1.0766 0.9518
5.3721 8.6520 0.8910 0.9599
4.0254 8.6603 0.8355 0.9624
-0.4095 8.6875 0.7609 0.9657
-1.4714 8.6941 0.7714 0.9652
-2.5794 8.7009 0.7940 0.9642
-5.0989 8.7164 0.8835 0.9603
-79.3849 -13.1375 7.0397 0.7239
-57.8833 -16.9304 5.2762 0.7849
-2.5647 -31.6958 2.7821 0.8801
0.6441 -16.1712 1.4159 0.9371
25.4306 -88.1360 8.0255 0.6919
22.9138 -53.9766 5.1302 0.7902
49.8544 -40.9073 5.6421 0.7719
60.7883 -38.6714 6.3033 0.7488
60.6162 -20.4575 5.5971 0.7735
65.2872 -5.5226 5.7323 0.7687
61.5694 2.2275 5.3901 0.7808
60.5771 9.5717 5.3656 0.7817
61.3307 17.4543 5.5788 0.7741
15.0642 8.5924 1.5173 0.9327
4.1796 8.6593 0.8412 0.9621
0.7661 8.6803 0.7624 0.9656
-1.3411 8.6933 0.7696 0.9653
-4.9291 8.7153 0.8760 0.9606
-6.4318 8.7246 0.9483 0.9574
-10.5061 8.7496 1.1962 0.9466
-13.5638 8.7684 1.4130 0.9372
-18.0553 8.7960 1.7571 0.9225
-21.9136 -33.6285 3.5116 0.8512
-15.5307 -31.5866 3.0794 0.8682
-8.8535 -25.3159 2.3464 0.8979
8.6246 -58.7441 5.1945 0.7879
24.3837 -89.3815 8.1056 0.6893
22.9125 -56.2403 5.3131 0.7836
28.7463 -39.5946 4.2808 0.8216
48.5848 -41.0657 5.5656 0.7746
64.3774 -42.2861 6.7387 0.7340
65.2317 -14.5544 5.8474 0.7646
47.4699 19.1380 4.4779 0.8142
15.5824 8.5893 1.5567 0.9310
7.3569 8.6398 0.9928 0.9555
4.3359 8.6584 0.8472 0.9619
-0.1558 8.6860 0.7600 0.9657
-4.7621 8.7143 0.8688 0.9609
-10.1976 8.7477 1.1755 0.9475
-62.4453 -33.8297 6.2135 0.7519
-16.5994 -32.5523 3.1969 0.8635
-11.5879 -31.6457 2.9484 0.8734
-3.4972 -31.6901 2.7894 0.8798
28.0562 -39.8540 4.2641 0.8223
48.0919 -41.8667 5.5785 0.7741
65.1728 -24.1346 6.0803 0.7565
65.2255 -15.5550 5.8665 0.7640
65.2754 -7.4445 5.7479 0.7681
65.3240 0.4568 5.7153 0.7693
60.4593 7.7532 5.3328 0.7829
12.3247 8.6093 1.3153 0.9414
7.5758 8.6385 1.0052 0.9549
4.4945 8.6574 0.8534 0.9616
3.2448 8.6651 0.8095 0.9635
2.1016 8.6721 0.7807 0.9648
-2.1697 8.6984 0.7843 0.9646
-3.3265 8.7055 0.8153 0.9633
-6.0456 8.7222 0.9285 0.9583
-9.8996 8.7459 1.1557 0.9483
-12.7257 8.7632 1.3518 0.9398
-16.7779 8.7881 1.6570 0.9268
-18.4245 2.2375 1.6239 0.9282
-58.2811 -14.3119 5.2504 0.7859
-7.9053 -31.6121 2.8509 0.8774
-0.3324 -84.2329 7.3695 0.7130
6.8819 -58.7515 5.1752 0.7886
29.0188 -77.6357 7.2512 0.7169
27.2466 -39.9286 4.2291 0.8236
36.9288 -42.1598 4.9034 0.7985
47.1153 -42.2401 5.5361 0.7756
60.4370 -42.2715 6.4526 0.7437
64.6897 -25.0344 6.0686 0.7569
65.3182 -0.4960 5.7148 0.7693
61.1128 14.5355 5.4958 0.7771
51.7050 19.1119 4.8227 0.8014
16.6363 8.5473 1.6363 0.9277
12.6928 8.5937 1.3411 0.9403
9.9184 8.6241 1.1499 0.9486
7.8004 8.6371 1.0182 0.9543
3.3894 8.6642 0.8140 0.9633
1.1500 8.6757 0.7657 0.9655
0.0976 8.6844 0.7598 0.9657
-0.9538 8.6909 0.7649 0.9655
-2.0352 8.6975 0.7815 0.9648
-3.1815 8.7046 0.8108 0.9635
-4.4361 8.7123 0.8553 0.9615
-7.5362 8.7313 1.0091 0.9547
-9.6114 8.7441 1.1368 0.9492
-20.3203 2.7690 1.7942 0.9210
-49.1752 -24.8133 4.8189 0.8016
-24.0634 -33.6153 3.6168 0.8471
-12.6437 -31.6393 2.9809 0.8721
28.7074 -80.3566 7.4655 0.7099
25.3695 -50.7362 4.9628 0.7963
26.2679 -39.7267 4.1667 0.8259
34.9200 -41.0595 4.7157 0.8054
44.5401 -41.1186 5.3034 0.7840
65.3123 -1.4487 5.7155 0.7693
61.1070 13.5956 5.4769 0.7777
54.0781 19.0973 5.0176 0.7943
39.9300 19.7844 3.8987 0.8362
4.1542 5.7146 0.6181 0.9720
4.8157 8.6495 0.8661 0.9610
-0.8257 8.6901 0.7637 0.9656
-1.9017 8.6967 0.7788 0.9649
-3.0260 8.6694 0.8034 0.9638
-17.8812 -31.5722 3.1744 0.8644
-1.0504 -31.7050 2.7754 0.8804
24.2707 -50.3618 4.8911 0.7989
43.6346 -41.4777 5.2671 0.7853
56.6298 -42.1205 6.1747 0.7532
65.2576 -10.3515 5.7807 0.7670
65.3064 -2.4018 5.7174 0.7692
58.1090 19.5725 5.3645 0.7818
13.5393 8.6018 1.4034 0.9376
8.2676 8.6342 1.0459 0.9531
6.4793 8.6452 0.9452 0.9575
36.7904 63.8687 6.4485 0.7438
3.6834 8.6624 0.8235 0.9629
1.6985 5.8734 0.5349 0.9757
1.4087 8.6764 0.7690 0.9653
-1.7690 8.6959 0.7764 0.9650
-9.0177 27.0991 2.4987 0.8917
-4.1197 8.7103 0.8430 0.9620
-7.1003 8.7287 0.9844 0.9558
-11.5951 8.7563 1.2712 0.9433
-15.1110 8.7779 1.5289 0.9322
-19.7069 -33.6420 3.4111 0.8551
-13.7090 -31.5977 3.0134 0.8708
-9.4047 -31.6539 2.8890 0.8758
-5.3809 -31.6785 2.8112 0.8790
-1.5134 -31.7022 2.7767 0.8803
27.3186 -84.1379 7.7394 0.7010
24.0410 -51.8036 4.9965 0.7951
33.5403 -41.8517 4.6923 0.8063
43.0351 -42.1196 5.2683 0.7852
55.1587 -42.2897 6.0809 0.7565
61.3084 -26.8654 5.8562 0.7643
60.9031 -18.3366 5.5646 0.7746
65.3491 4.5296 5.7310 0.7687
65.3984 12.5607 5.8262 0.7654
43.8597 20.1602 4.2232 0.8238
10.8349 8.6184 1.2112 0.9459
5.1541 8.6534 0.8812 0.9604
3.8331 8.6615 0.8287 0.9627
1.5388 8.6756 0.7709 0.9652
0.4779 8.6821 0.7607 0.9657
-0.5704 8.6885 0.7618 0.9656
-1.6372 8.6951 0.7741 0.9651
-2.7554 8.7020 0.7986 0.9640
-5.3180 8.7177 0.8934 0.9598
-11.2473 8.7542 1.2469 0.9444
-10.9424 -24.2462 2.3273 0.8987
-9.8975 -31.6160 2.8984 0.8754
-5.8568 -31.6756 2.8182 0.8787
-1.9769 -31.6994 2.7787 0.8803
26.6579 -86.3720 7.9083 0.6956
24.8552 -41.4211 4.2262 0.8237
41.8854 -42.2079 5.2024 0.7876
61.2462 -37.3929 6.2781 0.7497
65.2455 -12.3101 5.8090 0.7660
65.2947 -4.3112 5.7250 0.7689
65.3432 3.5725 5.7253 0.7689
65.3924 11.5733 5.8100 0.7659
61.1379 18.6257 5.5916 0.7737
45.5769 20.1497 4.3598 0.8187
14.4448 8.5962 1.4706 0.9347
11.1626 8.6164 1.2337 0.9450
8.7612 8.6312 1.0760 0.9518
6.8800 8.6428 0.9665 0.9566
5.3260 8.6523 0.8889 0.9600
3.9848 8.6605 0.8341 0.9624
1.6695 8.6748 0.7729 0.9652
0.6050 8.6813 0.7614 0.9657
-0.4432 8.6877 0.7611 0.9657
-2.6162 8.7011 0.7949 0.9642
-5.1445 8.7167 0.8855 0.9602
-14.1347 8.7719 1.4554 0.9354
-18.8692 8.7654 1.8203 0.9199
-57.6212 -17.0963 5.2584 0.7856
-14.8152 -31.5910 3.0527 0.8693
-10.4050 -31.6129 2.9117 0.8749
-2.4413 -31.6965 2.7813 0.8802
24.3167 -41.8969 4.2381 0.8232
40.6743 -42.2007 5.1278 0.7903
60.9895 -38.4685 6.3086 0.7486
61.1319 17.6537 5.5669 0.7745
46.0178 19.5475 4.3742 0.8181
8.9787 8.5910 1.0872 0.9513
7.0874 8.6415 0.9778 0.9561
1.8009 8.6740 0.7751 0.9651
0.7323 8.6805 0.7621 0.9656
-0.3163 8.6870 0.7605 0.9657
-1.3757 8.6935 0.7700 0.9653
-3.6614 8.7075 0.8264 0.9628
-6.4844 8.7249 0.9511 0.9573
-10.5898 8.7501 1.2018 0.9463
-18.2365 8.7971 1.7714 0.9219
-21.7293 -33.6296 3.5029 0.8515
-15.3796 -31.5875 3.0737 0.8684
-6.8166 -31.6697 2.8342 0.8780
23.8885 -42.5777 4.2713 0.8220
28.8341 -39.3937 4.2711 0.8220
64.9292 -42.2896 6.7792 0.7326
65.1811 -22.7788 6.0408 0.7579
65.2333 -14.2900 5.8425 0.7648
65.2829 -6.2274 5.7374 0.7685
65.3314 1.6628 5.7176 0.7692
61.3264 16.7450 5.5618 0.7747
-13.9504 -30.5950 1.7622 0.8740
-10.0317 -31.6151 1.7383 0.8756
-2.2744 -34.3295 1.8031 0.8713
25.3818 -42.6722 2.6021 0.8197
32.5207 -42.1506 2.7901 0.8080
41.5605 -42.2060 3.1043 0.7888
61.2940 -37.7488 3.7726 0.7495
61.5021 -19.7621 3.3855 0.7720
68.3747 -13.1749 3.6493 0.7566
69.4629 -4.8566 3.6493 0.7566
54.5746 9.4410 2.9026 0.8010
28.3296 8.5109 1.5502 0.8883
14.5715 8.5955 0.8866 0.9345
8.8000 8.6024 0.6449 0.9519
4.0254 8.6603 0.5005 0.9625
1.7017 8.6614 0.4626 0.9653
0.6383 8.6747 0.4558 0.9658
-1.4693 8.6820 0.4615 0.9653
-2.5759 8.6890 0.4750 0.9644
-3.7719 8.7082 0.4974 0.9627
-32.3591 2.4997 1.7009 0.8781
-79.4392 -13.1465 4.2199 0.7243
-57.7137 -16.8808 3.1513 0.7860
-11.4674 -24.2080 1.4038 0.8983
-1.9624 -24.2520 1.2751 0.9071
0.6440 -16.1699 0.8481 0.9372
23.2499 -54.7684 3.1182 0.7879
31.4784 -42.0537 2.7530 0.8103
40.3582 -42.1987 3.0601 0.7915
49.9169 -40.9585 3.3840 0.7721
60.9444 -29.1422 3.5403 0.7629
69.3847 -5.8692 3.6493 0.7566
69.5869 2.5175 3.6493 0.7566
54.0852 8.5459 2.8696 0.8031
46.0165 19.3369 2.6159 0.8188
11.5955 8.6138 0.7570 0.9438
9.0888 8.6292 0.6568 0.9510
5.5478 8.6509 0.5386 0.9597
4.1796 8.6593 0.5039 0.9622
2.9577 8.6596 0.4796 0.9640
1.8329 8.6593 0.4639 0.9652
0.7655 8.6734 0.4563 0.9657
-1.3394 8.6823 0.4604 0.9654
-3.6216 8.7073 0.4942 0.9629
-4.9291 8.7153 0.5247 0.9607
-13.5638 8.7684 0.8464 0.9374
-18.0553 8.7960 1.0526 0.9227
-79.6813 -32.8017 4.5159 0.7081
-26.4745 -31.5547 2.1587 0.8479
-20.5642 -31.5576 1.9740 0.8600
-3.1953 -33.4181 1.7594 0.8742
1.5838 -62.7760 3.2910 0.7776
24.0963 -43.3402 2.5988 0.8199
31.2996 -43.1114 2.7920 0.8078
48.6083 -41.0855 3.3355 0.7750
54.3103 -19.2160 3.0192 0.7939
67.9614 -15.1634 3.6493 0.7566
69.2917 -6.8805 3.6493 0.7566
54.5664 7.8080 2.8888 0.8019
31.5275 8.4774 1.7110 0.8774
11.9529 8.6116 0.7721 0.9427
9.3567 8.6275 0.6670 0.9503
5.7269 8.6498 0.5437 0.9593
4.3359 8.6584 0.5075 0.9620
0.8931 8.6721 0.4569 0.9657
-1.2101 8.6825 0.4594 0.9655
-2.3009 8.6831 0.4708 0.9647
-3.4732 8.7064 0.4912 0.9632
-7.9948 8.7342 0.6205 0.9537
-13.1355 8.7658 0.8276 0.9387
-17.3979 8.7920 1.0216 0.9249
-24.4030 8.8350 1.3601 0.9013
-21.2236 -31.5536 1.9929 0.8587
0.6673 -62.7247 3.2874 0.7778
23.0607 -89.6624 4.8519 0.6902
28.6525 -40.7011 2.6086 0.8192
62.6449 -42.4687 3.9664 0.7385
61.2324 -31.5062 3.6089 0.7589
54.4333 -20.1576 3.0420 0.7925
67.7330 -16.1530 3.6493 0.7566
69.1840 -7.8903 3.6493 0.7566
61.3593 7.8686 3.2420 0.7805
49.5089 19.1254 2.7815 0.8085
16.1283 8.5859 0.9576 0.9294
12.3247 8.6093 0.7879 0.9416
9.6330 8.6258 0.6777 0.9495
2.0974 8.6549 0.4667 0.9650
7.6514 64.9836 3.4292 0.7694
-0.0291 8.6797 0.4549 0.9658
-2.1652 8.6804 0.4689 0.9648
-3.3265 8.7055 0.4884 0.9634
-7.7625 8.7327 0.6123 0.9543
-9.8996 8.7459 0.6923 0.9485
-12.7257 8.7632 0.8098 0.9400
-16.7779 8.7881 0.9926 0.9269
-23.3165 8.8283 1.3066 0.9050
-18.4226 2.2373 0.9726 0.9284
-21.8957 -31.5495 2.0126 0.8574
-11.7172 -30.6087 1.7177 0.8770
-3.0590 -24.4441 1.2910 0.9060
30.0171 -80.3064 4.4931 0.7094
26.1269 -50.3996 2.9751 0.7966
36.9445 -42.1777 2.9385 0.7988
58.6367 -41.0123 3.7501 0.7508
61.1921 -32.6227 3.6342 0.7575
69.6304 -0.5286 3.6493 0.7566
35.4339 8.4279 1.9088 0.8643
51.7050 19.1119 2.8889 0.8019
12.6928 8.5937 0.8033 0.9404
9.9184 8.6241 0.6888 0.9487
7.8004 8.6371 0.6099 0.9545
4.6555 8.6564 0.5151 0.9614
3.3894 8.6642 0.4876 0.9634
2.2310 8.6528 0.4683 0.9648
1.1491 8.6691 0.4583 0.9656
0.0975 8.6790 0.4549 0.9658
-2.0310 8.6798 0.4672 0.9649
-4.4361 8.7123 0.5124 0.9616
-5.8583 8.7210 0.5506 0.9588
-9.6114 8.7441 0.6810 0.9493
-12.3332 8.7608 0.7928 0.9412
-22.3120 8.8222 1.2574 0.9084
-17.2800 -31.5759 1.8864 0.8657
27.0919 -40.9729 2.5743 0.8214
34.7549 -40.8654 2.8115 0.8066
58.2887 -42.0479 3.7667 0.7498
68.9244 -9.9047 3.6493 0.7566
69.6153 -1.5441 3.6493 0.7566
61.1070 13.5956 3.2808 0.7782
39.7306 19.6856 2.3238 0.8373
10.2134 8.6223 0.7005 0.9479
8.0308 8.6357 0.6180 0.9539
4.1541 5.7145 0.3702 0.9721
4.8157 8.6495 0.5188 0.9611
2.3664 8.6538 0.4702 0.9647
-1.8981 8.6804 0.4657 0.9650
-3.0260 8.6694 0.4812 0.9639
-5.6748 8.7199 0.5452 0.9592
-11.9566 8.7585 0.7768 0.9424
-15.6373 8.7811 0.9399 0.9307
-23.2802 -31.5391 2.0544 0.8547
-1.2249 -36.9728 1.9387 0.8623
29.5435 -86.6657 4.7986 0.6930
25.9660 -53.8795 3.1345 0.7870
27.0789 -42.2808 2.6313 0.8178
61.0655 -25.7039 3.4723 0.7669
66.7679 -19.0451 3.6387 0.7572
68.7726 -10.9090 3.6493 0.7566
58.4006 19.6707 3.2296 0.7813
42.2464 20.1702 2.4534 0.8290
13.5393 8.6018 0.8407 0.9378
6.4793 8.6452 0.5662 0.9576
3.6834 8.6624 0.4933 0.9630
0.3508 8.6772 0.4551 0.9658
-0.6973 8.6823 0.4565 0.9657
-1.7660 8.6810 0.4643 0.9651
-5.4947 8.7188 0.5401 0.9596
-7.1003 8.7287 0.5897 0.9559
-9.0620 8.7407 0.6598 0.9508
-11.5951 8.7563 0.7615 0.9435
-15.1110 8.7779 0.9159 0.9324
-20.5132 8.8111 1.1700 0.9145
-10.4647 -24.1200 1.3779 0.9000
-5.6738 -33.4029 1.7756 0.8731
33.4110 -41.6903 2.8000 0.8073
43.0350 -42.1195 3.1558 0.7857
55.1856 -42.3103 3.6444 0.7569
61.1739 -36.1350 3.7235 0.7523
61.3258 -18.4638 3.3565 0.7737
69.5407 -3.5738 3.6493 0.7566
69.4658 4.8150 3.6493 0.7566
60.9828 19.5548 3.3563 0.7737
43.8597 20.1602 2.5298 0.8242
13.9814 8.5991 0.8602 0.9364
8.5109 8.6327 0.6353 0.9526
6.6774 8.6440 0.5724 0.9572
3.8331 8.6615 0.4964 0.9628
2.6407 8.6562 0.4743 0.9644
0.4776 8.6761 0.4554 0.9658
-0.5700 8.6820 0.4560 0.9657
-2.7526 8.6930 0.4779 0.9641
-3.9649 8.7094 0.5015 0.9624
-5.3180 8.7177 0.5352 0.9599
-17.5202 22.1914 1.4818 0.8929
-8.7998 8.7391 0.6500 0.9515
-11.2473 8.7542 0.7469 0.9445
-19.1616 -31.6436 1.9387 0.8623
-13.8080 -30.5959 1.7592 0.8742
26.7601 -86.7032 4.7554 0.6953
34.4843 -77.2377 4.4330 0.7126
32.7830 -42.1522 2.7986 0.8074
53.5105 -42.2793 3.5741 0.7610
61.3018 -27.9349 3.5305 0.7635
61.5037 -19.5002 3.3814 0.7723
68.4252 -12.9100 3.6493 0.7566
54.7241 9.6852 2.9125 0.8004
11.1626 8.6164 0.7390 0.9451
8.7612 8.6312 0.6445 0.9519
6.8800 8.6428 0.5789 0.9567
5.3260 8.6523 0.5325 0.9601
3.9848 8.6605 0.4996 0.9625
0.6046 8.6750 0.4557 0.9658
-0.4429 8.6816 0.4556 0.9658
-1.5039 8.6819 0.4618 0.9653
-3.8122 8.7085 0.4982 0.9626
-6.6850 8.7261 0.5761 0.9569
-8.5453 8.7375 0.6405 0.9522
-10.8617 8.7113 0.7297 0.9458
-18.8692 8.7654 1.0904 0.9200
-56.1217 -42.6706 3.6948 0.7540
-25.4739 -31.5257 2.1242 0.8501
-19.7474 -31.5626 1.9512 0.8615
-10.4050 -31.6129 1.7442 0.8752
-6.6802 -33.3967 1.7849 0.8725
23.3114 -54.3278 3.0982 0.7892
31.7342 -42.0553 2.7611 0.8098
40.6742 -42.2006 3.0717 0.7908
60.8465 -28.8065 3.5281 0.7636
69.4069 -5.6005 3.6493 0.7566
54.0977 8.7626 2.8721 0.8029
29.4482 8.5041 1.6064 0.8845
46.0178 19.5475 2.6202 0.8185
14.9309 8.5933 0.9028 0.9333
11.5029 8.6143 0.7531 0.9441
8.9787 8.5910 0.6513 0.9514
7.0874 8.6415 0.5857 0.9562
5.5009 8.6512 0.5373 0.9598
1.7980 8.6599 0.4635 0.9652
0.7317 8.6738 0.4562 0.9657
-0.3160 8.6811 0.4553 0.9658
-1.3739 8.6822 0.4607 0.9654
-2.4743 8.6868 0.4734 0.9645
-3.6614 8.7075 0.4950 0.9629
-6.4844 8.7249 0.5697 0.9574
-8.2980 8.7360 0.6315 0.9529
-10.5898 8.7501 0.7199 0.9465
-25.9128 8.8443 1.4350 0.8961
-56.4788 -15.8648 3.0745 0.7906
-26.2682 -31.5559 2.1518 0.8484
-20.3912 -31.5587 1.9691 0.8603
-14.8936 -30.5893 1.7830 0.8726
-7.1876 -33.3936 1.7902 0.8721
-3.0649 -33.4189 1.7588 0.8742
30.3509 -41.4660 2.6931 0.8140
39.4965 -42.1934 3.0289 0.7933
48.8324 -40.9519 3.3400 0.7747
65.1706 -42.4468 4.0760 0.7323
54.4740 -19.0370 3.0242 0.7936
68.8735 -6.5699 3.6259 0.7580
54.4531 8.0070 2.8845 0.8022
31.1075 8.4938 1.6900 0.8788
-56.0503 -17.2856 1.0238 0.7908
-5.8989 -31.2264 0.5547 0.8806
35.2613 -79.8066 1.5229 0.7054
31.2423 -52.5249 1.0668 0.7831
32.8532 -42.5815 0.9388 0.8064
35.4096 -28.2008 0.7901 0.8344
39.4950 -24.3236 0.8096 0.8306
53.0330 -24.4154 1.0191 0.7917
97.4838 -18.7838 1.7329 0.6722
51.3517 8.8835 0.9097 0.8118
28.3296 8.5109 0.5163 0.8884
45.8195 20.0453 0.8730 0.8187
6.9189 8.6229 0.1930 0.9567
4.0254 8.6603 0.1667 0.9625
1.7043 8.6746 0.1543 0.9653
0.6376 8.6657 0.1517 0.9658
-0.4085 8.6664 0.1514 0.9659
-2.5670 8.6590 0.1576 0.9645
-5.0989 8.7164 0.1763 0.9604
-6.6313 8.7258 0.1913 0.9571
-10.8231 8.7494 0.2429 0.9458
-13.9730 8.7466 0.2877 0.9362
-79.5388 -13.1630 1.4072 0.7243
-56.0906 -16.4061 1.0201 0.7915
-8.5280 -25.5762 0.4706 0.8978
37.1363 -87.4799 1.6588 0.6837
31.1830 -54.2095 1.0916 0.7787
37.5034 -39.2137 0.9471 0.8049
35.3953 -29.0431 0.7992 0.8326
91.3056 -18.9784 1.6278 0.6886
47.9164 20.1353 0.9072 0.8123
15.0642 8.5924 0.3027 0.9330
9.0888 8.6292 0.2188 0.9511
7.1283 8.6230 0.1953 0.9562
-0.2819 8.6656 0.1513 0.9659
-1.3346 8.6511 0.1528 0.9656
-10.5061 8.7496 0.2387 0.9468
-13.5245 8.7430 0.2811 0.9376
-79.4946 7.3085 1.3934 0.7266
-54.6188 -15.1145 0.9892 0.7971
-20.3294 -31.1973 0.6500 0.8616
-16.6069 -33.7752 0.6570 0.8602
-6.8465 -31.2206 0.5579 0.8800
35.6359 -87.4707 1.6486 0.6853
31.1686 -56.0605 1.1197 0.7737
31.3003 -43.1125 0.9299 0.8080
31.5275 8.4774 0.5699 0.8776
49.9131 20.1230 0.9394 0.8063
16.3390 9.0063 0.3257 0.9281
11.9528 8.6116 0.2571 0.9428
7.3416 8.6219 0.1977 0.9557
5.7013 8.6112 0.1803 0.9595
4.3359 8.6584 0.1690 0.9620
-3.4732 8.7064 0.1636 0.9632
-4.7621 8.7143 0.1733 0.9611
-7.9948 8.7342 0.2067 0.9537
-62.5116 -33.8656 1.2410 0.7524
-12.9539 -35.3764 0.6576 0.8601
-6.6502 -28.3432 0.5082 0.8901
-3.4477 -31.2414 0.5486 0.8818
0.9107 -85.6106 1.4944 0.7100
32.6967 -83.7306 1.5690 0.6980
47.0101 -87.5356 1.7343 0.6720
31.4487 -44.6731 0.9536 0.8037
35.8590 -24.3098 0.7562 0.8409
47.3839 -24.3806 0.9301 0.8080
50.9044 19.6645 0.9525 0.8039
12.3248 8.6093 0.2624 0.9416
9.6330 8.6258 0.2257 0.9496
7.5602 8.6207 0.2001 0.9552
3.2448 8.6651 0.1615 0.9637
2.1016 8.6721 0.1558 0.9649
7.6514 64.9836 1.1421 0.7697
-2.1592 8.6563 0.1557 0.9649
-3.3265 8.7055 0.1627 0.9634
-6.0456 8.7222 0.1852 0.9584
-9.8996 8.7459 0.2306 0.9485
-12.7063 8.7499 0.2693 0.9401
-16.7601 8.7788 0.3302 0.9271
-23.3165 8.8283 0.4352 0.9051
-18.4192 2.2369 0.3239 0.9285
-13.5409 -35.3728 0.6611 0.8594
45.3730 -87.5259 1.7208 0.6741
31.2836 -45.8446 0.9688 0.8009
35.4399 -24.7877 0.7549 0.8411
35.4339 8.4279 0.6358 0.8644
12.6928 8.5937 0.2676 0.9405
3.3894 8.6642 0.1624 0.9635
1.1500 8.6757 0.1528 0.9656
0.0974 8.6633 0.1512 0.9659
-0.9514 8.6693 0.1522 0.9657
-2.0253 8.6554 0.1552 0.9651
-5.8583 8.7210 0.1834 0.9588
-9.6114 8.7441 0.2268 0.9493
-12.3139 8.7471 0.2636 0.9414
-16.1738 8.7746 0.3212 0.9290
-22.3120 8.8222 0.4188 0.9085
-73.7700 -7.8241 1.2949 0.7432
-79.4814 -52.9720 1.6672 0.6824
-63.6572 -69.4603 1.6446 0.6860
-22.3237 -31.1851 0.6694 0.8578
-14.1343 -35.3692 0.6648 0.8587
-8.2907 -31.2117 0.5637 0.8788
-0.7506 -40.4993 0.7070 0.8504
27.1058 -54.2087 1.0579 0.7847
31.2744 -47.2984 0.9897 0.7970
35.3915 -32.6728 0.8408 0.8247
35.4352 -25.5620 0.7627 0.8396
91.9204 -24.7758 1.6617 0.6833
61.1070 13.5956 1.0927 0.7785
55.8755 19.7320 1.0343 0.7889
39.7306 19.6857 0.7740 0.8375
8.0146 8.6183 0.2054 0.9540
2.3709 8.6705 0.1569 0.9647
1.2792 8.6772 0.1531 0.9655
-1.8924 8.6545 0.1546 0.9652
-4.2768 8.7113 0.1694 0.9619
-72.6048 -6.6312 1.2726 0.7470
-8.7791 -31.2087 0.5659 0.8784
-1.3416 -40.4957 0.7072 0.8504
31.3131 -48.8921 1.0134 0.7927
32.3369 -39.1656 0.8865 0.8161
35.4303 -26.3525 0.7707 0.8381
91.4694 7.6822 1.6022 0.6927
65.2590 13.5237 1.1633 0.7660
58.1091 19.5725 1.0703 0.7825
42.2464 20.1702 0.8171 0.8292
8.2511 8.6170 0.2082 0.9534
6.4511 8.6077 0.1878 0.9579
35.7796 62.1138 1.2512 0.7507
3.6834 8.6624 0.1643 0.9630
1.4087 8.6764 0.1534 0.9654
0.3502 8.6617 0.1513 0.9659
-0.6962 8.6682 0.1518 0.9658
-1.7604 8.6536 0.1541 0.9653
-5.4947 8.7188 0.1799 0.9596
-11.5760 8.7418 0.2532 0.9436
-56.5070 -18.5750 1.0383 0.7882
-23.7227 -31.1765 0.6838 0.8549
-19.6219 -33.4968 0.6776 0.8562
-15.3421 -35.3618 0.6728 0.8571
-1.9330 -40.4921 0.7076 0.8503
40.6057 -87.4975 1.6837 0.6798
31.2552 -50.4056 1.0352 0.7888
33.7859 -42.1582 0.9430 0.8056
35.4253 -27.1603 0.7792 0.8365
41.2104 -24.3427 0.8354 0.8257
55.7555 -24.4321 1.0625 0.7839
52.0478 9.9965 0.9251 0.8089
60.9827 19.5548 1.1178 0.7740
35.6972 16.4083 0.6858 0.8546
13.9815 8.5991 0.2865 0.9364
8.4943 8.6159 0.2112 0.9527
5.1307 8.6141 0.1750 0.9607
3.8331 8.6615 0.1653 0.9628
2.6445 8.6688 0.1582 0.9644
1.5388 8.6756 0.1538 0.9654
0.4768 8.6610 0.1514 0.9659
-0.5690 8.6674 0.1516 0.9658
-2.7422 8.6602 0.1586 0.9643
-5.3180 8.7177 0.1782 0.9600
-17.5202 22.1914 0.4935 0.8930
-11.2283 8.7394 0.2484 0.9447
-19.7041 8.8061 0.3767 0.9173
-56.0395 -17.5202 1.0249 0.7907
-24.4453 -31.1721 0.6915 0.8534
-18.8967 -31.2061 0.6368 0.8642
-9.8974 -31.6160 0.5783 0.8759
-5.7739 -31.2271 0.5543 0.8807
-2.5250 -40.4885 0.7081 0.8502
31.2451 -52.0698 1.0600 0.7843
32.8553 -42.2451 0.9341 0.8073
35.4133 -27.9805 0.7878 0.8348
39.8522 -24.3312 0.8150 0.8296
77.7177 -24.6409 1.4231 0.7217
97.2579 -18.3500 1.7276 0.6730
51.4822 9.1114 0.9126 0.8113
11.1626 8.6164 0.2461 0.9451
8.7583 8.6283 0.2146 0.9520
6.8620 8.6201 0.1923 0.9569
5.3019 8.6132 0.1765 0.9603
3.9848 8.6605 0.1664 0.9626
2.7831 8.6679 0.1589 0.9642
0.6038 8.6641 0.1516 0.9659
-5.1445 8.7167 0.1767 0.9603
-6.6850 8.7261 0.1919 0.9570
-14.0956 8.7476 0.2896 0.9358
-56.2052 -42.7342 1.2324 0.7539
-19.5219 -31.2023 0.6424 0.8631
-16.3860 -34.9404 0.6736 0.8569
-10.4050 -31.6129 0.5809 0.8753
-6.2456 -31.2243 0.5558 0.8804
37.5098 -87.4174 1.6604 0.6835
32.2557 -42.7464 0.9347 0.8072
37.7980 -39.2165 0.9507 0.8042
35.3992 -28.8176 0.7967 0.8331
38.5447 -24.3116 0.7954 0.8333
55.3052 -18.4268 1.0175 0.7920
51.4112 8.3274 0.9091 0.8119
29.4481 8.5041 0.5350 0.8846
14.9309 8.5933 0.3007 0.9334
11.5029 8.6143 0.2508 0.9441
2.9229 8.6671 0.1597 0.9641
0.7314 8.6701 0.1519 0.9658
-0.3155 8.6658 0.1514 0.9659
-1.3689 8.6510 0.1529 0.9656
-2.4662 8.6583 0.1571 0.9646
-3.6614 8.7075 0.1649 0.9629
-6.4844 8.7249 0.1897 0.9574
-18.2040 8.7814 0.3528 0.9223
-55.8788 -15.6963 1.0131 0.7928
-31.1454 -37.4149 0.8497 0.8230
-20.1584 -31.1984 0.6484 0.8619
-3.0793 -33.5761 0.5885 0.8738
31.3024 -42.7659 0.9251 0.8089
36.6675 -39.1712 0.9365 0.8068
35.3980 -29.6855 0.8064 0.8313
37.3380 -24.3189 0.7778 0.8367
49.6420 -24.3945 0.9655 0.8015
91.2993 -19.9999 1.6314 0.6880
31.1075 8.4938 0.5629 0.8790
-57.9854 -34.7771 -1.1802 0.7630
-60.7883 -47.2550 -1.3439 0.7349
-19.4669 -24.6268 -0.5479 0.8820
-12.7720 -20.9087 -0.4277 0.9066
-9.1256 -20.0136 -0.3839 0.9158
-6.3390 -33.5561 -0.5961 0.8723
1.2240 -22.4818 -0.3930 0.9139
35.4189 -28.2082 -0.7903 0.8343
39.5091 -24.3322 -0.8099 0.8306
77.9193 -25.0373 -1.4286 0.7208
53.0023 9.1690 -0.9389 0.8064
27.9006 8.3821 -0.5085 0.8900
8.8000 8.6024 -0.2148 0.9520
6.8974 8.5961 -0.1924 0.9569
4.0254 8.6603 -0.1667 0.9625
1.7043 8.6746 -0.1543 0.9653
0.6376 8.6657 -0.1517 0.9658
-1.4597 8.6248 -0.1527 0.9656
-2.5544 8.6166 -0.1569 0.9647
-3.7719 8.7082 -0.1656 0.9627
-6.6313 8.7258 -0.1913 0.9571
-13.8485 8.6687 -0.2852 0.9367
-18.5141 8.6877 -0.3570 0.9214
-86.0111 17.2246 -1.5311 0.7040
-53.7186 4.1497 -0.9405 0.8061
-86.1430 -3.7457 -1.5050 0.7083
-72.1083 -11.9333 -1.2758 0.7465
-55.7927 -16.3189 -1.0147 0.7925
-60.4393 -45.5853 -1.3214 0.7387
-21.2400 -26.0788 -0.5871 0.8741
-13.2137 -20.9390 -0.4322 0.9057
-4.0421 -19.8088 -0.3529 0.9223
-1.6872 -20.8510 -0.3651 0.9197
0.6440 -16.1695 -0.2825 0.9373
37.0980 -87.3897 -1.6571 0.6840
30.5343 -40.7925 -0.8894 0.8156
37.2144 -38.9115 -0.9398 0.8062
35.4137 -29.0582 -0.7996 0.8325
38.2360 -24.3244 -0.7910 0.8342
73.7010 -24.8735 -1.3577 0.7326
77.9148 2.8188 -1.3609 0.7320
43.5302 18.2921 -0.8242 0.8279
15.0642 8.5924 -0.3027 0.9330
9.0888 8.6292 -0.2188 0.9511
7.1069 8.5971 -0.1947 0.9564
5.4923 8.5643 -0.1776 0.9601
1.8359 8.6737 -0.1548 0.9652
-0.2812 8.6454 -0.1510 0.9660
-8.2335 8.7356 -0.2095 0.9531
-10.5061 8.7496 -0.2387 0.9468
-13.4277 8.6804 -0.2791 0.9380
-17.8274 8.6850 -0.3461 0.9237
-86.0028 18.5316 -1.5356 0.7033
-53.7138 4.9383 -0.9415 0.8059
-86.1351 -2.4874 -1.5041 0.7084
-72.0888 -10.8524 -1.2725 0.7470
-13.7670 -21.1268 -0.4402 0.9040
-9.7735 -19.8775 -0.3866 0.9152
-6.7993 -19.4423 -0.3595 0.9209
35.5992 -87.3805 -1.6469 0.6856
30.2332 -54.3781 -1.0860 0.7797
26.6132 -36.6565 -0.7907 0.8343
36.2135 -38.9877 -0.9288 0.8083
37.0207 -24.3170 -0.7731 0.8376
52.0890 -18.4301 -0.9644 0.8017
51.9979 7.4405 -0.9169 0.8105
44.9037 18.1034 -0.8451 0.8239
16.3390 9.0063 -0.3257 0.9281
9.3567 8.6275 -0.2222 0.9504
5.6694 8.5630 -0.1793 0.9597
4.3359 8.6584 -0.1690 0.9620
1.9683 8.6729 -0.1552 0.9650
0.8932 8.6733 -0.1522 0.9657
-2.2829 8.6151 -0.1556 0.9650
-4.7621 8.7143 -0.1733 0.9611
-6.2367 8.7234 -0.1872 0.9580
-7.9948 8.7342 -0.2067 0.9537
-10.1976 8.7477 -0.2345 0.9477
-13.0360 8.6994 -0.2736 0.9392
-22.5751 8.1732 -0.4191 0.9084
-72.1467 -9.7873 -1.2709 0.7473
-54.3045 -14.1781 -0.9797 0.7989
-72.1550 -28.4800 -1.3540 0.7332
-60.0442 -42.5979 -1.2850 0.7449
-7.2002 -19.6634 -0.3655 0.9196
-4.5533 -19.4061 -0.3479 0.9234
25.7650 -36.5993 -0.7812 0.8361
35.4028 -30.8201 -0.8193 0.8288
35.8590 -24.3098 -0.7562 0.8409
47.3838 -24.3806 -0.9301 0.8080
52.8259 -19.5623 -0.9833 0.7982
16.4983 8.7829 -0.3262 0.9280
9.6330 8.6258 -0.2257 0.9496
7.5370 8.5942 -0.1995 0.9553
4.4945 8.6574 -0.1703 0.9617
7.6514 64.9836 -1.1421 0.7697
-0.0289 8.6439 -0.1509 0.9660
-1.0764 8.6430 -0.1520 0.9658
-2.1487 8.6143 -0.1550 0.9651
-4.5978 8.7133 -0.1720 0.9614
-6.0456 8.7222 -0.1852 0.9584
-9.8996 8.7459 -0.2306 0.9485
-12.6537 8.7137 -0.2682 0.9404
-16.6752 8.7344 -0.3286 0.9275
-23.3165 8.8283 -0.4352 0.9051
-86.1193 0.0259 -1.5032 0.7086
-54.7884 -13.4542 -0.9847 0.7980
-72.1791 -27.2798 -1.3469 0.7344
-10.6269 -20.1098 -0.3970 0.9130
-4.8304 -19.3161 -0.3475 0.9234
-0.0864 -21.9083 -0.3824 0.9161
32.6545 -87.3624 -1.6280 0.6886
33.4427 -64.5122 -1.2684 0.7477
31.2833 -45.8441 -0.9688 0.8009
34.1334 -38.9683 -0.9042 0.8128
35.3972 -31.7346 -0.8298 0.8268
35.4399 -24.7877 -0.7549 0.8411
45.7127 -24.3704 -0.9042 0.8128
52.8205 -20.4411 -0.9886 0.7973
50.7495 -12.8878 -0.9139 0.8110
35.4339 8.4279 -0.6358 0.8644
16.6363 8.5473 -0.3265 0.9279
12.6928 8.5937 -0.2676 0.9405
7.7602 8.5926 -0.2021 0.9547
4.6555 8.6564 -0.1716 0.9614
2.2358 8.6713 -0.1563 0.9648
-0.9492 8.6491 -0.1519 0.9658
-3.1815 8.7046 -0.1618 0.9636
-5.8583 8.7210 -0.1834 0.9588
-7.5362 8.7313 -0.2013 0.9549
-9.6114 8.7441 -0.2268 0.9493
-12.2640 8.7116 -0.2626 0.9416
-16.0940 8.7314 -0.3196 0.9294
-22.3120 8.8222 -0.4188 0.9085
-50.3198 13.1701 -0.9079 0.8121
-86.1114 1.2818 -1.5032 0.7085
-34.3932 -7.9158 -0.6160 0.8683
-72.2006 -26.0909 -1.3400 0.7356
-59.4276 -39.6067 -1.2466 0.7515
-11.0192 -20.1356 -0.4007 0.9123
-8.9092 -33.5404 -0.6057 0.8704
-0.4039 -21.7937 -0.3805 0.9165
32.4926 -90.9518 -1.6858 0.6795
33.1336 -38.9590 -0.8927 0.8150
35.3915 -32.6728 -0.8408 0.8247
35.4352 -25.5620 -0.7627 0.8396
50.7785 -13.6866 -0.9180 0.8103
61.1070 13.5956 -1.0927 0.7785
39.7307 19.6857 -0.7740 0.8375
13.1167 8.6044 -0.2738 0.9392
10.2134 8.6223 -0.2333 0.9479
4.1539 5.7142 -0.1233 0.9721
3.5355 8.6633 -0.1633 0.9633
1.2792 8.6772 -0.1531 0.9655
-0.8217 8.6487 -0.1516 0.9658
-4.2768 8.7113 -0.1694 0.9619
-5.6748 8.7199 -0.1816 0.9592
-21.3803 8.8164 -0.4037 0.9116
-50.0602 13.8852 -0.9068 0.8123
-52.2678 7.9006 -0.9227 0.8094
-71.9598 -6.5723 -1.2613 0.7490
-46.3219 -9.9521 -0.8270 0.8273
-59.4092 -38.3549 -1.2343 0.7536
-8.2720 -19.8543 -0.3754 0.9176
-5.4423 -19.3468 -0.3508 0.9227
-0.7076 -21.3596 -0.3730 0.9181
2.1781 -24.8482 -0.4354 0.9050
31.8075 -93.3073 -1.7207 0.6741
42.1739 -87.5108 -1.6956 0.6780
32.0877 -38.8637 -0.8797 0.8174
35.3855 -33.6364 -0.8522 0.8226
61.0656 -25.7039 -1.1565 0.7672
86.7560 -24.7465 -1.5748 0.6970
58.1091 19.5725 -1.0703 0.7825
13.5393 8.6018 -0.2800 0.9378
10.5187 8.6204 -0.2374 0.9470
8.2385 8.6039 -0.2079 0.9535
27.6526 48.0052 -0.9670 0.8012
3.6834 8.6624 -0.1643 0.9630
1.6976 5.8702 -0.1067 0.9758
1.4087 8.6764 -0.1534 0.9654
-9.0620 8.7407 -0.2198 0.9509
-20.5132 8.8111 -0.3897 0.9146
-49.8524 14.6139 -0.9068 0.8123
-52.2628 8.6813 -0.9247 0.8090
-86.0503 3.7934 -1.5035 0.7085
-73.8656 -5.6614 -1.2931 0.7435
-72.1446 -23.7155 -1.3256 0.7380
-62.9154 -29.4771 -1.2127 0.7573
-61.0135 -49.2633 -1.3688 0.7307
-8.7382 -20.1406 -0.3832 0.9159
-5.8381 -19.6498 -0.3578 0.9213
-3.4120 -20.0874 -0.3556 0.9217
1.7623 -24.1479 -0.4226 0.9077
27.1401 -43.7690 -0.8989 0.8138
26.7257 -33.3484 -0.7460 0.8428
35.4253 -27.1603 -0.7792 0.8365
55.7555 -24.4321 -1.0625 0.7839
60.9827 19.5548 -1.1179 0.7740
35.6972 16.4083 -0.6858 0.8546
10.8349 8.6184 -0.2417 0.9461
8.4943 8.6159 -0.2112 0.9527
6.6308 8.5837 -0.1893 0.9575
5.1028 8.5672 -0.1741 0.9609
2.6445 8.6688 -0.1582 0.9644
1.5388 8.6756 -0.1538 0.9654
0.4766 8.6581 -0.1514 0.9659
-0.5677 8.6472 -0.1513 0.9659
-2.7287 8.6175 -0.1578 0.9645
-3.9649 8.7094 -0.1670 0.9624
-14.4382 8.6712 -0.2940 0.9348
-26.4052 8.1606 -0.4824 0.8953
-52.2578 9.4656 -0.9270 0.8086
-53.5191 3.1420 -0.9358 0.8070
-72.0249 -13.2897 -1.2784 0.7460
-56.4454 -17.6471 -1.0323 0.7893
-18.9821 -24.2055 -0.5369 0.8842
-12.4630 -20.5815 -0.4200 0.9082
-6.0965 -19.4747 -0.3562 0.9216
-3.6907 -19.9605 -0.3543 0.9220
-1.3176 -21.1276 -0.3695 0.9188
1.3231 -22.6834 -0.3966 0.9131
35.4786 -79.4648 -1.5190 0.7060
35.3732 -35.6455 -0.8766 0.8180
39.8575 -24.3344 -0.8151 0.8296
78.7504 -24.9683 -1.4420 0.7186
72.1678 3.9456 -1.2616 0.7489
53.0037 9.3807 -0.9396 0.8063
27.8144 8.4737 -0.5075 0.8902
8.7583 8.6283 -0.2146 0.9520
5.2728 8.5660 -0.1756 0.9606
3.9848 8.6605 -0.1664 0.9626
1.6695 8.6748 -0.1542 0.9653
0.6038 8.6641 -0.1516 0.9659
-1.4937 8.6232 -0.1528 0.9656
-3.8122 8.7085 -0.1659 0.9627
-5.1445 8.7167 -0.1767 0.9603
-10.8617 8.7113 -0.2430 0.9458
-13.9692 8.6692 -0.2870 0.9363
-26.9814 8.7717 -0.4952 0.8927
-53.5143 3.9254 -0.9366 0.8068
-57.4369 -33.6167 -1.1616 0.7663
-21.0777 -26.0852 -0.5854 0.8744
-13.0670 -20.8853 -0.4300 0.9061
-9.4158 -20.0777 -0.3871 0.9151
-10.4050 -31.6129 -0.5809 0.8753
-2.5863 -33.5791 -0.5879 0.8739
0.9791 -22.4026 -0.3914 0.9142
37.4989 -87.3921 -1.6599 0.6836
31.2343 -53.8157 -1.0861 0.7796
26.8658 -35.6035 -0.7785 0.8366
73.8765 -24.6145 -1.3592 0.7323
61.6546 -12.5665 -1.0983 0.7775
72.2903 2.8955 -1.2628 0.7487
11.5029 8.6143 -0.2508 0.9441
8.9787 8.5910 -0.2169 0.9515
7.0513 8.5975 -0.1941 0.9565
5.4458 8.5647 -0.1772 0.9602
2.9229 8.6671 -0.1597 0.9641
1.8009 8.6740 -0.1546 0.9652
0.7314 8.6701 -0.1519 0.9658
-1.3655 8.6293 -0.1525 0.9657
-3.6614 8.7075 -0.1649 0.9629
-8.2980 8.7360 -0.2103 0.9529
-10.5898 8.7501 -0.2398 0.9465
-13.5343 8.6753 -0.2806 0.9377
-53.4690 11.3048 -0.9539 0.8036
-86.1372 -2.8213 -1.5043 0.7084
-61.2261 -34.6456 -1.2279 0.7547
-31.1400 -37.4084 -0.8494 0.8231
-13.6936 -21.1931 -0.4404 0.9040
-9.6920 -19.9061 -0.3865 0.9152
-6.7359 -19.5028 -0.3602 0.9208
26.8591 -36.6955 -0.7938 0.8337
36.4982 -38.9904 -0.9322 0.8076
35.4098 -29.6953 -0.8067 0.8312
37.3380 -24.3189 -0.7778 0.8367
61.4601 -13.4634 -1.0982 0.7775
50.8536 7.4777 -0.8972 0.8141
31.0023 8.4651 -0.5610 0.8794
-41.0991 -7.4189 -2.1887 0.8460
-42.8334 -13.2096 -2.3491 0.8357
-37.6818 -29.2927 -2.5013 0.8260
-33.8856 -33.6117 -2.5013 0.8260
-12.5826 -20.5986 -1.2650 0.9078
-9.0368 -19.8189 -1.1415 0.9165
-6.0770 -19.1519 -1.0530 0.9227
-3.6643 -19.3974 -1.0345 0.9240
1.1996 -22.0332 -1.1564 0.9154
8.3072 -46.9997 -2.5013 0.8260
13.8990 -45.6595 -2.5013 0.8260
19.2891 -43.6567 -2.5013 0.8260
24.3992 -41.0202 -2.5013 0.8260
31.4502 -31.9386 -2.3491 0.8357
32.4740 -25.8629 -2.1757 0.8468
38.1666 -23.5054 -2.3491 0.8357
40.7163 -18.7450 -2.3491 0.8357
42.8497 -13.7686 -2.3587 0.8350
46.8661 -9.0304 -2.5013 0.8260
47.6119 -3.3289 -2.5013 0.8260
47.6667 2.4210 -2.5013 0.8260
30.6463 9.2069 -1.6770 0.8797
30.6131 13.3927 -1.7512 0.8747
14.5715 8.5955 -0.8866 0.9345
5.2893 8.5187 -0.5255 0.9606
0.6376 8.6657 -0.4554 0.9658
-0.4066 8.6261 -0.4526 0.9660
-1.4562 8.6046 -0.4574 0.9656
-2.5420 8.5745 -0.4687 0.9648
-5.0989 8.7164 -0.5292 0.9604
-10.8231 8.7495 -0.7294 0.9458
-13.7794 8.6255 -0.8520 0.9370
-41.2847 -23.9490 -2.5013 0.8260
-13.0615 -20.6979 -1.2827 0.9066
-6.3602 -19.0750 -1.0538 0.9226
-1.6674 -20.6061 -1.0834 0.9205
0.6440 -16.1694 -0.8481 0.9372
30.9811 -32.3939 -2.3491 0.8357
33.6467 -27.6083 -2.2810 0.8400
37.8197 -24.0596 -2.3491 0.8357
40.4386 -19.3368 -2.3491 0.8357
46.7294 -9.7130 -2.5013 0.8260
47.5583 -4.0229 -2.5013 0.8260
44.2747 6.9958 -2.3491 0.8357
15.0642 8.5924 -0.9089 0.9329
11.5955 8.6138 -0.7570 0.9438
9.0888 8.6292 -0.6568 0.9510
7.0856 8.5714 -0.5828 0.9564
4.1796 8.6593 -0.5039 0.9622
0.7654 8.6717 -0.4562 0.9657
-4.9291 8.7153 -0.5247 0.9607
-6.4319 8.7246 -0.5681 0.9575
-13.3742 8.6458 -0.8346 0.9382
-17.7329 8.6389 -1.0338 0.9240
-21.3486 7.3788 -1.1838 0.9135
-44.5021 9.5893 -2.3858 0.8333
-44.9955 4.1368 -2.3681 0.8344
-40.1094 -6.0381 -2.1257 0.8500
-41.8494 -17.2278 -2.3718 0.8342
-38.5201 -28.1812 -2.5013 0.8260
-34.8515 -32.6090 -2.5013 0.8260
0.5469 -21.6764 -1.1364 0.9168
18.0076 -44.2007 -2.5013 0.8260
23.1924 -41.7144 -2.5013 0.8260
26.3344 -36.2725 -2.3491 0.8357
30.5053 -32.8423 -2.3491 0.8357
36.8596 -24.2111 -2.3112 0.8381
42.2570 -14.9513 -2.3491 0.8357
44.3721 6.3493 -2.3491 0.8357
31.5275 8.4774 -1.7110 0.8774
21.2596 8.5710 -1.2013 0.9123
11.9528 8.6116 -0.7721 0.9427
9.3567 8.6275 -0.6670 0.9503
5.6378 8.5153 -0.5352 0.9599
4.3359 8.6584 -0.5075 0.9620
3.1018 8.6660 -0.4824 0.9638
-3.4732 8.7064 -0.4912 0.9632
-6.2367 8.7234 -0.5620 0.9580
-10.1976 8.7477 -0.7041 0.9476
-17.1600 8.6717 -1.0076 0.9259
-21.3159 7.7173 -1.1881 0.9132
-32.7429 3.4926 -1.7257 0.8764
-45.2581 -0.6466 -2.3721 0.8342
-41.9656 -22.7348 -2.5013 0.8260
-38.9270 -27.6164 -2.5013 0.8260
-35.3234 -32.0973 -2.5013 0.8260
-29.3082 -33.9149 -2.3491 0.8357
-14.3126 -21.2788 -1.3440 0.9024
-7.0582 -19.2755 -1.0758 0.9211
-4.4864 -19.1213 -1.0293 0.9243
0.2300 -21.6204 -1.1331 0.9170
22.5815 -42.0482 -2.5013 0.8260
33.8079 -29.4316 -2.3491 0.8357
39.8574 -20.5080 -2.3491 0.8357
46.4262 -11.0717 -2.5013 0.8260
47.4208 -5.4082 -2.5013 0.8260
22.1795 8.5680 -1.2461 0.9092
16.4007 8.7309 -0.9737 0.9283
7.5157 8.5700 -0.5974 0.9554
5.8226 8.5218 -0.5409 0.9595
2.1016 8.6721 -0.4676 0.9649
-0.0289 8.6344 -0.4525 0.9660
-2.1384 8.5728 -0.4630 0.9652
-3.3265 8.7055 -0.4884 0.9634
-4.5978 8.7133 -0.5163 0.9613
-7.7625 8.7327 -0.6123 0.9543
-16.6044 8.6973 -0.9823 0.9277
-21.3137 8.0700 -1.1944 0.9128
-45.2814 0.0136 -2.3731 0.8341
-39.1772 -4.7338 -2.0681 0.8538
-39.3256 -27.0458 -2.5013 0.8260
-35.7878 -31.5787 -2.5013 0.8260
-15.2958 -22.0396 -1.4060 0.8981
-10.4072 -19.6940 -1.1674 0.9146
-4.7605 -19.0363 -1.0284 0.9244
-0.0841 -21.3300 -1.1179 0.9181
5.2148 -44.5196 -2.3491 0.8357
16.7107 -44.7071 -2.5013 0.8260
21.9659 -42.3730 -2.5013 0.8260
25.2788 -37.0449 -2.3504 0.8356
29.5345 -33.7180 -2.3491 0.8357
35.3355 -24.7147 -2.2599 0.8414
39.5541 -21.0871 -2.3491 0.8357
38.8847 -15.0480 -2.1851 0.8462
46.2598 -11.7477 -2.5013 0.8260
44.5383 5.0525 -2.3491 0.8357
23.1710 8.5648 -1.2946 0.9058
16.6363 8.5473 -0.9802 0.9278
12.6928 8.5937 -0.8033 0.9404
9.9184 8.6241 -0.6888 0.9487
4.0415 5.7336 -0.3676 0.9723
0.0971 8.6403 -0.4528 0.9660
-0.9470 8.6289 -0.4549 0.9658
-4.4361 8.7123 -0.5124 0.9616
-5.8583 8.7210 -0.5506 0.9588
-7.5362 8.7313 -0.6045 0.9549
-12.2301 8.6876 -0.7862 0.9417
-16.0769 8.7221 -0.9586 0.9294
-20.3384 2.7715 -1.0757 0.9211
-45.2813 0.6740 -2.3734 0.8341
-39.7158 -26.4694 -2.5013 0.8260
-10.8556 -19.8366 -1.1851 0.9134
-7.8025 -19.5249 -1.1019 0.9192
-5.0427 -18.9843 -1.0294 0.9243
-2.8095 -20.0703 -1.0621 0.9220
2.7382 -26.7473 -1.4091 0.8979
16.0570 -44.9461 -2.5013 0.8260
21.3456 -42.6889 -2.5013 0.8260
41.5625 -16.7853 -2.3491 0.8357
47.2429 -6.7890 -2.5013 0.8260
45.9842 4.5383 -2.4216 0.8310
43.7542 9.7348 -2.3491 0.8357
24.2546 8.5653 -1.3481 0.9021
17.5809 8.7109 -1.0283 0.9244
13.1167 8.6044 -0.8221 0.9391
10.2134 8.6223 -0.7005 0.9479
7.9905 8.5923 -0.6149 0.9541
3.5355 8.6633 -0.4904 0.9632
-0.8198 8.6285 -0.4542 0.9659
-1.8771 8.5844 -0.4605 0.9654
-3.0260 8.6694 -0.4812 0.9639
-4.2768 8.7113 -0.5086 0.9619
-11.8821 8.7039 -0.7719 0.9427
-21.3803 8.8164 -1.2120 0.9115
-33.1882 5.0166 -1.7591 0.8742
-33.4040 0.9847 -1.7514 0.8747
-44.9860 -4.1087 -2.3674 0.8345
-42.3737 -14.6173 -2.3491 0.8357
-42.9199 -20.8773 -2.5013 0.8260
-8.1668 -19.6019 -1.1129 0.9185
-3.0840 -19.9113 -1.0559 0.9225
-0.6985 -21.0846 -1.1056 0.9190
2.1256 -24.2497 -1.2757 0.9071
5.4491 -25.8210 -1.3830 0.8997
32.4881 -30.8824 -2.3491 0.8357
38.9222 -22.2318 -2.3491 0.8357
41.3133 -17.3898 -2.3491 0.8357
47.6959 -1.7541 -2.5013 0.8260
43.8915 9.0957 -2.3491 0.8357
13.5393 8.6018 -0.8407 0.9378
10.5187 8.6204 -0.7127 0.9470
8.2385 8.6039 -0.6243 0.9534
3.6834 8.6624 -0.4933 0.9630
1.6973 5.8691 -0.3202 0.9758
-0.6929 8.6278 -0.4536 0.9659
-9.0620 8.7407 -0.6598 0.9508
-11.5466 8.7197 -0.7583 0.9437
-19.1506 8.2258 -1.0923 0.9199
-24.3513 7.1384 -1.3299 0.9034
-44.8335 7.4472 -2.3818 0.8336
-45.2777 1.9960 -2.3752 0.8340
-45.0835 -3.4554 -2.3696 0.8343
-42.5823 -13.9977 -2.3491 0.8357
-37.1347 -29.9832 -2.5013 0.8260
-33.2595 -34.2313 -2.5013 0.8260
-11.8182 -20.1751 -1.2254 0.9106
-5.6847 -19.1335 -1.0461 0.9232
-3.3561 -19.7581 -1.0503 0.9229
-1.0004 -20.9572 -1.0996 0.9194
1.6656 -22.8233 -1.1993 0.9124
14.7393 -45.3953 -2.5013 0.8260
25.0960 -40.4725 -2.4957 0.8263
35.3210 -27.0802 -2.3325 0.8367
38.5938 -22.7971 -2.3491 0.8357
41.0553 -17.9904 -2.3491 0.8357
45.7017 -13.7598 -2.5013 0.8260
47.0248 -8.1639 -2.5013 0.8260
47.6653 -2.4496 -2.5013 0.8260
30.5602 9.7995 -1.6819 0.8794
30.6241 14.0765 -1.7664 0.8737
5.0752 8.5208 -0.5198 0.9611
3.8331 8.6615 -0.4964 0.9628
0.4766 8.6581 -0.4544 0.9659
-0.5664 8.6271 -0.4531 0.9660
-3.9649 8.7094 -0.5015 0.9624
-11.2226 8.7349 -0.7453 0.9446
-23.7727 7.3470 -1.3040 0.9051
-44.7329 8.1026 -2.3825 0.8335
-45.2607 2.6572 -2.3761 0.8339
-45.1335 -2.7978 -2.3699 0.8343
-42.7819 -13.3753 -2.3491 0.8357
-43.3807 -19.5583 -2.4939 0.8265
-40.8356 -24.7069 -2.5013 0.8260
-37.5681 -29.4383 -2.5013 0.8260
-33.7552 -33.7426 -2.5013 0.8260
-18.8362 -24.0195 -1.5997 0.8849
-12.2610 -20.2480 -1.2405 0.9095
-8.9265 -19.7795 -1.1373 0.9167
-3.6716 -19.8575 -1.0583 0.9223
-1.2956 -20.7757 -1.0909 0.9200
1.2831 -21.9968 -1.1548 0.9155
8.4891 -46.9671 -2.5013 0.8260
14.0757 -45.6054 -2.5013 0.8260
26.8452 -34.5174 -2.2922 0.8393
31.5736 -31.8166 -2.3491 0.8357
35.1707 -27.7888 -2.3491 0.8357
38.2573 -23.3574 -2.3491 0.8357
46.9007 -8.8489 -2.5013 0.8260
47.6245 -3.1445 -2.5013 0.8260
47.6570 2.6055 -2.5013 0.8260
31.7449 5.6183 -1.6895 0.8789
30.6154 13.5351 -1.7543 0.8745
14.4448 8.5962 -0.8809 0.9349
11.1626 8.6164 -0.7390 0.9451
5.2440 8.5192 -0.5243 0.9607
3.9848 8.6605 -0.4996 0.9625
2.7831 8.6679 -0.4771 0.9642
0.6038 8.6641 -0.4552 0.9658
-1.4902 8.6030 -0.4576 0.9656
-2.5782 8.5747 -0.4693 0.9648
-5.1445 8.7167 -0.5304 0.9603
-8.5453 8.7375 -0.6405 0.9522
-10.8617 8.7113 -0.7297 0.9458
-18.4985 8.5932 -1.0690 0.9215
-22.0649 7.1734 -1.2159 0.9113
-44.6280 8.7578 -2.3835 0.8335
-41.1916 -24.1087 -2.5013 0.8260
-37.9934 -28.8873 -2.5013 0.8260
-12.9218 -20.6532 -1.2768 0.9070
-9.2825 -19.7934 -1.1457 0.9162
-3.8998 -19.4967 -1.0420 0.9234
-1.5846 -20.5741 -1.0814 0.9207
7.8032 -47.0860 -2.5013 0.8260
13.4090 -45.8058 -2.5013 0.8260
18.8202 -43.8609 -2.5013 0.8260
34.7617 -28.2987 -2.3491 0.8357
37.9126 -23.9129 -2.3491 0.8357
43.2019 -14.3942 -2.3865 0.8333
47.6899 1.9102 -2.5013 0.8260
44.2473 7.1671 -2.3491 0.8357
31.8550 9.1991 -1.7377 0.8756
8.9787 8.5910 -0.6513 0.9514
7.0302 8.5718 -0.5810 0.9566
4.1384 8.6596 -0.5030 0.9623
2.9229 8.6671 -0.4794 0.9640
1.8009 8.6740 -0.4643 0.9651
-3.6614 8.7075 -0.4950 0.9629
-4.9739 8.7156 -0.5259 0.9606
-6.4844 8.7249 -0.5697 0.9574
-10.5898 8.7501 -0.7199 0.9465
-13.4801 8.6405 -0.8391 0.9379
-17.8893 8.6296 -1.0409 0.9235
-21.3503 7.2871 -1.1823 0.9136
-45.0051 3.9620 -2.3677 0.8345
-45.2003 -1.4805 -2.3701 0.8343
-40.0944 -6.1947 -2.1262 0.8500
-43.1538 -12.1218 -2.3491 0.8357
-41.5389 -23.5053 -2.5013 0.8260
-38.4107 -28.3301 -2.5013 0.8260
-9.5856 -19.6875 -1.1476 0.9160
-6.6497 -19.2532 -1.0675 0.9217
0.6300 -21.6467 -1.1349 0.9169
12.7395 -45.9965 -2.5013 0.8260
18.1785 -44.1307 -2.5013 0.8260
23.3536 -41.6243 -2.5013 0.8260
34.3453 -28.8026 -2.3491 0.8357
37.1755 -24.2130 -2.3251 0.8372
40.2291 -19.7689 -2.3491 0.8357
46.6226 -10.2131 -2.5013 0.8260
47.5125 -4.5322 -2.5013 0.8260
30.3349 8.2829 -1.6480 0.8817
-28.1356 -5.0788 -2.5013 0.8915
-27.3206 -8.4255 -2.5013 0.8915
-26.1091 -11.6499 -2.5013 0.8915
-22.5723 -17.5470 -2.5013 0.8915
-16.6508 -21.0643 -2.3491 0.8978
-12.4598 -20.3976 -2.0912 0.9085
-6.0868 -19.1828 -1.7607 0.9224
-3.6962 -19.5661 -1.7421 0.9232
4.6734 -26.4408 -2.3491 0.8978
11.5546 -26.1514 -2.5013 0.8915
14.6157 -24.5721 -2.5013 0.8915
17.4646 -22.6361 -2.5013 0.8915
20.0600 -20.3715 -2.5013 0.8915
24.3439 -14.9926 -2.5013 0.8915
27.2196 -8.7463 -2.5013 0.8915
28.0739 -5.4094 -2.5013 0.8915
28.5207 -1.9941 -2.5013 0.8915
28.5535 1.4503 -2.5013 0.8915
26.4576 4.5770 -2.3491 0.8978
14.5715 8.5955 -1.4801 0.9343
8.8000 8.6024 -1.0767 0.9518
5.2610 8.4731 -0.8726 0.9607
4.0254 8.6603 -0.8355 0.9624
2.8200 8.6677 -0.7975 0.9641
0.6376 8.6657 -0.7602 0.9657
-0.4061 8.6167 -0.7547 0.9660
-2.5296 8.5327 -0.7786 0.9649
-5.0989 8.7164 -0.8835 0.9603
-6.6313 8.7258 -0.9588 0.9569
-13.6223 8.5271 -1.4060 0.9375
-26.7709 2.0680 -2.3491 0.8978
-26.8253 -1.1664 -2.3491 0.8978
-24.7305 -14.3460 -2.5013 0.8915
-16.9563 -20.8192 -2.3491 0.8978
-13.0688 -20.7094 -2.1424 0.9064
-9.2284 -19.4814 -1.8860 0.9171
-3.9459 -19.3372 -1.7266 0.9238
4.2873 -26.5061 -2.3491 0.8978
7.9261 -27.4696 -2.5013 0.8915
11.1720 -26.3171 -2.5013 0.8915
14.2557 -24.7826 -2.5013 0.8915
17.1338 -22.8884 -2.5013 0.8915
22.1021 -18.1356 -2.5013 0.8915
24.1227 -15.3460 -2.5013 0.8915
25.7931 -12.3337 -2.5013 0.8915
27.0891 -9.1424 -2.5013 0.8915
27.9920 -5.8183 -2.5013 0.8915
28.4885 -2.4098 -2.5013 0.8915
26.5924 4.2018 -2.3554 0.8975
15.0642 8.5924 -1.5173 0.9327
11.5955 8.6138 -1.2638 0.9437
7.0670 8.5489 -0.9704 0.9564
5.4388 8.4809 -0.8814 0.9604
1.8359 8.6737 -0.7757 0.9650
0.7654 8.6717 -0.7616 0.9656
-0.2805 8.6226 -0.7548 0.9660
-8.2335 8.7356 -1.0502 0.9529
-10.5061 8.7496 -1.1962 0.9466
-26.7378 2.4582 -2.3491 0.8978
-28.2191 -4.2481 -2.4967 0.8917
-26.4378 -10.8834 -2.5013 0.8915
-24.9371 -13.9838 -2.5013 0.8915
-17.2581 -20.5697 -2.3491 0.8978
-13.7085 -21.0370 -2.1968 0.9041
-9.6019 -19.5285 -1.9039 0.9163
-6.8106 -19.4744 -1.8050 0.9205
-4.2180 -19.2343 -1.7228 0.9240
0.5412 -21.4513 -1.8773 0.9174
3.9003 -26.5658 -2.3491 0.8978
13.8928 -24.9879 -2.5013 0.8915
21.8353 -18.4560 -2.5013 0.8915
27.9042 -6.2259 -2.5013 0.8915
28.5836 0.6169 -2.5013 0.8915
26.9058 3.8500 -2.3779 0.8966
24.9029 10.0399 -2.3491 0.8978
16.3390 9.0063 -1.6323 0.9278
7.2883 8.5593 -0.9835 0.9559
5.6203 8.4889 -0.8907 0.9599
4.3359 8.6584 -0.8472 0.9619
3.1018 8.6660 -0.8053 0.9637
1.9683 8.6729 -0.7781 0.9649
-1.1981 8.5967 -0.7594 0.9657
-4.7621 8.7143 -0.8688 0.9609
-7.9948 8.7342 -1.0359 0.9536
-16.8806 8.5305 -1.6547 0.9269
-21.3079 7.7145 -1.9826 0.9130
-26.2243 6.0523 -2.3546 0.8976
-26.8479 -0.3836 -2.3491 0.8978
-27.8340 -3.7759 -2.4575 0.8933
-27.6630 -7.2224 -2.5013 0.8915
-21.1595 -19.2270 -2.5013 0.8915
-17.5563 -20.3158 -2.3491 0.8978
-9.9826 -19.5765 -1.9225 0.9155
-2.2515 -20.4021 -1.7958 0.9209
0.2264 -21.2844 -1.8622 0.9181
7.1215 -27.6891 -2.5013 0.8915
10.3997 -26.6317 -2.5013 0.8915
13.5269 -25.1878 -2.5013 0.8915
19.1498 -21.2294 -2.5013 0.8915
21.5638 -18.7725 -2.5013 0.8915
26.8110 -9.9285 -2.5013 0.8915
27.8104 -6.6322 -2.5013 0.8915
28.4061 -3.2397 -2.5013 0.8915
28.5896 0.1999 -2.5013 0.8915
26.0285 6.5933 -2.3491 0.8978
25.0467 9.6756 -2.3491 0.8978
16.4983 8.7829 -1.6352 0.9277
9.6330 8.6258 -1.1313 0.9494
7.5157 8.5700 -0.9973 0.9553
4.4945 8.6574 -0.8534 0.9616
2.1016 8.6721 -0.7807 0.9648
3.2230 27.3733 -2.4114 0.8952
-0.0289 8.6344 -0.7554 0.9659
-2.1331 8.5516 -0.7711 0.9652
-3.3265 8.7055 -0.8153 0.9633
-4.5978 8.7133 -0.8619 0.9612
-6.0456 8.7222 -0.9285 0.9583
-7.7625 8.7327 -1.0222 0.9542
-9.8996 8.7459 -1.1557 0.9483
-12.4905 8.6013 -1.3268 0.9409
-26.1452 6.4370 -2.3557 0.8975
-26.8506 0.0081 -2.3491 0.8978
-27.7654 -6.8182 -2.5013 0.8915
-17.8507 -20.0576 -2.3491 0.8978
-15.0914 -21.7452 -2.3157 0.8992
-10.3710 -19.6255 -1.9420 0.9147
-7.4002 -19.3316 -1.8110 0.9202
-0.0833 -21.1201 -1.8478 0.9187
3.1238 -26.6683 -2.3491 0.8978
10.0101 -26.7806 -2.5013 0.8915
21.2877 -19.0850 -2.5013 0.8915
23.4283 -16.3865 -2.5013 0.8915
25.2289 -13.4501 -2.5013 0.8915
26.6633 -10.3185 -2.5013 0.8915
28.5895 -0.2171 -2.5013 0.8915
26.1219 6.2130 -2.3491 0.8978
25.1852 9.3093 -2.3491 0.8978
16.6363 8.5473 -1.6363 0.9277
12.6928 8.5937 -1.3411 0.9403
7.7497 8.5809 -1.0116 0.9546
4.0414 5.7335 -0.6137 0.9722
2.2358 8.6713 -0.7835 0.9647
1.1500 8.6757 -0.7657 0.9655
-0.9448 8.6088 -0.7577 0.9658
-3.1815 8.7046 -0.8108 0.9635
-5.8583 8.7210 -0.9192 0.9587
-7.5362 8.7313 -1.0091 0.9547
-12.1407 8.6241 -1.3029 0.9420
-15.8554 8.6019 -1.5782 0.9301
-26.0604 6.8207 -2.3568 0.8975
-20.3430 2.7721 -1.7962 0.9209
-26.8477 0.3996 -2.3491 0.8978
-26.7009 -2.8319 -2.3491 0.8978
-27.8619 -6.4125 -2.5013 0.8915
-25.5249 -12.8796 -2.5013 0.8915
-23.7907 -15.8558 -2.5013 0.8915
-21.7113 -18.6017 -2.5013 0.8915
-18.8069 -20.5214 -2.4353 0.8943
-7.7085 -19.2897 -1.8174 0.9200
-0.3884 -20.9583 -1.8339 0.9193
5.8241 -25.7338 -2.3084 0.8995
18.5224 -21.7790 -2.5013 0.8915
28.2996 -4.0667 -2.5013 0.8915
28.5832 -0.6340 -2.5013 0.8915
28.4520 2.8080 -2.5013 0.8915
26.2097 5.8314 -2.3491 0.8978
25.3183 8.9410 -2.3491 0.8978
10.2134 8.6223 -1.1694 0.9477
4.1537 5.7139 -0.6180 0.9720
2.3709 8.6705 -0.7864 0.9646
0.2233 8.6462 -0.7567 0.9659
-3.0260 8.6694 -0.8034 0.9638
-5.6748 8.7199 -0.9102 0.9591
-9.3323 8.7424 -1.1188 0.9500
-11.8030 8.6460 -1.2800 0.9429
-15.4516 8.6768 -1.5504 0.9313
-19.7829 8.1577 -1.8721 0.9177
-26.5490 4.0130 -2.3491 0.8978
-26.8390 0.7912 -2.3491 0.8978
-27.0274 -9.3234 -2.5013 0.8915
-19.5961 -20.7663 -2.4980 0.8917
-15.9459 -21.6029 -2.3491 0.8978
-8.0549 -19.3334 -1.8324 0.9193
-3.0942 -19.9772 -1.7686 0.9220
2.0818 -23.7502 -2.0858 0.9087
15.4195 -24.0758 -2.5013 0.8915
24.8259 -14.1802 -2.5013 0.8915
27.4937 -7.8424 -2.5013 0.8915
28.2372 -4.4791 -2.5013 0.8915
28.5710 -1.0507 -2.5013 0.8915
28.4900 2.3928 -2.5013 0.8915
26.2920 5.4485 -2.3491 0.8978
13.5393 8.6018 -1.4034 0.9376
10.5187 8.6204 -1.1898 0.9469
6.3873 8.5225 -0.9318 0.9581
3.6834 8.6624 -0.8235 0.9629
1.6970 5.8680 -0.5344 0.9758
-1.7435 8.5704 -0.7652 0.9655
-4.1197 8.7103 -0.8430 0.9620
-11.4770 8.6671 -1.2583 0.9439
-19.1506 8.2258 -1.8235 0.9197
-23.8918 7.0037 -2.1782 0.9049
-26.7721 -2.0519 -2.3491 0.8978
-24.2430 -15.1552 -2.5013 0.8915
-22.2446 -17.9606 -2.5013 0.8915
-19.9232 -20.5054 -2.5013 0.8915
-11.7295 -20.0236 -2.0303 0.9110
-8.4072 -19.3778 -1.8480 0.9187
-3.3690 -19.8342 -1.7601 0.9224
1.6245 -22.2592 -1.9526 0.9143
