ply
format ascii 1.0
element vertex 1554
property float32 x
property float32 y
property float32 z
property float32 I
end_header
-26.4589 7.2875 -1.4383 0.8959
-35.4983 0.9827 -1.8611 0.8674
-44.8627 -4.1783 -2.3613 0.8349
-36.3696 -7.8817 -1.9503 0.8615
-42.3530 -14.6944 -2.3494 0.8356
-42.8880 -20.9558 -2.5016 0.8260
-36.6441 -30.5897 -2.5016 0.8260
-7.9054 -19.0675 -1.0818 0.9206
-3.1970 -20.8789 -1.1070 0.9189
3.4492 -38.5894 -2.0304 0.8563
15.4784 -45.1546 -2.5016 0.8260
23.5218 -36.5906 -2.2797 0.8401
28.6002 -34.5215 -2.3494 0.8356
33.2425 -24.6392 -2.1685 0.8473
38.9642 -22.1697 -2.3494 0.8356
47.7044 -1.6760 -2.5016 0.8260
43.8822 9.1684 -2.3494 0.8356
28.4168 9.6228 -1.5723 0.8868
10.4845 8.6206 -0.7114 0.9471
8.2413 8.6344 -0.6255 0.9533
6.4471 8.6309 -0.5646 0.9578
4.9293 8.5889 -0.5190 0.9611
3.6131 8.5344 -0.4857 0.9636
1.3947 8.6765 -0.4606 0.9654
-0.7115 8.6894 -0.4569 0.9657
-2.8899 8.6397 -0.4774 0.9642
-4.0789 8.5897 -0.4983 0.9626
-9.0611 8.7132 -0.6588 0.9509
-11.6321 8.7565 -0.7630 0.9433
-20.1281 8.6098 -1.1473 0.9160
-24.4830 7.1371 -1.3365 0.9029
-44.8056 7.3737 -2.3797 0.8337
-44.9515 -3.5124 -2.3630 0.8348
-42.5671 -14.0623 -2.3494 0.8356
-40.4388 -25.3619 -2.5016 0.8260
-8.2912 -19.1857 -1.0953 0.9197
-5.7696 -19.5212 -1.0668 0.9217
-1.0246 -22.1203 -1.1605 0.9151
3.3259 -44.7062 -2.3494 0.8356
20.1540 -43.2705 -2.5016 0.8260
23.6774 -38.0669 -2.3494 0.8356
38.1193 -22.4468 -2.3184 0.8376
41.0849 -17.9370 -2.3494 0.8356
47.0413 -8.1018 -2.5016 0.8260
47.6152 3.3641 -2.5016 0.8260
29.5463 5.7154 -1.5772 0.8864
28.4698 13.1316 -1.6431 0.8820
14.3605 8.8582 -0.8843 0.9346
10.7850 8.6018 -0.7230 0.9462
6.6572 8.6408 -0.5717 0.9572
2.6325 8.6688 -0.4748 0.9644
1.5274 8.6756 -0.4617 0.9653
-0.3936 5.8824 -0.3090 0.9767
-1.6436 8.6697 -0.4625 0.9653
-2.7473 8.6390 -0.4751 0.9643
-3.9266 8.5971 -0.4953 0.9629
-5.3328 8.7178 -0.5356 0.9599
-11.2758 8.7543 -0.7481 0.9444
-19.4221 8.6521 -1.1143 0.9184
-23.4217 7.2079 -1.2843 0.9065
-45.0021 -2.8430 -2.3632 0.8348
-39.2229 -7.2848 -2.0907 0.8523
-42.7717 -13.4270 -2.3494 0.8356
-43.4929 -19.6696 -2.5016 0.8260
-40.8119 -24.7571 -2.5016 0.8260
-37.5387 -29.4851 -2.5016 0.8260
-16.5908 -21.2059 -1.4111 0.8978
-11.9342 -19.7588 -1.2097 0.9117
-8.6976 -19.3304 -1.1109 0.9186
-6.0133 -19.2847 -1.0587 0.9223
-1.3400 -21.8764 -1.1486 0.9160
8.5417 -46.9634 -2.5016 0.8260
14.1272 -45.5954 -2.5016 0.8260
27.5598 -35.3576 -2.3494 0.8356
30.5508 -30.7203 -2.2706 0.8407
38.2868 -23.3200 -2.3494 0.8356
40.8133 -18.5466 -2.3494 0.8356
40.2122 -12.7033 -2.2101 0.8446
47.6600 2.6549 -2.5016 0.8260
27.0756 8.2787 -1.4838 0.8928
5.2736 8.5862 -0.5281 0.9604
3.9225 8.5471 -0.4929 0.9630
2.7618 8.6305 -0.4749 0.9644
1.6608 8.6748 -0.4629 0.9652
-0.4515 8.6878 -0.4559 0.9658
-1.5113 8.6759 -0.4615 0.9653
-2.6061 8.6383 -0.4729 0.9645
-3.7762 8.6044 -0.4925 0.9631
-14.0673 8.7125 -0.8672 0.9359
-18.7553 8.6920 -1.0833 0.9205
-23.4101 7.5876 -1.2897 0.9061
-44.6366 8.7181 -2.3835 0.8335
-45.1409 3.2712 -2.3719 0.8342
-43.7809 -19.0198 -2.5016 0.8260
-37.9735 -28.9229 -2.5016 0.8260
-34.2198 -33.2795 -2.5016 0.8260
-17.7626 -22.0201 -1.4827 0.8929
-12.4193 -19.8868 -1.2288 0.9104
-6.2772 -19.1243 -1.0549 0.9225
-1.6405 -21.5263 -1.1314 0.9172
7.8415 -47.0854 -2.5016 0.8260
18.8568 -43.8514 -2.5016 0.8260
27.0303 -35.7641 -2.3494 0.8356
31.1349 -32.2541 -2.3494 0.8356
36.2874 -22.8496 -2.2474 0.8422
40.2002 -13.3609 -2.2201 0.8439
46.7792 -9.4987 -2.5016 0.8260
47.6942 1.9450 -2.5016 0.8260
44.2478 7.1999 -2.3494 0.8356
15.2769 8.8066 -0.9241 0.9318
9.0067 8.6297 -0.6537 0.9513
7.0776 8.6415 -0.5854 0.9562
5.4504 8.5848 -0.5329 0.9601
4.0811 8.5544 -0.4967 0.9627
1.9385 5.7609 -0.3185 0.9759
0.7266 8.6806 -0.4565 0.9657
-2.4662 8.6376 -0.4708 0.9647
-3.6274 8.6116 -0.4897 0.9633
-13.7373 24.0365 -1.4509 0.8950
-6.4928 8.7249 -0.5700 0.9574
-10.6031 8.7502 -0.7205 0.9464
-18.1244 8.7297 -1.0543 0.9226
-45.1035 3.9445 -2.3728 0.8341
-45.1123 -1.5034 -2.3655 0.8346
-44.0592 -18.3659 -2.5016 0.8260
-34.7115 -32.7664 -2.5016 0.8260
-18.9608 -22.8023 -1.5542 0.8880
-9.3532 -19.2356 -1.1209 0.9179
-6.6638 -19.3262 -1.0714 0.9214
-4.3553 -20.2847 -1.0873 0.9203
-1.4725 -16.1448 -0.8496 0.9371
0.8160 -27.5676 -1.4454 0.8954
12.7634 -45.9958 -2.5016 0.8260
18.2019 -44.1272 -2.5016 0.8260
30.6512 -32.7140 -2.3494 0.8356
26.0477 -16.9487 -1.6286 0.8830
40.2430 -19.7536 -2.3494 0.8356
46.6326 -10.1940 -2.5016 0.8260
44.3501 6.5403 -2.3494 0.8356
31.0586 8.4942 -1.6875 0.8790
21.0089 8.5745 -1.1892 0.9131
15.6765 8.7286 -0.9403 0.9307
9.2777 8.6280 -0.6640 0.9505
7.2941 8.6402 -0.5926 0.9557
4.2422 8.5617 -0.5008 0.9625
2.0187 5.7161 -0.3177 0.9760
1.9299 8.6732 -0.4657 0.9650
0.8568 8.6798 -0.4571 0.9657
-2.3277 8.6376 -0.4688 0.9648
-4.7366 8.5820 -0.5137 0.9615
-6.2923 8.7237 -0.5637 0.9578
-13.2334 8.7516 -0.8315 0.9384
-17.5258 8.7652 -1.0270 0.9245
-34.8293 7.8859 -1.8715 0.8667
-45.1478 -0.8320 -2.3665 0.8345
-43.3286 -11.5039 -2.3494 0.8356
-38.8177 -27.7796 -2.5016 0.8260
-35.1956 -32.2458 -2.5016 0.8260
-19.7877 -23.0887 -1.5936 0.8853
-13.3846 -20.0762 -1.2645 0.9079
-9.7724 -19.3595 -1.1365 0.9168
-6.8974 -19.0772 -1.0631 0.9220
-4.6395 -20.1426 -1.0833 0.9205
-2.2594 -21.2672 -1.1208 0.9179
0.3785 -25.7416 -1.3492 0.9020
6.4362 -47.2980 -2.5016 0.8260
12.0772 -46.1808 -2.5016 0.8260
22.7414 -41.9386 -2.5002 0.8261
30.1608 -33.1667 -2.3494 0.8356
33.2177 -28.6836 -2.3001 0.8388
39.9444 -20.3506 -2.3494 0.8356
46.4757 -10.8871 -2.5016 0.8260
47.7310 0.5242 -2.5016 0.8260
21.9224 8.5688 -1.2335 0.9100
12.2223 8.6099 -0.7835 0.9419
7.5160 8.6388 -0.6001 0.9552
5.8277 8.6019 -0.5445 0.9592
4.4060 8.5692 -0.5050 0.9621
3.1592 8.5384 -0.4771 0.9642
2.0656 8.6723 -0.4672 0.9649
0.9874 8.6790 -0.4578 0.9656
-0.0630 8.6854 -0.4552 0.9658
-2.1920 8.6440 -0.4673 0.9649
-4.5710 8.5815 -0.5096 0.9618
-6.0960 8.7225 -0.5577 0.9583
-9.9777 8.7463 -0.6954 0.9482
-34.8269 8.4325 -1.8779 0.8663
-45.1680 -0.1597 -2.3672 0.8345
-39.2822 -9.8058 -2.1219 0.8503
-42.2131 -22.2841 -2.5016 0.8260
-39.2270 -27.1986 -2.5016 0.8260
-13.8906 -20.1779 -1.2838 0.9065
-10.2699 -19.6134 -1.1603 0.9151
-5.7376 -15.1596 -0.8495 0.9371
-0.0046 -24.2402 -1.2704 0.9075
5.7313 -47.3885 -2.5016 0.8260
22.1267 -42.2958 -2.5016 0.8260
29.6637 -33.6120 -2.3494 0.8356
30.9237 -27.5170 -2.1694 0.8472
34.8730 -24.1989 -2.2245 0.8436
41.8679 -16.0245 -2.3494 0.8356
47.3647 -5.9253 -2.5016 0.8260
44.5251 5.2170 -2.3494 0.8356
22.9145 8.5656 -1.2821 0.9067
9.8461 8.6245 -0.6860 0.9489
7.7437 8.6375 -0.6080 0.9546
1.1184 8.6782 -0.4586 0.9656
0.0663 8.6846 -0.4552 0.9658
-0.9810 8.6513 -0.4563 0.9657
-3.1905 8.6329 -0.4823 0.9638
-4.4081 8.5811 -0.5056 0.9621
-9.6810 8.7445 -0.6837 0.9491
-22.6654 3.0070 -1.1982 0.9125
-45.1842 0.5129 -2.3682 0.8344
-38.4111 -8.9830 -2.0674 0.8538
-42.7683 -15.6253 -2.3863 0.8333
-42.5402 -21.6531 -2.5016 0.8260
-39.6277 -26.6114 -2.5016 0.8260
-36.1400 -31.1837 -2.5016 0.8260
-14.5778 -20.5153 -1.3190 0.9041
-10.5499 -19.4384 -1.1591 0.9152
-2.8660 -21.0036 -1.1110 0.9186
-0.3453 -22.9032 -1.2004 0.9123
10.6970 -46.5199 -2.5016 0.8260
24.8538 -37.3094 -2.3494 0.8356
32.9839 -30.2423 -2.3452 0.8359
33.7784 -24.1922 -2.1774 0.8467
39.3209 -21.5308 -2.3494 0.8356
46.1309 -12.2662 -2.5016 0.8260
47.2712 -6.6298 -2.5016 0.8260
47.7254 -0.8971 -2.5016 0.8260
44.7102 4.5648 -2.3553 0.8353
7.1948 -27.6737 -2.5016 0.8915
16.5204 -23.3382 -2.5016 0.8915
19.2071 -21.1823 -2.5016 0.8915
21.6149 -18.7188 -2.5016 0.8915
23.7090 -15.9838 -2.5016 0.8915
25.4591 -13.0167 -2.5016 0.8915
27.8306 -6.5617 -2.5016 0.8915
28.4177 -3.1673 -2.5016 0.8915
28.3521 3.7093 -2.5016 0.8915
12.2593 8.6097 -1.3106 0.9416
9.5847 8.6261 -1.1281 0.9495
7.5377 8.6387 -1.0031 0.9550
4.4101 8.5469 -0.8414 0.9621
3.1573 8.4959 -0.7930 0.9643
2.0788 8.6723 -0.7802 0.9648
-0.0506 8.6854 -0.7599 0.9657
-3.4741 27.3457 -2.4117 0.8952
-3.3125 8.6054 -0.8067 0.9637
-6.0774 8.7224 -0.9301 0.9582
-12.7810 8.7555 -1.3554 0.9397
-16.1052 8.3861 -1.5886 0.9297
-26.1252 6.3652 -2.3525 0.8977
-20.4722 2.4362 -1.8037 0.9206
-28.3789 -3.4981 -2.5016 0.8915
-27.7523 -6.8854 -2.5016 0.8915
-26.7230 -10.1727 -2.5016 0.8915
-25.3058 -13.3123 -2.5016 0.8915
-21.3954 -18.9693 -2.5016 0.8915
-17.8056 -20.1023 -2.3494 0.8978
-13.8153 -20.0069 -2.1271 0.9070
-10.1521 -19.3210 -1.9095 0.9161
-5.0116 -20.2414 -1.8244 0.9197
-2.5661 -20.9007 -1.8423 0.9189
13.2181 -25.3551 -2.5016 0.8915
18.8896 -21.4659 -2.5016 0.8915
21.3338 -19.0386 -2.5016 0.8915
23.4684 -16.3350 -2.5016 0.8915
26.6898 -10.2592 -2.5016 0.8915
27.7298 -6.9753 -2.5016 0.8915
26.1113 6.2722 -2.3494 0.8978
25.1675 9.3667 -2.3494 0.8978
23.9203 12.3570 -2.3555 0.8975
9.8745 8.6243 -1.1470 0.9487
7.7660 8.6373 -1.0162 0.9544
6.0420 8.6119 -0.9204 0.9586
4.5764 8.5543 -0.8488 0.9618
3.3026 8.4974 -0.7976 0.9641
1.1311 8.6781 -0.7657 0.9655
-2.0440 8.6509 -0.7777 0.9649
-4.3780 8.5526 -0.8406 0.9622
-7.5690 8.7316 -1.0110 0.9547
-15.7427 8.4976 -1.5651 0.9307
-20.5753 8.0852 -1.9341 0.9151
-26.0398 6.7567 -2.3536 0.8976
-27.8518 -6.4714 -2.5016 0.8915
-25.5011 -12.9341 -2.5016 0.8915
-23.7607 -15.9069 -2.5016 0.8915
-18.1029 -19.8349 -2.3494 0.8978
-14.5154 -20.3654 -2.1880 0.9045
-7.6230 -19.1890 -1.8064 0.9204
-2.8610 -20.7443 -1.8321 0.9194
-0.3725 -22.5606 -1.9741 0.9134
9.6736 -26.9076 -2.5016 0.8915
12.8391 -25.5491 -2.5016 0.8915
18.5679 -21.7447 -2.5016 0.8915
23.2226 -16.6826 -2.5016 0.8915
28.5878 -0.5785 -2.5016 0.8915
26.2017 5.8828 -2.3494 0.8978
25.3042 8.9909 -2.3494 0.8978
24.0877 11.9926 -2.3541 0.8976
13.0626 8.6047 -1.3685 0.9391
10.1742 8.6225 -1.1668 0.9479
6.2421 8.6213 -0.9312 0.9582
4.7457 8.5618 -0.8564 0.9615
3.4518 8.5041 -0.8030 0.9638
1.2626 8.6773 -0.7672 0.9654
0.2080 8.6838 -0.7599 0.9657
-0.8420 8.6902 -0.7639 0.9656
-7.3430 8.7302 -0.9980 0.9552
-9.3668 8.7426 -1.1210 0.9499
-15.2592 8.5324 -1.5295 0.9322
-28.0672 -2.6141 -2.4662 0.8930
-27.9450 -6.0560 -2.5016 0.8915
-27.0140 -9.3725 -2.5016 0.8915
-25.6909 -12.5530 -2.5016 0.8915
-21.9507 -18.3239 -2.5016 0.8915
-18.3962 -19.5632 -2.3494 0.8978
-15.2568 -20.7450 -2.2529 0.9018
-7.9455 -19.1641 -1.8150 0.9201
-3.1527 -20.5896 -1.8224 0.9198
5.9520 -27.9673 -2.5016 0.8915
9.2719 -27.0487 -2.5016 0.8915
12.4573 -25.7374 -2.5016 0.8915
20.6453 -19.5590 -2.4881 0.8921
24.8525 -14.1405 -2.5016 0.8915
28.5760 -1.0040 -2.5016 0.8915
25.4352 8.6132 -2.3494 0.8978
24.2495 11.6260 -2.3528 0.8976
14.2144 9.0630 -1.4749 0.9346
10.4845 8.6206 -1.1875 0.9470
2.4924 8.6697 -0.7892 0.9644
-0.7115 8.6894 -0.7628 0.9656
-1.7765 8.6635 -0.7737 0.9651
-2.8828 8.6185 -0.7951 0.9642
-4.0686 8.5680 -0.8298 0.9626
-9.0611 8.7132 -1.0998 0.9508
-11.6320 8.7565 -1.2738 0.9432
-19.6068 8.3868 -1.8657 0.9179
-24.6922 7.1981 -2.2502 0.9019
-22.1170 3.6398 -1.9610 0.9139
-26.8297 1.1427 -2.3494 0.8978
-27.1505 -8.9693 -2.5016 0.8915
-25.8749 -12.1691 -2.5016 0.8915
-22.2211 -17.9951 -2.5016 0.8915
-18.6854 -19.2872 -2.3494 0.8978
-16.0437 -21.1480 -2.3224 0.8989
-11.3703 -19.4746 -1.9729 0.9134
-5.8053 -19.6420 -1.7919 0.9211
-3.4450 -20.4578 -1.8150 0.9201
-1.0064 -21.7279 -1.9030 0.9164
1.9923 -26.7800 -2.3494 0.8978
5.5349 -28.0529 -2.5016 0.8915
12.0727 -25.9200 -2.5016 0.8915
15.1021 -24.2801 -2.5016 0.8915
17.9122 -22.2879 -2.5016 0.8915
20.4625 -19.9721 -2.5016 0.8915
22.7156 -17.3666 -2.5016 0.8915
24.6392 -14.5089 -2.5016 0.8915
26.2051 -11.4407 -2.5016 0.8915
27.3907 -8.2065 -2.5016 0.8915
28.5579 -1.4294 -2.5016 0.8915
28.5226 2.0152 -2.5016 0.8915
26.3653 5.1001 -2.3494 0.8978
10.7850 8.6018 -1.2069 0.9461
3.7565 8.5177 -0.8145 0.9633
2.6325 8.6688 -0.7926 0.9643
1.5274 8.6756 -0.7707 0.9652
0.4670 8.6822 -0.7607 0.9657
-1.6436 8.6697 -0.7720 0.9652
-5.3328 8.7178 -0.8941 0.9598
-6.9078 8.7275 -0.9738 0.9563
-28.1129 -5.2213 -2.5016 0.8915
-22.4865 -17.6622 -2.5016 0.8915
-16.5472 -21.1502 -2.3494 0.8978
-8.6056 -19.1260 -1.8349 0.9192
-6.0237 -19.3178 -1.7703 0.9220
11.6855 -26.0969 -2.5016 0.8915
14.7389 -24.5023 -2.5016 0.8915
17.5784 -22.5521 -2.5016 0.8915
20.1628 -20.2746 -2.5016 0.8915
24.4204 -14.8742 -2.5016 0.8915
26.0319 -11.8296 -2.5016 0.8915
28.1035 -5.2721 -2.5016 0.8915
26.4383 4.7070 -2.3494 0.8978
25.6804 7.8521 -2.3494 0.8978
24.5562 10.8860 -2.3500 0.8978
15.2697 9.1080 -1.5555 0.9311
8.7440 8.6313 -1.0749 0.9519
3.9122 8.5247 -0.8206 0.9630
-1.5113 8.6759 -0.7705 0.9653
-2.6020 8.6247 -0.7882 0.9645
-6.6978 8.7262 -0.9624 0.9568
-8.5610 8.7377 -1.0702 0.9521
-10.9331 8.7522 -1.2253 0.9453
-13.9196 8.6210 -1.4325 0.9364
-18.4284 8.5405 -1.7770 0.9217
-26.3560 5.1477 -2.3494 0.8978
-26.8229 -1.2939 -2.3494 0.8978
-27.4055 -8.1570 -2.5016 0.8915
-26.2258 -11.3933 -2.5016 0.8915
-6.3324 -19.2926 -1.7765 0.9217
1.1941 -26.8275 -2.3494 0.8978
4.6944 -28.1884 -2.5001 0.8916
8.0549 -27.4357 -2.5016 0.8915
11.2957 -26.2680 -2.5016 0.8915
17.2407 -22.8114 -2.5016 0.8915
22.1885 -18.0352 -2.5016 0.8915
28.0218 -5.6899 -2.5016 0.8915
28.5027 -2.2790 -2.5016 0.8915
28.5699 1.1651 -2.5016 0.8915
25.7945 7.4689 -2.3494 0.8978
24.7092 10.5165 -2.3494 0.8978
11.4864 8.6144 -1.2561 0.9440
9.0067 8.6297 -1.0913 0.9511
7.0776 8.6415 -0.9772 0.9561
-0.3219 8.6870 -0.7605 0.9657
-2.4644 8.6312 -0.7853 0.9646
-4.8786 8.5362 -0.8602 0.9613
-8.3082 8.7361 -1.0548 0.9527
-10.6031 8.7502 -1.2027 0.9463
-17.9033 8.6232 -1.7386 0.9233
-23.4078 7.9738 -2.1635 0.9055
-28.2559 -4.3821 -2.5016 0.8915
-27.5239 -7.7481 -2.5016 0.8915
-26.3925 -11.0016 -2.5016 0.8915
-24.8780 -14.0956 -2.5016 0.8915
-23.0024 -16.9850 -2.5016 0.8915
-17.1696 -20.6481 -2.3494 0.8978
-12.6749 -19.6391 -2.0450 0.9104
-6.5767 -19.0735 -1.7651 0.9222
4.0166 -26.5519 -2.3494 0.8978
14.0029 -24.9302 -2.5016 0.8915
19.5502 -20.8659 -2.5016 0.8915
23.9667 -15.5947 -2.5016 0.8915
25.6681 -12.5994 -2.5016 0.8915
28.5841 0.7396 -2.5016 0.8915
28.2722 4.1693 -2.5002 0.8916
15.6780 8.7295 -1.5699 0.9305
11.8469 8.6122 -1.2814 0.9429
5.6368 8.5929 -0.8991 0.9596
2.0187 5.7160 -0.5304 0.9760
0.8568 8.6798 -0.7631 0.9656
-0.1924 8.6862 -0.7601 0.9657
-1.2482 8.6883 -0.7679 0.9654
-3.4717 8.5975 -0.8112 0.9635
-8.0626 8.7346 -1.0400 0.9534
-10.2849 8.7482 -1.1813 0.9472
-22.9130 8.1880 -2.1288 0.9069
-26.2120 5.9348 -2.3513 0.8977
-27.6362 -7.3375 -2.5016 0.8915
-26.5534 -10.6075 -2.5016 0.8915
-23.2527 -16.6406 -2.5016 0.8915
-21.0830 -19.3160 -2.5016 0.8915
-13.1315 -19.6967 -2.0711 0.9093
-6.8926 -19.0638 -1.7735 0.9218
-4.6460 -20.1705 -1.8109 0.9202
0.3672 -24.9720 -2.1850 0.9046
3.5002 -25.7220 -2.2711 0.9010
7.2345 -27.6633 -2.5016 0.8915
10.5086 -26.5926 -2.5016 0.8915
16.5539 -23.3145 -2.5016 0.8915
19.2374 -21.1547 -2.5016 0.8915
21.6418 -18.6878 -2.5016 0.8915
23.7319 -15.9498 -2.5016 0.8915
27.8400 -6.5217 -2.5016 0.8915
28.5920 0.3140 -2.5016 0.8915
28.3467 3.7500 -2.5016 0.8915
26.0054 6.6976 -2.3494 0.8978
25.0113 9.7762 -2.3494 0.8978
12.2223 8.6099 -1.3080 0.9417
3.1435 8.4960 -0.7925 0.9643
2.0656 8.6723 -0.7800 0.9648
-3.5133 27.3405 -2.4116 0.8952
-2.1920 8.6440 -0.7802 0.9648
-3.3265 8.6047 -0.8071 0.9636
-6.0960 8.7225 -0.9310 0.9582
-7.8237 8.7331 -1.0258 0.9540
-16.1407 8.3751 -1.5909 0.9296
-21.8613 8.1812 -2.0422 0.9105
-27.7424 -6.9251 -2.5016 0.8915
-21.3682 -19.0000 -2.5016 0.8915
-17.7767 -20.1278 -2.3494 0.8978
-13.7499 -19.9734 -2.1215 0.9072
-10.1143 -19.3162 -1.9076 0.9162
-4.9512 -20.1212 -1.8129 0.9202
-0.0045 -23.7604 -2.0788 0.9090
3.2243 -26.6598 -2.3494 0.8978
21.3611 -19.0079 -2.5016 0.8915
25.2817 -13.3580 -2.5016 0.8915
27.7398 -6.9355 -2.5016 0.8915
28.3725 -3.5494 -2.5016 0.8915
28.5935 -0.1117 -2.5016 0.8915
28.3994 3.3275 -2.5016 0.8915
26.1022 6.3097 -2.3494 0.8978
25.1541 9.4028 -2.3494 0.8978
23.9038 12.3921 -2.3556 0.8975
7.7437 8.6375 -1.0149 0.9545
2.2024 8.6715 -0.7827 0.9647
1.1184 8.6782 -0.7655 0.9655
0.0663 8.6846 -0.7598 0.9657
-0.9810 8.6513 -0.7617 0.9656
-5.9039 8.7213 -0.9214 0.9586
-9.6810 8.7445 -1.1413 0.9490
-15.7772 8.4870 -1.5674 0.9306
-20.6238 8.0701 -1.9376 0.9149
-26.0483 6.7190 -2.3535 0.8976
-26.8523 0.3049 -2.3494 0.8978
-28.3868 -3.1121 -2.4984 0.8917
-18.0744 -19.8609 -2.3494 0.8978
-10.5108 -19.3662 -1.9278 0.9153
-7.6200 -19.2621 -1.8123 0.9202
-5.2053 -19.8740 -1.7974 0.9208
-2.8327 -20.7593 -1.8330 0.9193
12.8757 -25.5307 -2.5016 0.8915
18.5991 -21.7180 -2.5016 0.8915
21.0757 -19.3239 -2.5016 0.8915
26.5494 -10.6173 -2.5016 0.8915
28.3165 -3.9714 -2.5016 0.8915
26.1933 5.9204 -2.3494 0.8978
25.2913 9.0272 -2.3494 0.8978
24.0718 12.0279 -2.3543 0.8976
0.2539 -19.1328 -2.3494 0.9258
2.5528 -18.9635 -2.3494 0.9258
9.6863 -17.9243 -2.5016 0.9212
19.1243 -7.0262 -2.5016 0.9212
19.8304 -4.6754 -2.5016 0.9212
20.3732 0.1945 -2.5016 0.9212
20.2019 2.6430 -2.5016 0.9212
18.5367 4.7457 -2.3494 0.9258
17.8315 6.9404 -2.3494 0.9258
16.8675 9.0343 -2.3494 0.9258
9.5847 8.6261 -1.5833 0.9494
4.3837 8.4958 -1.1738 0.9622
3.1393 8.4475 -1.1065 0.9643
1.0000 8.6789 -1.0727 0.9654
-2.4443 19.2395 -2.3813 0.9248
-2.1748 8.6283 -1.0926 0.9648
-3.2972 8.5654 -1.1269 0.9637
-4.5086 8.4936 -1.1807 0.9620
-7.8010 8.7330 -1.4378 0.9539
-12.7810 8.7556 -1.9022 0.9395
-18.5907 4.5295 -2.3494 0.9258
-19.0005 2.2611 -2.3494 0.9258
-20.3741 -0.0428 -2.5016 0.9212
-20.2211 -2.4925 -2.5016 0.9212
-19.7746 -4.9061 -2.5016 0.9212
-19.0411 -7.2484 -2.5016 0.9212
-15.2451 -13.5164 -2.5016 0.9212
-13.5090 -15.2515 -2.5016 0.9212
-2.3318 -18.9919 -2.3494 0.9258
-0.0310 -19.1345 -2.3494 0.9258
7.1775 -19.0680 -2.5016 0.9212
9.4184 -18.0665 -2.5016 0.9212
15.2012 -13.5657 -2.5016 0.9212
19.7586 -4.9702 -2.5016 0.9212
20.2390 2.3419 -2.5016 0.9212
18.8435 4.5265 -2.3795 0.9249
17.9328 6.6741 -2.3494 0.9258
17.0001 8.7821 -2.3494 0.9258
9.8745 8.6243 -1.6098 0.9485
7.7660 8.6373 -1.4262 0.9543
5.9972 8.5481 -1.2821 0.9588
4.5481 8.5014 -1.1838 0.9619
3.2869 8.4569 -1.1140 0.9641
2.2156 8.6714 -1.0989 0.9646
1.1311 8.6781 -1.0745 0.9653
0.0787 8.6846 -1.0664 0.9656
-2.0404 8.6356 -1.0895 0.9649
-3.1546 8.5737 -1.1217 0.9639
-4.3526 8.5030 -1.1729 0.9622
-5.8856 8.7212 -1.2919 0.9585
-7.5690 8.7316 -1.4188 0.9545
-16.8468 9.0936 -2.3506 0.9257
-17.8089 6.9981 -2.3494 0.9258
-18.5212 4.8058 -2.3494 0.9258
-18.9647 2.5437 -2.3494 0.9258
-19.8454 -4.6112 -2.5016 0.9212
-19.1469 -6.9641 -2.5016 0.9212
-18.1705 -9.2161 -2.5016 0.9212
-16.9304 -11.3342 -2.5016 0.9212
-13.7346 -15.0487 -2.5016 0.9212
-11.2356 -15.7638 -2.3769 0.9250
-9.1515 -16.8042 -2.3494 0.9258
-2.6143 -18.9551 -2.3494 0.9258
-0.3159 -19.1319 -2.3494 0.9258
1.9871 -19.0311 -2.3494 0.9258
6.8928 -19.1727 -2.5016 0.9212
11.2711 -16.9725 -2.5016 0.9212
13.2303 -15.4940 -2.5016 0.9212
16.5470 -11.8870 -2.5016 0.9212
18.9066 -7.5924 -2.5016 0.9212
19.6824 -5.2638 -2.5016 0.9212
20.3699 -0.4122 -2.5016 0.9212
20.2717 2.0404 -2.5016 0.9212
13.6615 3.0673 -1.7192 0.9451
6.1935 8.5542 -1.2967 0.9583
4.7153 8.5070 -1.1942 0.9616
1.2626 8.6773 -1.0767 0.9653
0.2080 8.6838 -1.0665 0.9656
-1.9067 8.6428 -1.0867 0.9650
-3.0133 8.5817 -1.1168 0.9640
-5.6977 8.7200 -1.2790 0.9589
-7.3430 8.7302 -1.4007 0.9551
-9.3668 8.7426 -1.5732 0.9497
-18.4476 5.0810 -2.3494 0.9258
-18.9247 2.8258 -2.3494 0.9258
-20.2863 -1.8894 -2.5016 0.9212
-18.3057 -8.9445 -2.5016 0.9212
-17.0973 -11.0809 -2.5016 0.9212
-15.6407 -13.0565 -2.5016 0.9212
-7.3283 -17.6756 -2.3494 0.9258
-5.1496 -18.4286 -2.3494 0.9258
-0.6007 -19.1251 -2.3494 0.9258
1.7035 -19.0585 -2.3494 0.9258
4.2410 -19.9278 -2.5016 0.9212
14.7905 -14.0123 -2.5016 0.9212
16.3682 -12.1320 -2.5016 0.9212
17.7083 -10.0757 -2.5016 0.9212
19.6018 -5.5562 -2.5016 0.9212
20.1277 -3.1587 -2.5016 0.9212
20.3615 -0.7154 -2.5016 0.9212
20.2998 1.7383 -2.5016 0.9212
18.1236 6.1372 -2.3494 0.9258
17.2541 8.2721 -2.3494 0.9258
14.2144 9.0630 -2.0699 0.9343
10.4845 8.6206 -1.6666 0.9468
6.4143 8.5871 -1.3160 0.9577
4.8855 8.5126 -1.2051 0.9612
0.3374 8.6830 -1.0669 0.9656
-0.7115 8.6894 -1.0705 0.9655
-4.0465 8.5214 -1.1583 0.9627
-7.1227 8.7288 -1.3833 0.9556
-9.0611 8.7132 -1.5435 0.9506
-11.6321 8.7565 -1.7877 0.9430
-18.3699 5.3551 -2.3494 0.9258
-18.8806 3.1072 -2.3494 0.9258
-20.3262 0.8657 -2.4980 0.9213
-19.9739 -4.0182 -2.5016 0.9212
-19.3458 -6.3910 -2.5016 0.9212
-15.8334 -12.8222 -2.5016 0.9212
-14.1766 -14.6332 -2.5016 0.9212
-12.1650 -16.0352 -2.4713 0.9221
-9.6478 -16.5243 -2.3494 0.9258
-5.4234 -18.3499 -2.3494 0.9258
-0.8853 -19.1140 -2.3494 0.9258
1.4196 -19.0818 -2.3494 0.9258
6.3189 -19.3694 -2.5016 0.9212
8.6023 -18.4690 -2.5016 0.9212
14.5803 -14.2309 -2.5016 0.9212
17.5564 -10.3382 -2.5016 0.9212
18.6722 -8.1520 -2.5016 0.9212
19.5170 -5.8474 -2.5016 0.9212
20.0785 -3.4580 -2.5016 0.9212
20.3234 1.4359 -2.5016 0.9212
18.2129 5.8667 -2.3494 0.9258
17.3753 8.0143 -2.3494 0.9258
14.3605 8.8582 -2.0717 0.9343
10.7850 8.6018 -1.6938 0.9459
8.4890 8.6329 -1.4866 0.9524
3.7369 8.4732 -1.1371 0.9634
1.5274 8.6756 -1.0816 0.9651
-0.3935 5.8804 -0.7236 0.9765
-1.6412 8.6569 -1.0819 0.9651
-2.7341 8.5975 -1.1077 0.9643
-5.3328 8.7178 -1.2548 0.9597
-6.9078 8.7275 -1.3666 0.9561
-11.2758 8.7543 -1.7528 0.9441
-17.4787 7.7863 -2.3494 0.9258
-18.2881 5.6280 -2.3494 0.9258
-20.3336 -1.2846 -2.5016 0.9212
-17.4196 -10.5670 -2.5016 0.9212
-16.0225 -12.5850 -2.5016 0.9212
-7.8513 -17.4496 -2.3494 0.9258
-1.1698 -19.0987 -2.3494 0.9258
1.1353 -19.1008 -2.3494 0.9258
3.6376 -20.0002 -2.4960 0.9213
8.3264 -18.5950 -2.5016 0.9212
14.3668 -14.4464 -2.5016 0.9212
15.9998 -12.6140 -2.5016 0.9212
17.4005 -10.5984 -2.5016 0.9212
18.5487 -8.4290 -2.5016 0.9212
19.4277 -6.1374 -2.5016 0.9212
20.3312 -1.3213 -2.5016 0.9212
20.3426 1.1332 -2.5016 0.9212
20.0555 3.5706 -2.5012 0.9212
18.2983 5.5949 -2.3494 0.9258
17.4927 7.7547 -2.3494 0.9258
15.2697 9.1080 -2.1831 0.9309
8.7440 8.6313 -1.5086 0.9517
3.8911 8.4787 -1.1454 0.9631
2.7618 8.6305 -1.1126 0.9641
0.5967 8.6814 -1.0685 0.9655
-0.4515 8.6878 -1.0682 0.9655
-3.7476 8.5392 -1.1450 0.9631
-5.1365 8.6848 -1.2389 0.9602
-6.6978 8.7262 -1.3507 0.9566
-18.7797 3.6679 -2.3494 0.9258
-19.5703 1.4182 -2.4092 0.9240
-17.5750 -10.3064 -2.5016 0.9212
-14.6059 -14.2046 -2.5016 0.9212
-10.1355 -16.2297 -2.3494 0.9258
-8.1102 -17.3307 -2.3494 0.9258
-1.4540 -19.0792 -2.3494 0.9258
0.8509 -19.1156 -2.3494 0.9258
3.2490 -19.5093 -2.4284 0.9234
5.7394 -19.5490 -2.5016 0.9212
8.0486 -18.7169 -2.5016 0.9212
12.2846 -16.2540 -2.5016 0.9212
14.1501 -14.6587 -2.5016 0.9212
18.4212 -8.7043 -2.5016 0.9212
20.3093 -1.6239 -2.5016 0.9212
17.6062 7.4934 -2.3494 0.9258
11.4865 8.6144 -1.7629 0.9438
9.0067 8.6297 -1.5316 0.9510
5.4156 8.5299 -1.2406 0.9601
4.0476 8.4842 -1.1542 0.9628
0.7266 8.6806 -1.0696 0.9655
-0.3219 8.6870 -1.0674 0.9656
-1.3777 8.6706 -1.0780 0.9652
-2.4592 8.6128 -1.0998 0.9645
-3.6006 8.5478 -1.1388 0.9633
-8.3082 8.7361 -1.4803 0.9526
-17.2391 8.3033 -2.3494 0.9258
-18.7230 3.9471 -2.3494 0.9258
-20.1334 -3.1224 -2.5016 0.9212
-19.6119 -5.5208 -2.5016 0.9212
-18.8057 -7.8391 -2.5016 0.9212
-16.3901 -12.1024 -2.5016 0.9212
-14.8158 -13.9856 -2.5016 0.9212
-13.0265 -15.6657 -2.5016 0.9212
-4.0168 -18.7082 -2.3494 0.9258
-1.4618 -16.0283 -1.9762 0.9372
2.8620 -18.9193 -2.3494 0.9258
9.9776 -17.7638 -2.5016 0.9212
12.0413 -16.4351 -2.5016 0.9212
15.6171 -13.0847 -2.5016 0.9212
17.0772 -11.1118 -2.5016 0.9212
18.2895 -8.9776 -2.5016 0.9212
19.9041 -4.3511 -2.5016 0.9212
20.2829 -1.9261 -2.5016 0.9212
18.4567 5.0477 -2.3494 0.9258
17.7158 7.2305 -2.3494 0.9258
15.6780 8.7295 -2.2033 0.9302
11.8469 8.6122 -1.7984 0.9427
7.2941 8.6402 -1.3884 0.9555
5.5993 8.5357 -1.2534 0.9597
4.2065 8.4897 -1.1633 0.9625
1.9299 8.6732 -1.0910 0.9648
0.8568 8.6798 -1.0709 0.9655
-1.2466 8.6774 -1.0764 0.9653
-3.4551 8.5563 -1.1330 0.9635
-4.6724 8.4656 -1.1873 0.9618
-6.2923 8.7237 -1.3207 0.9576
-10.2849 8.7482 -1.6579 0.9470
-13.1880 8.7216 -1.9414 0.9383
-17.1106 8.5575 -2.3490 0.9258
-18.0186 6.4389 -2.3494 0.9258
-18.6622 4.2254 -2.3494 0.9258
-19.0349 1.9507 -2.3494 0.9258
-20.3706 -0.3754 -2.5016 0.9212
-18.9203 -7.5583 -2.5016 0.9212
-16.5684 -11.8571 -2.5016 0.9212
-13.2583 -15.4700 -2.5016 0.9212
-1.7090 -16.0863 -1.9863 0.9369
0.2813 -19.1325 -2.3494 0.9258
2.5800 -18.9598 -2.3494 0.9258
5.1549 -19.7112 -2.5016 0.9212
11.7953 -16.6125 -2.5016 0.9212
13.7074 -15.0735 -2.5016 0.9212
16.9099 -11.3648 -2.5016 0.9212
20.2519 -2.2278 -2.5016 0.9212
20.3729 0.2237 -2.5016 0.9212
20.1981 2.6720 -2.5016 0.9212
18.5299 4.7723 -2.3494 0.9258
12.2223 8.6099 -1.8357 0.9415
7.5160 8.6388 -1.4060 0.9549
5.7869 8.5416 -1.2668 0.9593
4.3679 8.4952 -1.1729 0.9622
3.1243 8.4441 -1.1055 0.9644
0.9874 8.6790 -1.0725 0.9654
-0.0630 8.6854 -1.0665 0.9656
-3.3110 8.5647 -1.1275 0.9637
-4.5237 8.4926 -1.1815 0.9620
-7.8237 8.7331 -1.4397 0.9538
-12.7971 8.7397 -1.9027 0.9395
-17.9208 6.7065 -2.3494 0.9258
-18.5972 4.5029 -2.3494 0.9258
-20.3740 -0.0720 -2.5016 0.9212
-20.2175 -2.5216 -2.5016 0.9212
-19.0307 -7.2757 -2.5016 0.9212
-18.0177 -9.5114 -2.5016 0.9212
-16.7431 -11.6091 -2.5016 0.9212
-15.2257 -13.5382 -2.5016 0.9212
-13.4871 -15.2709 -2.5016 0.9212
-8.8760 -16.9513 -2.3494 0.9258
-5.6827 -15.0145 -1.9712 0.9374
-4.5720 -18.5803 -2.3494 0.9258
-2.3045 -18.9953 -2.3494 0.9258
4.8608 -19.7858 -2.5016 0.9212
11.5467 -16.7862 -2.5016 0.9212
15.2206 -13.5439 -2.5016 0.9212
19.7657 -4.9418 -2.5016 0.9212
16.9875 8.8065 -2.3494 0.9258
12.6136 8.6075 -1.8750 0.9403
9.8461 8.6245 -1.6072 0.9486
7.7437 8.6375 -1.4244 0.9543
5.9785 8.5475 -1.2807 0.9588
2.2024 8.6715 -1.0985 0.9646
0.0663 8.6846 -1.0664 0.9656
-3.1683 8.5729 -1.1222 0.9638
-5.9039 8.7213 -1.2931 0.9584
-12.4275 8.7614 -1.8670 0.9406
-17.8189 6.9725 -2.3494 0.9258
-18.9683 2.5165 -2.3494 0.9258
-20.3728 0.2313 -2.5016 0.9212
-20.2528 -2.2203 -2.5016 0.9212
-19.8388 -4.6396 -2.5016 0.9212
-18.1573 -9.2421 -2.5016 0.9212
-16.9142 -11.3585 -2.5016 0.9212
-11.1931 -15.7519 -2.3727 0.9251
-2.5870 -18.9588 -2.3494 0.9258
-0.2885 -19.1324 -2.3494 0.9258
4.5658 -19.8559 -2.5016 0.9212
9.1744 -18.1916 -2.5016 0.9212
13.2526 -15.4749 -2.5016 0.9212
18.9175 -7.5652 -2.5016 0.9212
20.2687 2.0694 -2.5016 0.9212
18.0210 6.4322 -2.3494 0.9258
17.1167 8.5527 -2.3494 0.9258
13.0223 8.6050 -1.9165 0.9390
-1.6449 -15.2746 -2.4332 0.9397
0.2094 -15.7845 -2.5002 0.9381
5.7837 -14.6976 -2.5016 0.9380
7.5091 -13.8954 -2.5016 0.9380
10.6096 -11.7007 -2.5016 0.9380
13.0964 -8.8292 -2.5016 0.9380
14.0631 -7.1902 -2.5016 0.9380
15.7939 0.1508 -2.5016 0.9380
15.3011 3.9174 -2.5016 0.9380
9.5847 8.6261 -2.0423 0.9491
5.7523 8.4643 -1.6209 0.9594
4.3420 8.4151 -1.4998 0.9624
1.0000 8.6789 -1.3837 0.9652
-3.2685 8.4910 -1.4410 0.9638
-4.4274 8.3407 -1.4956 0.9625
-6.0774 8.7224 -1.6838 0.9579
-9.9487 8.7462 -2.0981 0.9478
-12.2376 8.3833 -2.3494 0.9417
-13.8852 5.2190 -2.3494 0.9417
-15.6840 1.8664 -2.5016 0.9380
-15.6760 -1.9323 -2.5016 0.9380
-14.7613 -5.6192 -2.5016 0.9380
-13.9784 -7.3535 -2.5016 0.9380
-10.4726 -11.8235 -2.5016 0.9380
-5.5445 -14.5860 -2.4715 0.9388
-1.8658 -15.1965 -2.4250 0.9399
-0.0256 -15.7738 -2.4983 0.9381
1.8739 -15.6831 -2.5016 0.9380
7.3014 -14.0057 -2.5016 0.9380
8.9326 -13.0260 -2.5016 0.9380
11.7844 -10.5166 -2.5016 0.9380
14.7430 -5.6670 -2.5016 0.9380
15.6696 -1.9831 -2.5016 0.9380
15.7944 -0.0844 -2.5016 0.9380
15.6899 1.8156 -2.5016 0.9380
6.0820 3.1419 -1.0842 0.9727
5.9662 8.5040 -1.6453 0.9588
4.5045 8.4199 -1.5124 0.9621
1.1311 8.6781 -1.3861 0.9652
0.0787 8.6846 -1.3756 0.9654
-2.0233 8.5631 -1.3936 0.9650
-4.2898 8.3804 -1.4911 0.9626
-5.8856 8.7212 -1.6664 0.9583
-7.5690 8.7316 -1.8302 0.9543
-9.6529 8.7444 -2.0629 0.9486
-13.8060 5.4252 -2.3494 0.9417
-15.7933 0.2020 -2.5016 0.9380
-13.1250 -8.7867 -2.5016 0.9380
-11.9731 -10.3012 -2.5016 0.9380
-5.7970 -14.5925 -2.4869 0.9384
5.3435 -14.8633 -2.5016 0.9380
8.7377 -13.1576 -2.5016 0.9380
11.6265 -10.6908 -2.5016 0.9380
13.8428 -7.6057 -2.5016 0.9380
14.6570 -5.8859 -2.5016 0.9380
15.2584 -4.0806 -2.5016 0.9380
15.6384 -2.2162 -2.5016 0.9380
15.7152 1.5817 -2.5016 0.9380
12.3875 8.1601 -2.3494 0.9417
10.1742 8.6225 -2.1123 0.9474
8.0004 8.6359 -1.8645 0.9534
4.6698 8.4248 -1.5256 0.9617
3.3756 8.3162 -1.4215 0.9643
-0.8420 8.6902 -1.3828 0.9653
-1.8907 8.5704 -1.3901 0.9651
-4.1529 8.4196 -1.4869 0.9627
-5.6977 8.7200 -1.6498 0.9587
-9.3668 8.7426 -2.0294 0.9494
-11.9825 8.7439 -2.3494 0.9417
-13.7237 5.6301 -2.3494 0.9417
-14.3011 3.9390 -2.3494 0.9417
-15.6087 2.3306 -2.4996 0.9381
-15.7266 -1.4647 -2.5016 0.9380
-14.9220 -5.1772 -2.5016 0.9380
-13.2543 -8.5903 -2.5016 0.9380
-10.8200 -11.5064 -2.5016 0.9380
-7.7598 -13.7570 -2.5016 0.9380
-6.0328 -14.5507 -2.4948 0.9382
-2.3046 -15.0507 -2.4116 0.9402
-0.4945 -15.7440 -2.4948 0.9382
5.1216 -14.9412 -2.5016 0.9380
6.8812 -14.2169 -2.5016 0.9380
10.0766 -12.1628 -2.5016 0.9380
12.6891 -9.4051 -2.5016 0.9380
14.5677 -6.1034 -2.5016 0.9380
15.6036 -2.4488 -2.5016 0.9380
15.7849 -0.5546 -2.5016 0.9380
15.4608 3.2303 -2.5016 0.9380
10.4845 8.6206 -2.1498 0.9465
8.2413 8.6344 -1.8905 0.9528
6.4143 8.5871 -1.6976 0.9575
3.5349 8.3498 -1.4361 0.9639
1.3947 8.6765 -1.3919 0.9650
-1.7597 8.5819 -1.3875 0.9651
-2.8485 8.5160 -1.4223 0.9643
-4.0104 8.4454 -1.4808 0.9628
-5.5135 8.7189 -1.6339 0.9591
-7.1227 8.7288 -1.7844 0.9554
-11.8510 8.9214 -2.3494 0.9417
-14.2409 4.1514 -2.3494 0.9417
-15.7803 0.6721 -2.5016 0.9380
-15.7466 -1.2304 -2.5016 0.9380
-14.9974 -4.9545 -2.5016 0.9380
-10.9901 -11.3441 -2.5016 0.9380
-7.9638 -13.6400 -2.5016 0.9380
-6.2531 -14.4695 -2.4966 0.9382
-2.5234 -14.9851 -2.4068 0.9403
1.1718 -15.7511 -2.5016 0.9380
3.0574 -15.4959 -2.5016 0.9380
4.8986 -15.0158 -2.5016 0.9380
9.8944 -12.3114 -2.5016 0.9380
11.3031 -11.0322 -2.5016 0.9380
12.5477 -9.5930 -2.5016 0.9380
14.4752 -6.3196 -2.5016 0.9380
15.7553 1.1132 -2.5016 0.9380
7.0099 2.2580 -1.1664 0.9706
12.6250 7.7876 -2.3494 0.9417
8.4890 8.6329 -1.9176 0.9521
6.6494 8.6307 -1.7256 0.9568
5.0091 8.4345 -1.5537 0.9611
-0.3934 5.8794 -0.9333 0.9764
-2.7108 8.5240 -1.4167 0.9644
-5.3328 8.7178 -1.6186 0.9595
-6.9078 8.7275 -1.7629 0.9559
-12.7258 7.6218 -2.3494 0.9417
-15.7632 -0.9958 -2.5016 0.9380
-15.5291 -2.8842 -2.5016 0.9380
-13.5042 -8.1918 -2.5016 0.9380
-12.4211 -9.7563 -2.5016 0.9380
-11.1578 -11.1792 -2.5016 0.9380
-9.7325 -12.4398 -2.5016 0.9380
-4.5573 -14.6150 -2.4247 0.9399
0.9372 -15.7668 -2.5016 0.9380
2.8263 -15.5397 -2.5016 0.9380
8.1415 -13.5346 -2.5016 0.9380
9.7100 -12.4574 -2.5016 0.9380
11.1376 -11.1993 -2.5016 0.9380
13.4894 -8.2162 -2.5016 0.9380
15.5238 -2.9122 -2.5016 0.9380
15.7614 -1.0243 -2.5016 0.9380
15.5501 2.7685 -2.5016 0.9380
5.1835 8.4394 -1.5687 0.9607
3.8550 8.4001 -1.4639 0.9633
2.7618 8.6305 -1.4352 0.9640
1.6608 8.6748 -1.3989 0.9649
0.5967 8.6814 -1.3782 0.9654
-0.4515 8.6878 -1.3779 0.9654
-1.5032 8.6294 -1.3873 0.9651
-3.7145 8.4638 -1.4640 0.9633
-4.8588 8.2153 -1.5117 0.9621
-12.6109 7.8105 -2.3494 0.9417
-13.4586 6.2373 -2.3494 0.9417
-14.1110 4.5736 -2.3494 0.9417
-14.8361 2.8977 -2.3942 0.9406
-15.5703 -2.6526 -2.5016 0.9380
-13.6247 -7.9899 -2.5016 0.9380
-11.3230 -11.0118 -2.5016 0.9380
-8.3663 -13.3968 -2.5016 0.9380
-6.6910 -14.2981 -2.5003 0.9381
2.5946 -15.5800 -2.5016 0.9380
4.4494 -15.1550 -2.5016 0.9380
7.9391 -13.6543 -2.5016 0.9380
9.5234 -12.6006 -2.5016 0.9380
10.9696 -11.3639 -2.5016 0.9380
12.2565 -9.9623 -2.5016 0.9380
13.3656 -8.4161 -2.5016 0.9380
14.2806 -6.7478 -2.5016 0.9380
14.9885 -4.9816 -2.5016 0.9380
15.4787 -3.1430 -2.5016 0.9380
6.2136 2.6446 -1.0696 0.9730
6.1207 3.5283 -1.1190 0.9718
11.8671 8.8999 -2.3494 0.9417
9.0067 8.6297 -1.9756 0.9507
7.0776 8.6415 -1.7692 0.9558
5.3612 8.4443 -1.5842 0.9603
4.0098 8.4049 -1.4749 0.9630
1.9385 5.7607 -0.9627 0.9757
1.7949 8.6740 -1.4029 0.9648
0.7266 8.6806 -1.3797 0.9653
-0.3219 8.6870 -1.3768 0.9654
-1.3750 8.6532 -1.3877 0.9651
-8.3082 8.7361 -1.9095 0.9523
-10.6031 8.7502 -2.1774 0.9458
-12.4932 7.9973 -2.3494 0.9417
-13.3643 6.4370 -2.3494 0.9417
-15.7346 1.3761 -2.5016 0.9380
-15.7859 -0.5261 -2.5016 0.9380
-15.6081 -2.4206 -2.5016 0.9380
-15.2037 -4.2799 -2.5016 0.9380
-14.5787 -6.0771 -2.5016 0.9380
-13.7421 -7.7862 -2.5016 0.9380
-12.7061 -9.3822 -2.5016 0.9380
-11.4856 -10.8421 -2.5016 0.9380
-10.0985 -12.1445 -2.5016 0.9380
-8.5649 -13.2708 -2.5016 0.9380
-3.1818 -14.8191 -2.4006 0.9405
-1.4021 -15.3736 -2.4450 0.9394
2.3624 -15.6170 -2.5016 0.9380
7.7350 -13.7710 -2.5016 0.9380
9.3348 -12.7409 -2.5016 0.9380
12.1069 -10.1437 -2.5016 0.9380
13.2388 -8.6142 -2.5016 0.9380
14.9126 -5.2042 -2.5016 0.9380
15.4302 -3.3731 -2.5016 0.9380
15.7239 -1.4931 -2.5016 0.9380
15.7893 0.4086 -2.5016 0.9380
15.6256 2.3043 -2.5016 0.9380
6.0914 3.3917 -1.1043 0.9722
9.2777 8.6280 -2.0067 0.9500
7.2941 8.6402 -1.7909 0.9552
5.5426 8.4492 -1.6005 0.9599
4.1669 8.4098 -1.4865 0.9627
2.0187 5.7159 -0.9601 0.9757
-0.1924 8.6862 -1.3761 0.9654
-1.2466 8.6770 -1.3884 0.9651
-3.4249 8.4816 -1.4487 0.9636
-6.2923 8.7237 -1.7036 0.9574
-10.2849 8.7482 -2.1385 0.9468
-12.3728 8.1825 -2.3494 0.9417
-13.2669 6.6352 -2.3494 0.9417
-13.9686 4.9917 -2.3494 0.9417
-14.4675 3.2757 -2.3494 0.9417
-15.7123 1.6102 -2.5016 0.9380
-15.7919 -0.2910 -2.5016 0.9380
-15.6424 -2.1879 -2.5016 0.9380
-14.6676 -5.8594 -2.5016 0.9380
-13.8565 -7.5807 -2.5016 0.9380
-12.8444 -9.1920 -2.5016 0.9380
-10.2782 -11.9928 -2.5016 0.9380
-5.2721 -14.5819 -2.4559 0.9391
0.2321 -15.7854 -2.5004 0.9381
5.8048 -14.6892 -2.5016 0.9380
7.5290 -13.8846 -2.5016 0.9380
9.1441 -12.8785 -2.5016 0.9380
10.6264 -11.6854 -2.5016 0.9380
11.9545 -10.3228 -2.5016 0.9380
13.1091 -8.8104 -2.5016 0.9380
14.0734 -7.1700 -2.5016 0.9380
14.8335 -5.4256 -2.5016 0.9380
15.3783 -3.6024 -2.5016 0.9380
15.6999 -1.7271 -2.5016 0.9380
15.7937 0.1734 -2.5016 0.9380
6.3207 2.4706 -1.0749 0.9729
6.0618 3.2579 -1.0900 0.9725
7.5160 8.6388 -1.8136 0.9547
5.7320 8.4605 -1.6186 0.9595
0.9874 8.6790 -1.3835 0.9652
-2.1694 8.5549 -1.3979 0.9649
-4.4407 8.3369 -1.4961 0.9625
-9.9778 8.7463 -2.1015 0.9477
-13.1667 6.8320 -2.3494 0.9417
-13.8927 5.1991 -2.3494 0.9417
-14.4171 3.4908 -2.3494 0.9417
-15.6866 1.8439 -2.5016 0.9380
-15.7945 -0.0558 -2.5016 0.9380
-15.6732 -1.9548 -2.5016 0.9380
-10.4556 -11.8385 -2.5016 0.9380
-7.3267 -13.9925 -2.5016 0.9380
-5.5203 -14.5854 -2.4700 0.9388
3.7683 -15.3385 -2.5016 0.9380
5.5854 -14.7741 -2.5016 0.9380
8.9513 -13.0132 -2.5016 0.9380
11.7995 -10.4996 -2.5016 0.9380
12.9764 -9.0045 -2.5016 0.9380
13.9651 -7.3787 -2.5016 0.9380
14.7511 -5.6458 -2.5016 0.9380
15.3229 -3.8311 -2.5016 0.9380
15.6725 -1.9606 -2.5016 0.9380
15.3524 3.7111 -2.5016 0.9380
6.3655 2.3795 -1.0763 0.9729
7.7437 8.6375 -1.8373 0.9541
1.1184 8.6782 -1.3859 0.9652
-3.1409 8.4987 -1.4350 0.9640
-7.5911 8.7317 -1.8325 0.9542
-9.6810 8.7445 -2.0662 0.9485
-13.0635 7.0273 -2.3494 0.9417
-15.7006 -1.7213 -2.5016 0.9380
-15.3796 -3.5968 -2.5016 0.9380
-14.0761 -7.1648 -2.5016 0.9380
-13.1124 -8.8055 -2.5016 0.9380
-9.1488 -12.8751 -2.5016 0.9380
-7.5342 -13.8818 -2.5016 0.9380
-0.2376 -15.7614 -2.4967 0.9382
1.6628 -15.7068 -2.5016 0.9380
3.5395 -15.3929 -2.5016 0.9380
5.3648 -14.8556 -2.5016 0.9380
8.7566 -13.1450 -2.5016 0.9380
11.6418 -10.6742 -2.5016 0.9380
12.8410 -9.1967 -2.5016 0.9380
13.8537 -7.5858 -2.5016 0.9380
14.6654 -5.8648 -2.5016 0.9380
15.7918 -0.2968 -2.5016 0.9380
15.7129 1.6043 -2.5016 0.9380
6.1001 3.0480 -1.0801 0.9728
0.1707 -12.8686 -2.5016 0.9489
1.7170 -12.7547 -2.5016 0.9489
3.2383 -12.4557 -2.5016 0.9489
6.1186 -11.3222 -2.5016 0.9489
9.7287 -8.4252 -2.5016 0.9489
10.6712 -7.1942 -2.5016 0.9489
12.5263 -2.9533 -2.5016 0.9489
8.0714 2.0664 -1.6195 0.9666
5.9006 2.2966 -1.2308 0.9745
9.8912 6.9465 -2.3494 0.9519
5.7523 8.4643 -1.9893 0.9592
4.2908 8.3157 -1.8189 0.9626
2.9953 8.0600 -1.6714 0.9656
2.0788 8.6723 -1.7335 0.9643
-0.0506 8.6854 -1.6883 0.9652
-1.5264 12.0150 -2.3543 0.9518
-2.1451 8.5104 -1.7060 0.9649
-6.0774 8.7224 -2.0664 0.9576
-9.0776 7.9804 -2.3494 0.9519
-9.9714 6.8308 -2.3494 0.9519
-11.3139 4.2525 -2.3494 0.9519
-12.7796 1.5208 -2.5016 0.9489
-12.8697 -0.0271 -2.5016 0.9489
-12.4910 -3.0990 -2.5016 0.9489
-12.0277 -4.5786 -2.5016 0.9489
-10.5867 -7.3179 -2.5016 0.9489
-4.5728 -12.0299 -2.5016 0.9489
-3.0930 -12.4925 -2.5016 0.9489
1.5269 -12.7788 -2.5016 0.9489
3.0525 -12.5025 -2.5016 0.9489
4.5338 -12.0447 -2.5016 0.9489
5.9493 -11.4121 -2.5016 0.9489
8.5020 -9.6616 -2.5016 0.9489
9.6021 -8.5691 -2.5016 0.9489
11.3704 -6.0286 -2.5016 0.9489
12.4809 -3.1395 -2.5016 0.9489
5.5466 2.8653 -1.2135 0.9749
9.1034 7.9509 -2.3494 0.9519
7.7524 8.6221 -2.2538 0.9539
4.4613 8.3392 -1.8384 0.9622
3.1444 8.0901 -1.6872 0.9652
1.1311 8.6781 -1.7011 0.9650
0.0787 8.6846 -1.6882 0.9652
-0.9697 8.6625 -1.6943 0.9651
-2.0165 8.5342 -1.7046 0.9649
-3.1002 8.4258 -1.7452 0.9641
-4.2055 8.2158 -1.7940 0.9631
-5.8856 8.7212 -2.0452 0.9580
-12.4370 3.2271 -2.4976 0.9490
-12.8687 0.1646 -2.5016 0.9489
-9.7559 -8.3936 -2.5016 0.9489
-4.7514 -11.9605 -2.5016 0.9489
-0.2125 -12.8680 -2.5016 0.9489
1.3365 -12.8001 -2.5016 0.9489
2.8660 -12.5466 -2.5016 0.9489
4.3540 -12.1108 -2.5016 0.9489
5.7788 -11.4994 -2.5016 0.9489
8.3572 -9.7871 -2.5016 0.9489
9.4735 -8.7111 -2.5016 0.9489
10.4523 -7.5087 -2.5016 0.9489
11.9427 -4.7959 -2.5016 0.9489
12.4328 -3.3250 -2.5016 0.9489
12.7424 -1.8058 -2.5016 0.9489
12.8050 1.2888 -2.5016 0.9489
9.2208 7.8145 -2.3494 0.9519
6.1868 8.5449 -2.0506 0.9579
3.2962 8.1207 -1.7036 0.9649
1.2626 8.6773 -1.7045 0.9649
-0.8420 8.6902 -1.6971 0.9650
-1.8880 8.5581 -1.7035 0.9649
-5.6977 8.7200 -2.0248 0.9584
-8.8360 8.2471 -2.3494 0.9519
-9.7636 7.1247 -2.3494 0.9519
-10.5495 5.8989 -2.3494 0.9519
-11.1823 4.5875 -2.3494 0.9519
-12.3738 3.4081 -2.4948 0.9490
-12.7286 1.9006 -2.5016 0.9489
-12.1587 -4.2185 -2.5016 0.9489
-11.5632 -5.6500 -2.5016 0.9489
-9.8798 -8.2474 -2.5016 0.9489
-7.6249 -10.3678 -2.5016 0.9489
4.1732 -12.1743 -2.5016 0.9489
9.3427 -8.8512 -2.5016 0.9489
10.3393 -7.6634 -2.5016 0.9489
12.8618 -0.4519 -2.5016 0.9489
12.8228 1.0980 -2.5016 0.9489
12.5977 2.6321 -2.5016 0.9489
5.5332 3.5279 -1.2756 0.9736
9.3361 7.6763 -2.3494 0.9519
8.3453 8.7433 -2.3494 0.9519
6.4143 8.5871 -2.0834 0.9573
3.4510 8.1516 -1.7206 0.9646
2.4924 8.6697 -1.7535 0.9639
1.3947 8.6765 -1.7082 0.9648
-1.7597 8.5819 -1.7028 0.9649
-3.9381 8.2932 -1.7846 0.9633
-5.5135 8.7189 -2.0052 0.9588
-7.1227 8.7288 -2.1899 0.9551
-8.7122 8.3777 -2.3494 0.9519
-11.1128 4.7535 -2.3494 0.9519
-12.0885 3.5240 -2.4476 0.9500
-12.6989 2.0899 -2.5016 0.9489
-12.6170 -2.5382 -2.5016 0.9489
-12.2202 -4.0370 -2.5016 0.9489
-11.6460 -5.4772 -2.5016 0.9489
-10.9029 -6.8379 -2.5016 0.9489
-8.9549 -9.2433 -2.5016 0.9489
-7.7784 -10.2531 -2.5016 0.9489
-5.1054 -11.8137 -2.5016 0.9489
0.9548 -12.8343 -2.5016 0.9489
5.4338 -11.6663 -2.5016 0.9489
6.7973 -10.9282 -2.5016 0.9489
9.2099 -8.9893 -2.5016 0.9489
10.2241 -7.8165 -2.5016 0.9489
11.0899 -6.5303 -2.5016 0.9489
12.3283 -3.6937 -2.5016 0.9489
12.6355 2.4442 -2.5016 0.9489
9.4494 7.5365 -2.3494 0.9519
8.4745 8.6181 -2.3494 0.9519
6.6494 8.6307 -2.1178 0.9566
4.9597 8.3514 -1.8880 0.9612
1.5274 8.6756 -1.7123 0.9647
-0.3933 5.8784 -1.1452 0.9763
-1.6315 8.6056 -1.7026 0.9649
-3.8053 8.3314 -1.7804 0.9634
-4.9001 8.0104 -1.8253 0.9625
-6.9078 8.7275 -2.1635 0.9557
-8.5865 8.5065 -2.3494 0.9519
-9.5471 7.4122 -2.3494 0.9519
-11.0408 4.9184 -2.3494 0.9519
-12.6664 2.2787 -2.5016 0.9489
-12.8485 0.7390 -2.5016 0.9489
-12.8441 -0.8114 -2.5016 0.9489
-12.6533 -2.3501 -2.5016 0.9489
-9.0915 -9.1090 -2.5016 0.9489
-6.6538 -11.0162 -2.5016 0.9489
-5.2807 -11.7365 -2.5016 0.9489
-2.3258 -12.6578 -2.5016 0.9489
-0.7868 -12.8456 -2.5016 0.9489
3.8089 -12.2932 -2.5016 0.9489
6.6339 -11.0282 -2.5016 0.9489
7.9119 -10.1505 -2.5016 0.9489
11.7167 -5.3244 -2.5016 0.9489
12.2719 -3.8768 -2.5016 0.9489
12.6491 -2.3729 -2.5016 0.9489
12.8498 0.7158 -2.5016 0.9489
6.9958 2.1391 -1.4220 0.9706
5.4957 3.2781 -1.2439 0.9743
9.5605 7.3950 -2.3494 0.9519
8.6019 8.4910 -2.3494 0.9519
6.8576 8.6320 -2.1429 0.9561
5.1319 8.3555 -1.9060 0.9608
3.7699 8.2146 -1.7569 0.9638
2.7618 8.6305 -1.7614 0.9637
1.6608 8.6748 -1.7168 0.9646
-1.5032 8.6294 -1.7026 0.9649
-2.5521 8.4592 -1.7175 0.9646
-4.7621 8.0517 -1.8183 0.9626
-6.6978 8.7262 -2.1382 0.9562
-8.4589 8.6334 -2.3494 0.9519
-10.2756 6.3641 -2.3494 0.9519
-10.9663 5.0823 -2.3494 0.9519
-11.4979 3.7266 -2.3494 0.9519
-12.6311 2.4670 -2.5016 0.9489
-12.8361 0.9302 -2.5016 0.9489
-12.6869 -2.1614 -2.5016 0.9489
-8.0802 -10.0170 -2.5016 0.9489
-4.0136 -12.2279 -2.5016 0.9489
2.1142 -12.6949 -2.5016 0.9489
6.4689 -11.1258 -2.5016 0.9489
7.7599 -10.2672 -2.5016 0.9489
9.9868 -8.1175 -2.5016 0.9489
12.2129 -4.0591 -2.5016 0.9489
12.8591 0.5244 -2.5016 0.9489
12.7027 2.0669 -2.5016 0.9489
7.3011 2.1141 -1.4775 0.9695
9.6695 7.2518 -2.3494 0.9519
8.7273 8.3620 -2.3494 0.9519
5.3235 8.3848 -1.9306 0.9603
3.9343 8.2467 -1.7761 0.9635
1.9385 5.7607 -1.1814 0.9755
0.7266 8.6806 -1.6932 0.9651
-0.3219 8.6870 -1.6897 0.9652
-1.3750 8.6532 -1.7031 0.9649
-8.3294 8.7584 -2.3494 0.9519
-9.3222 7.6932 -2.3494 0.9519
-10.1797 6.5163 -2.3494 0.9519
-11.4411 3.8974 -2.3494 0.9519
-12.5929 2.6548 -2.5016 0.9489
-12.7177 -1.9723 -2.5016 0.9489
-12.3883 -3.4874 -2.5016 0.9489
-11.8790 -4.9517 -2.5016 0.9489
-11.1973 -6.3443 -2.5016 0.9489
-9.3587 -8.8343 -2.5016 0.9489
-8.2285 -9.8956 -2.5016 0.9489
-5.6278 -11.5740 -2.5016 0.9489
-4.1952 -12.1668 -2.5016 0.9489
0.3808 -12.8641 -2.5016 0.9489
3.4412 -12.4011 -2.5016 0.9489
6.3026 -11.2208 -2.5016 0.9489
7.6062 -10.3815 -2.5016 0.9489
11.5530 -5.6709 -2.5016 0.9489
12.5728 -2.7485 -2.5016 0.9489
12.8654 0.3329 -2.5016 0.9489
12.7320 1.8776 -2.5016 0.9489
7.6463 2.0912 -1.5409 0.9682
5.7685 2.3544 -1.2111 0.9749
5.5108 3.0684 -1.2260 0.9746
8.8509 8.2311 -2.3494 0.9519
7.2941 8.6402 -2.1979 0.9550
2.0138 5.7022 -1.1755 0.9757
1.9299 8.6732 -1.7271 0.9644
0.8568 8.6798 -1.6954 0.9651
-1.2466 8.6770 -1.7040 0.9649
-3.3949 8.4073 -1.7624 0.9637
-6.2923 8.7237 -2.0908 0.9571
-10.8101 5.4065 -2.3494 0.9519
-11.3818 4.0673 -2.3494 0.9519
-12.5520 2.8420 -2.5016 0.9489
-12.7457 -1.7828 -2.5016 0.9489
-11.2905 -6.1769 -2.5016 0.9489
-10.4658 -7.4898 -2.5016 0.9489
-1.3596 -12.7977 -2.5016 0.9489
0.1892 -12.8683 -2.5016 0.9489
1.7353 -12.7522 -2.5016 0.9489
3.2562 -12.4510 -2.5016 0.9489
4.7298 -11.9691 -2.5016 0.9489
7.4508 -10.4936 -2.5016 0.9489
11.4673 -5.8423 -2.5016 0.9489
12.7586 1.6878 -2.5016 0.9489
8.0293 2.0679 -1.6117 0.9668
5.8879 2.3014 -1.2288 0.9746
5.5218 2.9677 -1.2185 0.9748
9.8812 6.9607 -2.3494 0.9519
7.5160 8.6388 -2.2258 0.9544
2.0656 8.6723 -1.7329 0.9643
-0.0630 8.6854 -1.6883 0.9652
-2.1575 8.5081 -1.7061 0.9649
-3.2536 8.4163 -1.7539 0.9639
-4.3532 8.1726 -1.7999 0.9630
-6.0960 8.7225 -2.0685 0.9576
-9.0891 7.9673 -2.3494 0.9519
-9.9812 6.8166 -2.3494 0.9519
-12.7708 -1.5928 -2.5016 0.9489
-12.4866 -3.1169 -2.5016 0.9489
-12.0212 -4.5959 -2.5016 0.9489
-11.3812 -6.0081 -2.5016 0.9489
-9.6176 -8.5517 -2.5016 0.9489
-7.2976 -10.6007 -2.5016 0.9489
-4.5556 -12.0365 -2.5016 0.9489
3.0705 -12.4981 -2.5016 0.9489
4.5511 -12.0382 -2.5016 0.9489
5.9657 -11.4036 -2.5016 0.9489
7.2937 -10.6034 -2.5016 0.9489
8.5159 -9.6493 -2.5016 0.9489
9.6144 -8.5553 -2.5016 0.9489
10.5734 -7.3371 -2.5016 0.9489
11.3790 -6.0123 -2.5016 0.9489
12.4854 -3.1216 -2.5016 0.9489
12.7702 -1.5975 -2.5016 0.9489
12.7823 1.4977 -2.5016 0.9489
8.4842 2.0509 -1.6967 0.9651
5.5442 2.8742 -1.2139 0.9749
9.0920 7.9640 -2.3494 0.9519
5.9453 8.5001 -2.0163 0.9586
4.4457 8.3388 -1.8369 0.9622
2.2024 8.6715 -1.7391 0.9642
0.0663 8.6846 -1.6882 0.9652
-0.9810 8.6513 -1.6924 0.9651
-2.0289 8.5319 -1.7047 0.9649
-4.2185 8.2120 -1.7945 0.9631
-5.9039 8.7213 -2.0472 0.9580
-8.9694 8.1018 -2.3494 0.9519
-12.4430 3.2096 -2.4978 0.9490
-12.0882 -4.4164 -2.5016 0.9489
-10.6842 -7.1748 -2.5016 0.9489
-9.7439 -8.4076 -2.5016 0.9489
-8.6621 -9.5183 -2.5016 0.9489
-7.4546 -10.4909 -2.5016 0.9489
-6.1390 -11.3112 -2.5016 0.9489
-4.7343 -11.9673 -2.5016 0.9489
-3.2608 -12.4498 -2.5016 0.9489
-1.7400 -12.7516 -2.5016 0.9489
-0.1940 -12.8683 -2.5016 0.9489
1.3548 -12.7982 -2.5016 0.9489
2.8841 -12.5424 -2.5016 0.9489
4.3713 -12.1046 -2.5016 0.9489
8.3713 -9.7751 -2.5016 0.9489
9.4860 -8.6975 -2.5016 0.9489
11.2882 -6.1811 -2.5016 0.9489
12.7450 -1.7875 -2.5016 0.9489
12.8032 1.3072 -2.5016 0.9489
8.7934 1.9875 -1.7524 0.9639
6.2193 2.2199 -1.2836 0.9734
5.5686 2.7825 -1.2100 0.9750
-1.1602 -10.7734 -2.5016 0.9565
5.1515 -9.5328 -2.5016 0.9565
8.1911 -7.0936 -2.5016 0.9565
8.9846 -6.0571 -2.5016 0.9565
7.9160 2.0266 -1.8865 0.9670
5.6448 2.1971 -1.3984 0.9754
5.1497 2.7582 -1.3487 0.9763
5.1179 3.5943 -1.4438 0.9747
7.5641 6.8077 -2.3494 0.9591
6.6906 7.6679 -2.3494 0.9591
5.7200 8.4168 -2.3494 0.9591
4.4600 8.6437 -2.2455 0.9609
1.0000 8.6789 -2.0169 0.9648
-1.2826 10.0953 -2.3494 0.9591
-2.1451 8.5104 -2.0262 0.9646
-3.2030 8.3209 -2.0584 0.9641
-4.7713 8.9886 -2.3494 0.9591
-5.8176 8.3496 -2.3494 0.9591
-7.6429 6.7191 -2.3494 0.9591
-10.7543 -1.3256 -2.5016 0.9565
-10.1268 -3.8550 -2.5016 0.9565
-9.5897 -5.0448 -2.5016 0.9565
-8.9135 -6.1614 -2.5016 0.9565
-8.1079 -7.1885 -2.5016 0.9565
-7.1846 -8.1114 -2.5016 0.9565
-6.1571 -8.9165 -2.5016 0.9565
1.2856 -10.7592 -2.5016 0.9565
3.8173 -10.1411 -2.5016 0.9565
6.1281 -8.9364 -2.5016 0.9565
8.0846 -7.2148 -2.5016 0.9565
9.5733 -5.0758 -2.5016 0.9565
10.5084 -2.6433 -2.5016 0.9565
10.7500 -1.3605 -2.5016 0.9565
10.8356 -0.0579 -2.5016 0.9565
10.7639 1.2455 -2.5016 0.9565
5.7850 2.1530 -1.4251 0.9750
5.0931 3.4648 -1.4221 0.9750
7.6646 6.6943 -2.3494 0.9591
5.8447 8.3307 -2.3494 0.9591
3.0719 7.9036 -1.9577 0.9658
-0.9697 8.6625 -2.0124 0.9648
-4.4532 8.6997 -2.2563 0.9607
-5.6927 8.4353 -2.3494 0.9591
-6.6657 7.6895 -2.3494 0.9591
-10.7729 -1.1654 -2.5016 0.9565
-10.1831 -3.7038 -2.5016 0.9565
-7.3046 -8.0035 -2.5016 0.9565
-4.0005 -10.0702 -2.5016 0.9565
-2.7605 -10.4782 -2.5016 0.9565
2.4131 -10.5636 -2.5016 0.9565
4.8654 -9.6820 -2.5016 0.9565
7.0364 -8.2403 -2.5016 0.9565
7.9762 -7.3343 -2.5016 0.9565
8.8003 -6.3219 -2.5016 0.9565
10.7285 -1.5204 -2.5016 0.9565
10.8335 -0.2192 -2.5016 0.9565
7.7635 6.5794 -2.3494 0.9591
5.9680 8.2428 -2.3494 0.9591
2.3534 8.6706 -2.0742 0.9638
-2.9367 8.3636 -2.0465 0.9643
-4.2925 8.7028 -2.2403 0.9609
-5.5665 8.5191 -2.3494 0.9591
-6.5505 7.7879 -2.3494 0.9591
-8.8822 4.9666 -2.3494 0.9591
-9.6505 3.9591 -2.4082 0.9581
-10.4467 2.8773 -2.5016 0.9565
-10.7169 1.6002 -2.5016 0.9565
-10.2371 -3.5518 -2.5016 0.9565
-9.7357 -4.7570 -2.5016 0.9565
-9.0930 -5.8933 -2.5016 0.9565
-8.3183 -6.9439 -2.5016 0.9565
-7.4229 -7.8938 -2.5016 0.9565
-4.1500 -10.0095 -2.5016 0.9565
-2.9162 -10.4359 -2.5016 0.9565
-0.3402 -10.8304 -2.5016 0.9565
0.9647 -10.7927 -2.5016 0.9565
2.2555 -10.5984 -2.5016 0.9565
3.5136 -10.2502 -2.5016 0.9565
9.9940 -4.1872 -2.5016 0.9565
10.4250 -2.9550 -2.5016 0.9565
10.8290 -0.3805 -2.5016 0.9565
5.2625 2.5230 -1.3473 0.9763
5.0510 3.2205 -1.3830 0.9757
6.0901 8.1530 -2.3494 0.9591
5.0655 8.8262 -2.3494 0.9591
2.4924 8.6697 -2.0826 0.9636
0.3374 8.6830 -2.0061 0.9650
-0.7115 8.6894 -2.0128 0.9648
-4.3652 9.1927 -2.3494 0.9591
-6.4338 7.8846 -2.3494 0.9591
-7.3353 7.0537 -2.3494 0.9591
-10.4027 3.0325 -2.5016 0.9565
-10.6919 1.7596 -2.5016 0.9565
-10.8259 0.4611 -2.5016 0.9565
-10.2888 -3.3990 -2.5016 0.9565
-9.8054 -4.6116 -2.5016 0.9565
-6.5491 -8.6327 -2.5016 0.9565
-5.4634 -9.3576 -2.5016 0.9565
-4.2985 -9.9466 -2.5016 0.9565
-3.0712 -10.3914 -2.5016 0.9565
-0.5014 -10.8241 -2.5016 0.9565
0.8039 -10.8058 -2.5016 0.9565
2.0975 -10.6308 -2.5016 0.9565
5.7230 -9.2011 -2.5016 0.9565
7.7544 -7.5685 -2.5016 0.9565
9.3371 -5.4982 -2.5016 0.9565
10.3799 -3.1099 -2.5016 0.9565
10.6785 -1.8391 -2.5016 0.9565
10.8222 -0.5417 -2.5016 0.9565
10.8088 0.7637 -2.5016 0.9565
10.6385 2.0579 -2.5016 0.9565
6.4119 2.0654 -1.5552 0.9727
7.9559 6.3454 -2.3494 0.9591
7.1351 7.2561 -2.3494 0.9591
2.6325 8.6688 -2.0916 0.9635
-5.3104 8.6811 -2.3494 0.9591
-7.2295 7.1621 -2.3494 0.9591
-8.7304 5.2288 -2.3494 0.9591
-10.8179 0.6222 -2.5016 0.9565
-10.8142 -0.6832 -2.5016 0.9565
-10.6535 -1.9787 -2.5016 0.9565
-9.2644 -5.6199 -2.5016 0.9565
-8.5214 -6.6932 -2.5016 0.9565
-7.6547 -7.6694 -2.5016 0.9565
-6.6769 -8.5342 -2.5016 0.9565
-5.6022 -9.2752 -2.5016 0.9565
-4.4461 -9.8816 -2.5016 0.9565
-1.9582 -10.6573 -2.5016 0.9565
1.9390 -10.6608 -2.5016 0.9565
5.5854 -9.2853 -2.5016 0.9565
8.5093 -6.7086 -2.5016 0.9565
9.8649 -4.4829 -2.5016 0.9565
10.3324 -3.2641 -2.5016 0.9565
