ply
format ascii 1.0
element vertex 1549
property float32 x
property float32 y
property float32 z
property float32 I
end_header
71.1213 4.0012 -1.2434 0.7520
14.3155 8.5622 -0.2912 0.9354
11.1086 8.6168 -0.2454 0.9453
5.2463 8.5774 -0.1755 0.9606
3.9495 8.6520 -0.1660 0.9627
2.7530 8.6681 -0.1587 0.9643
0.5748 8.6815 -0.1519 0.9658
-2.6311 8.6274 -0.1574 0.9646
-3.8171 8.6233 -0.1646 0.9630
-6.7466 8.7265 -0.1925 0.9568
-14.1771 8.7026 -0.2904 0.9356
-87.1063 16.6096 -1.5478 0.7013
-87.2399 -4.6276 -1.5249 0.7050
-73.1487 -32.2386 -1.3953 0.7263
-73.2100 -43.4697 -1.4862 0.7113
-61.8800 -47.6823 -1.3636 0.7316
-18.3816 -23.0660 -0.5148 0.8887
-3.9562 -20.5683 -0.3656 0.9196
1.3324 -25.9046 -0.4528 0.9014
26.5934 -88.2130 -1.6082 0.6917
38.3904 -87.4876 -1.6676 0.6823
25.9618 -43.8843 -0.8900 0.8155
39.3534 -24.3313 -0.8076 0.8310
52.8089 -24.4140 -1.0155 0.7923
97.3170 -18.8804 -1.7303 0.6726
71.0971 3.5426 -1.2425 0.7522
51.9095 8.9370 -0.9194 0.8100
28.0931 8.4201 -0.5119 0.8893
41.8474 18.2832 -0.7971 0.8330
15.2605 8.9951 -0.3092 0.9316
11.2558 8.6158 -0.2474 0.9449
6.8977 8.5989 -0.1924 0.9569
5.3245 8.5811 -0.1763 0.9604
0.6307 8.6812 -0.1519 0.9658
-0.4183 8.6740 -0.1516 0.9659
-5.1190 8.7165 -0.1764 0.9604
-8.5136 8.7374 -0.2129 0.9524
-10.8746 8.7519 -0.2437 0.9457
-18.6659 8.7021 -0.3595 0.9209
-87.1027 17.1889 -1.5497 0.7010
-54.8105 4.0705 -0.9594 0.8026
-87.2364 -4.0662 -1.5244 0.7051
-73.1198 -12.3473 -1.2944 0.7433
-73.1138 -31.6646 -1.3907 0.7271
-12.6945 -20.3129 -0.4181 0.9086
-9.2304 -19.7164 -0.3800 0.9166
-6.3215 -19.2597 -0.3538 0.9221
-4.0225 -20.2133 -0.3597 0.9209
-1.6256 -21.4247 -0.3750 0.9176
1.1163 -24.8045 -0.4334 0.9054
25.2666 -33.3395 -0.7302 0.8459
34.2832 -35.4110 -0.8603 0.8210
34.3300 -27.8107 -0.7712 0.8380
38.7894 -24.3278 -0.7992 0.8326
51.9203 -24.4085 -1.0014 0.7949
74.7659 -24.6728 -1.3743 0.7298
71.1200 3.0866 -1.2426 0.7522
42.5011 18.2451 -0.8073 0.8311
15.3267 8.9022 -0.3094 0.9315
11.4054 8.6149 -0.2495 0.9444
2.8756 8.6674 -0.1594 0.9641
-1.4183 8.6523 -0.1530 0.9655
-3.6852 8.6226 -0.1637 0.9632
-10.7318 8.7510 -0.2417 0.9461
-13.8044 8.7196 -0.2850 0.9368
-18.3860 8.7157 -0.3552 0.9218
-24.4845 8.1671 -0.4505 0.9019
-54.5615 11.1312 -0.9720 0.8003
-54.6027 4.4074 -0.9562 0.8032
-87.2329 -3.5056 -1.5239 0.7052
-12.9038 -20.3563 -0.4207 0.9081
-9.5223 -20.0048 -0.3867 0.9152
-6.4967 -19.3733 -0.3567 0.9215
34.3277 -28.1754 -0.7752 0.8372
38.2370 -24.3244 -0.7910 0.8342
51.0560 -24.4032 -0.9877 0.7974
43.1714 18.2059 -0.8178 0.8291
15.3930 8.8092 -0.3096 0.9315
9.0575 8.6294 -0.2184 0.9512
7.0883 8.6078 -0.1946 0.9564
1.8131 8.6739 -0.1547 0.9652
0.7427 8.6805 -0.1521 0.9657
-0.3070 8.6793 -0.1516 0.9659
-2.4531 8.6359 -0.1567 0.9647
-8.2965 8.7360 -0.2103 0.9529
-13.6087 8.7186 -0.2821 0.9374
-23.9761 8.1688 -0.4421 0.9036
-87.2294 -2.9453 -1.5235 0.7053
-73.0541 -11.3745 -1.2905 0.7439
-61.5495 -45.5674 -1.3367 0.7361
-9.5842 -19.8065 -0.3841 0.9157
-4.3021 -20.2570 -0.3615 0.9205
0.7659 -23.8137 -0.4159 0.9091
36.3572 -87.3851 -1.6521 0.6848
30.1463 -53.2701 -1.0684 0.7828
25.8007 -34.9670 -0.7585 0.8404
37.6958 -24.3211 -0.7830 0.8357
-11.0709 -19.9206 -1.1944 0.9128
-7.8856 -19.3742 -1.0962 0.9196
-2.9933 -20.4803 -1.0847 0.9204
4.3097 -44.6206 -2.3493 0.8356
10.2765 -46.6130 -2.5015 0.8260
21.1226 -42.8044 -2.5015 0.8260
24.5337 -37.5188 -2.3493 0.8356
24.7807 -29.4313 -2.0164 0.8572
32.7921 -30.5654 -2.3493 0.8356
34.2427 -24.9438 -2.2202 0.8439
39.1487 -21.8392 -2.3493 0.8356
47.2194 -6.9787 -2.5015 0.8260
47.3840 4.4999 -2.4945 0.8264
43.7924 9.5811 -2.3493 0.8356
24.5512 8.5770 -1.3629 0.9011
29.5162 14.5065 -1.7236 0.8766
13.2039 8.6039 -0.8259 0.9388
10.2734 8.6219 -0.7029 0.9477
8.0749 8.6354 -0.6196 0.9537
6.2697 8.5781 -0.5568 0.9583
4.7779 8.5327 -0.5125 0.9616
3.5585 8.6632 -0.4908 0.9632
1.2966 8.6771 -0.4598 0.9655
0.2400 8.6836 -0.4553 0.9658
-0.8080 8.6558 -0.4556 0.9658
-2.9852 8.5893 -0.4766 0.9642
-4.2640 8.7112 -0.5083 0.9619
-9.3191 8.7423 -0.6697 0.9501
-11.9252 8.7455 -0.7750 0.9425
-19.9466 8.2307 -1.1309 0.9172
-44.8768 6.7796 -2.3786 0.8338
-37.4809 -8.0744 -2.0093 0.8576
-42.3672 -14.6488 -2.3493 0.8356
-40.0747 -25.9307 -2.5015 0.8260
-36.6607 -30.5675 -2.5015 0.8260
-32.7132 -34.7596 -2.5015 0.8260
-15.6017 -21.2029 -1.3796 0.8999
-11.2121 -19.8734 -1.1958 0.9127
-5.3529 -19.1735 -1.0433 0.9234
4.0234 -44.6473 -2.3493 0.8356
32.5954 -30.7751 -2.3493 0.8356
39.0078 -22.0898 -2.3493 0.8356
41.3839 -17.2320 -2.3493 0.8356
45.9537 -12.9089 -2.5015 0.8260
47.1737 -7.2815 -2.5015 0.8260
47.7072 -1.5481 -2.5015 0.8260
47.5071 4.2043 -2.4995 0.8261
29.4478 10.0762 -1.6311 0.8828
29.5123 14.2703 -1.7180 0.8770
13.3891 8.6027 -0.8340 0.9382
10.4072 8.6211 -0.7082 0.9473
6.3540 8.5774 -0.5594 0.9581
4.8520 8.5361 -0.5146 0.9614
2.4505 8.6700 -0.4722 0.9646
0.2957 8.6832 -0.4553 0.9658
-1.8166 8.6341 -0.4624 0.9653
-4.1948 8.7108 -0.5067 0.9620
-5.5826 8.7193 -0.5426 0.9594
-7.2076 8.7293 -0.5933 0.9557
-9.1994 8.7416 -0.6651 0.9504
-11.7757 8.7525 -0.7689 0.9429
-15.1036 8.6172 -0.9113 0.9327
-19.6618 8.2612 -1.1177 0.9181
-25.4571 7.2393 -1.3870 0.8994
-44.8380 7.0681 -2.3789 0.8338
-35.7971 1.2765 -1.8772 0.8663
-44.9709 -3.8346 -2.3654 0.8346
-37.6791 -7.8646 -2.0172 0.8571
-42.4603 -14.3768 -2.3493 0.8356
-40.2401 -25.6731 -2.5015 0.8260
-36.8559 -30.3318 -2.5015 0.8260
-21.4887 -22.5415 -1.6321 0.8827
-11.4642 -20.0192 -1.2090 0.9117
-5.5048 -19.2404 -1.0488 0.9230
9.6778 -46.7410 -2.5015 0.8260
15.2357 -45.2355 -2.5015 0.8260
20.5718 -43.0718 -2.5015 0.8260
28.4308 -34.6592 -2.3493 0.8356
31.8991 -30.5070 -2.3132 0.8379
38.8653 -22.3396 -2.3493 0.8356
42.2060 -12.1487 -2.3017 0.8387
47.6963 -1.8540 -2.5015 0.8260
29.4449 9.8647 -1.6274 0.8830
29.5084 14.0356 -1.7125 0.8773
10.5431 8.6202 -0.7137 0.9469
8.2839 8.6341 -0.6271 0.9532
2.5105 8.6696 -0.4730 0.9645
0.3515 8.6829 -0.4554 0.9658
-1.7588 8.6338 -0.4618 0.9653
-14.8989 8.6275 -0.9023 0.9334
-19.6608 8.4095 -1.1207 0.9179
-45.2311 1.9035 -2.3726 0.8342
-45.0114 -3.5474 -2.3663 0.8346
-40.4040 -25.4145 -2.5015 0.8260
-37.0497 -30.0948 -2.5015 0.8260
-33.1563 -34.3371 -2.5015 0.8260
-16.5056 -21.8388 -1.4346 0.8961
-8.2983 -19.3153 -1.1017 0.9192
-3.3623 -20.2711 -1.0769 0.9210
2.1992 -28.4885 -1.4975 0.8919
14.9452 -45.3323 -2.5015 0.8260
20.2950 -43.2029 -2.5015 0.8260
31.5747 -30.5869 -2.3039 0.8385
41.5093 -12.2370 -2.2680 0.8409
47.0764 -7.8859 -2.5015 0.8260
43.9686 8.7368 -2.3493 0.8356
29.4420 9.6541 -1.6238 0.8833
13.7707 8.6004 -0.8509 0.9370
2.5708 8.6692 -0.4739 0.9644
1.4677 8.6760 -0.4612 0.9654
-1.7011 8.6335 -0.4612 0.9654
-11.8684 25.4767 -1.4729 0.8935
-5.4256 8.7184 -0.5382 0.9597
-7.0203 8.7282 -0.5870 0.9561
-8.9647 8.7401 -0.6562 0.9511
-14.6982 8.6376 -0.8935 0.9340
-19.6569 8.5574 -1.1236 0.9177
-44.7742 7.6479 -2.3805 0.8337
-45.2255 2.1939 -2.3730 0.8341
-38.0802 -7.4399 -2.0334 0.8561
-40.5662 -25.1548 -2.5015 0.8260
-37.2420 -29.8565 -2.5015 0.8260
-16.9367 -22.1129 -1.4598 0.8944
-11.7422 -19.9080 -1.2113 0.9116
-8.4581 -19.3442 -1.1065 0.9189
-1.0702 -21.3532 -1.1205 0.9179
1.9556 -27.6418 -1.4523 0.8949
9.0774 -46.8612 -2.5015 0.8260
20.0176 -43.3321 -2.5015 0.8260
27.9839 -35.0210 -2.3493 0.8356
31.9973 -31.3965 -2.3493 0.8356
34.2343 -26.3079 -2.2627 0.8412
41.0447 -18.0250 -2.3493 0.8356
41.2739 -12.4558 -2.2594 0.8414
47.6686 -2.4657 -2.5015 0.8260
44.0237 8.4545 -2.3493 0.8356
13.9674 8.5992 -0.8596 0.9364
8.4979 8.6328 -0.6348 0.9526
6.6198 8.5858 -0.5682 0.9575
11.2605 25.5300 -1.4623 0.8943
2.6313 8.6689 -0.4748 0.9644
1.5249 8.6757 -0.4616 0.9653
-6.9281 8.7276 -0.5840 0.9563
-8.8497 8.7394 -0.6518 0.9514
-11.3170 8.7546 -0.7498 0.9443
-19.4095 8.5982 -1.1125 0.9185
-23.4887 7.1708 -1.2871 0.9063
-45.2179 2.4844 -2.3733 0.8341
-45.0561 -2.9699 -2.3664 0.8345
-40.7267 -24.8941 -2.5015 0.8260
-17.5304 -22.5865 -1.4984 0.8918
-11.8810 -19.8512 -1.2125 0.9115
-8.5758 -19.2755 -1.1057 0.9190
-3.6106 -20.1628 -1.0735 0.9212
1.7740 -27.5871 -1.4488 0.8952
4.8192 -25.7623 -1.3736 0.9003
14.3624 -45.5203 -2.5015 0.8260
24.1438 -39.6419 -2.4325 0.8303
34.2322 -26.6572 -2.2738 0.8405
38.4283 -23.0833 -2.3493 0.8356
40.9282 -18.2879 -2.3493 0.8356
46.9714 -8.4892 -2.5015 0.8260
47.6388 2.9868 -2.5015 0.8260
44.0770 8.1720 -2.3493 0.8356
29.4970 13.3405 -1.6966 0.8784
14.1681 8.5979 -0.8685 0.9358
10.9638 8.6176 -0.7308 0.9457
8.6070 8.6321 -0.6388 0.9523
6.7114 8.5901 -0.5713 0.9573
11.4572 25.5312 -1.4666 0.8940
1.5823 8.6753 -0.4622 0.9653
0.5189 8.6818 -0.4558 0.9658
-3.8636 8.5794 -0.4931 0.9630
-5.2711 8.7174 -0.5339 0.9600
-22.9356 7.1631 -1.2593 0.9082
-44.7028 8.2273 -2.3821 0.8335
-45.0755 -2.6810 -2.3665 0.8345
-42.8151 -13.2829 -2.3493 0.8356
-43.5541 -19.5300 -2.5015 0.8260
-17.8359 -22.6783 -1.5121 0.8909
-12.0863 -19.9035 -1.2204 0.9109
-1.3446 -21.3488 -1.1211 0.9179
1.5156 -26.1897 -1.3748 0.9003
14.0703 -45.6115 -2.5015 0.8260
27.5322 -35.3772 -2.3493 0.8356
31.5919 -31.8044 -2.3493 0.8356
34.2300 -27.0101 -2.2851 0.8397
40.8101 -18.5501 -2.3493 0.8356
41.1498 -12.9967 -2.2616 0.8413
47.6570 2.6811 -2.5015 0.8260
44.1286 7.8891 -2.3493 0.8356
29.4934 13.1116 -1.6915 0.8787
14.3154 8.5622 -0.8742 0.9354
6.8041 8.5945 -0.5745 0.9570
3.9495 8.6520 -0.4984 0.9626
2.7530 8.6681 -0.4766 0.9642
1.6398 8.6750 -0.4627 0.9653
-1.5290 8.6326 -0.4595 0.9655
-3.7975 8.5792 -0.4917 0.9631
-5.1948 8.7170 -0.5318 0.9602
-6.7466 8.7265 -0.5781 0.9568
-8.6242 8.7380 -0.6434 0.9520
-14.1187 8.6668 -0.8682 0.9358
-18.8316 8.6328 -1.0857 0.9204
-22.4557 7.1716 -1.2354 0.9099
-44.6643 8.5167 -2.3829 0.8335
-45.1970 3.0651 -2.3741 0.8341
-45.0929 -2.3919 -2.3665 0.8345
-42.2672 -7.4167 -2.2490 0.8421
-43.6784 -19.2503 -2.5015 0.8260
-12.3322 -20.0177 -1.2322 0.9101
-8.9678 -19.4798 -1.1239 0.9177
-6.0722 -18.9084 -1.0408 0.9235
1.3107 -25.4826 -1.3372 0.9028
19.1801 -43.7093 -2.5015 0.8260
24.1243 -40.7783 -2.4831 0.8271
27.3048 -35.5530 -2.3493 0.8356
31.3872 -32.0065 -2.3493 0.8356
34.2278 -27.3663 -2.2967 0.8390
40.6903 -18.8114 -2.3493 0.8356
46.8586 -9.0910 -2.5015 0.8260
47.6124 -3.3824 -2.5015 0.8260
47.6732 2.3754 -2.5015 0.8260
44.1782 7.6060 -2.3493 0.8356
8.8293 8.6308 -0.6471 0.9517
6.8977 8.5989 -0.5777 0.9568
5.3095 8.5569 -0.5278 0.9605
2.8142 8.6677 -0.4776 0.9642
1.6974 8.6746 -0.4632 0.9652
-1.4719 8.6322 -0.4589 0.9655
-2.5654 8.6096 -0.4708 0.9647
-3.7318 8.5790 -0.4903 0.9632
-5.1190 8.7165 -0.5298 0.9603
-6.6572 8.7259 -0.5752 0.9570
-8.5136 8.7374 -0.6393 0.9523
-10.8746 8.7519 -0.7316 0.9456
-45.1083 -2.1026 -2.3666 0.8345
-42.4209 -7.1633 -2.2547 0.8417
-43.7510 -18.9479 -2.4987 0.8262
-37.9957 -28.8913 -2.5015 0.8260
-18.6605 -23.1104 -1.5567 0.8878
-6.1901 -18.8593 -1.0402 0.9236
-3.9853 -20.0261 -1.0701 0.9215
-1.6077 -21.1882 -1.1136 0.9184
7.8723 -47.0787 -2.5015 0.8260
18.8994 -43.8314 -2.5015 0.8260
23.9879 -41.1477 -2.4961 0.8263
26.9859 -16.9249 -1.6694 0.8802
41.2757 -13.6210 -2.2779 0.8402
46.7994 -9.3913 -2.5015 0.8260
47.6875 2.0697 -2.5015 0.8260
44.2261 7.3225 -2.3493 0.8356
28.2371 8.2663 -1.5420 0.8888
15.3267 8.9022 -0.9289 0.9315
11.4054 8.6149 -0.7491 0.9444
8.9426 8.6301 -0.6513 0.9514
6.9924 8.6033 -0.5810 0.9566
5.3880 8.5604 -0.5301 0.9603
2.8756 8.6674 -0.4786 0.9641
0.6867 8.6808 -0.4564 0.9657
-0.3627 8.6767 -0.4551 0.9658
-2.5062 8.6124 -0.4701 0.9647
-3.6664 8.5787 -0.4889 0.9633
-6.5686 8.7254 -0.5724 0.9572
-13.7439 8.6814 -0.8519 0.9370
-18.2806 8.6657 -1.0602 0.9222
-44.5817 9.0953 -2.3845 0.8334
-41.8449 -6.7904 -2.2217 0.8438
-43.0628 -12.4566 -2.3493 0.8356
-41.3519 -23.8412 -2.5015 0.8260
-9.2834 -19.5029 -1.1320 0.9171
-6.4104 -19.1161 -1.0567 0.9224
0.9306 -24.1204 -1.2650 0.9078
7.5702 -47.1282 -2.5015 0.8260
18.6179 -43.9517 -2.5015 0.8260
23.7600 -41.3640 -2.5000 0.8261
34.2234 -28.0898 -2.3204 0.8375
37.8235 -24.0614 -2.3493 0.8356
42.6907 -14.3922 -2.3610 0.8349
47.5651 -3.9928 -2.5015 0.8260
44.2722 7.0387 -2.3493 0.8356
29.0238 8.2949 -1.5820 0.8861
29.6773 12.5153 -1.6880 0.8790
15.3930 8.8092 -0.9295 0.9314
9.0575 8.6294 -0.6556 0.9511
2.9374 8.6670 -0.4796 0.9640
1.8131 8.6739 -0.4644 0.9651
-0.3070 8.6793 -0.4551 0.9658
-3.6014 8.5785 -0.4876 0.9634
-4.9692 8.7156 -0.5258 0.9606
-18.0147 8.6816 -1.0480 0.9230
-22.4078 7.6344 -1.2406 0.9095
-34.2803 7.2229 -1.8360 0.8691
-45.1508 3.9361 -2.3752 0.8340
-43.6115 -18.2269 -2.4772 0.8275
-12.9273 -20.1069 -1.2528 0.9087
-6.5032 -18.9880 -1.0519 0.9228
-4.2332 -19.9330 -1.0679 0.9216
-1.8660 -21.0163 -1.1057 0.9190
0.7561 -23.5090 -1.2327 0.9101
26.6158 -36.0717 -2.3493 0.8356
30.7657 -32.6043 -2.3493 0.8356
34.2211 -28.4572 -2.3325 0.8367
-5.2841 -19.4070 -1.7597 0.9224
-3.0217 -20.6750 -1.8280 0.9195
-0.5241 -21.4584 -1.8779 0.9174
9.4733 -26.9778 -2.5015 0.8915
15.6484 -23.9306 -2.5015 0.8915
23.1112 -16.8351 -2.5015 0.8915
24.9702 -13.9297 -2.5015 0.8915
26.4658 -10.8216 -2.5015 0.8915
28.5831 -0.7440 -2.5015 0.8915
28.4647 2.7032 -2.5015 0.8915
14.6826 3.2123 -1.3149 0.9414
25.3507 8.8563 -2.3493 0.8978
24.1436 11.8660 -2.3536 0.8976
13.2039 8.6039 -1.3788 0.9387
10.2734 8.6219 -1.1734 0.9476
8.0749 8.6354 -1.0343 0.9536
6.2631 8.5691 -0.9286 0.9583
4.7648 8.5093 -0.8532 0.9616
3.5585 8.6632 -0.8194 0.9631
2.3906 8.6703 -0.7869 0.9645
1.2966 8.6771 -0.7676 0.9654
0.2400 8.6836 -0.7600 0.9657
-5.6621 8.7198 -0.9096 0.9591
-9.3191 8.7423 -1.1179 0.9500
-26.8384 -2.4620 -2.3579 0.8974
-27.9515 -6.0215 -2.5015 0.8915
-27.0231 -9.3434 -2.5015 0.8915
-25.7014 -12.5294 -2.5015 0.8915
-21.9606 -18.3107 -2.5015 0.8915
-15.8827 -21.5848 -2.3446 0.8980
-11.0383 -19.5653 -1.9654 0.9137
-5.3737 -19.2481 -1.7484 0.9229
-3.1258 -20.4684 -1.8115 0.9202
-0.4980 -16.1452 -1.4132 0.9372
5.9767 -27.9612 -2.5015 0.8915
9.3001 -27.0380 -2.5015 0.8915
15.4946 -24.0305 -2.5015 0.8915
18.2754 -21.9899 -2.5015 0.8915
23.0027 -16.9830 -2.5015 0.8915
24.8803 -14.0896 -2.5015 0.8915
27.5273 -7.7327 -2.5015 0.8915
28.2581 -4.3618 -2.5015 0.8915
28.5777 -0.9273 -2.5015 0.8915
28.4815 2.5206 -2.5015 0.8915
14.6789 3.1130 -1.3128 0.9415
25.4069 8.6935 -2.3493 0.8978
10.4072 8.6211 -1.1823 0.9472
8.1788 8.6348 -1.0405 0.9534
6.3509 8.5732 -0.9334 0.9581
4.8386 8.5126 -0.8567 0.9614
3.6234 8.6628 -0.8215 0.9630
2.4505 8.6700 -0.7882 0.9645
1.3535 8.6767 -0.7683 0.9654
-1.8123 8.6136 -0.7701 0.9653
-4.1948 8.7108 -0.8459 0.9619
-5.5826 8.7193 -0.9058 0.9593
-14.8861 8.4931 -1.4994 0.9335
-24.9336 7.0905 -2.2679 0.9011
-20.9698 3.3057 -1.8573 0.9183
-26.7561 -2.2814 -2.3493 0.8978
-27.0825 -9.1699 -2.5015 0.8915
-24.1048 -15.3788 -2.5015 0.8915
-22.0776 -18.1694 -2.5015 0.8915
-18.9088 -19.8352 -2.3975 0.8958
-8.1012 -19.1949 -1.8228 0.9197
2.2385 -26.7597 -2.3493 0.8978
5.7972 -27.9989 -2.5015 0.8915
9.1265 -27.0971 -2.5015 0.8915
12.3230 -25.8010 -2.5015 0.8915
15.3401 -24.1294 -2.5015 0.8915
22.8933 -17.1302 -2.5015 0.8915
24.7895 -14.2488 -2.5015 0.8915
26.3249 -11.1602 -2.5015 0.8915
28.2296 -4.5429 -2.5015 0.8915
28.4970 2.3379 -2.5015 0.8915
26.3041 5.4023 -2.3493 0.8978
25.4622 8.5304 -2.3493 0.8978
13.5780 8.6016 -1.4062 0.9375
6.4396 8.5774 -0.9384 0.9578
4.9130 8.5158 -0.8601 0.9613
3.6887 8.6624 -0.8237 0.9629
1.4105 8.6764 -0.7690 0.9653
0.3515 8.6829 -0.7603 0.9657
-0.6966 8.6610 -0.7602 0.9657
-2.8573 8.5744 -0.7907 0.9644
-4.1122 8.6813 -0.8404 0.9622
-7.1134 8.7288 -0.9851 0.9558
-9.0812 8.7408 -1.1027 0.9506
-19.2434 8.2310 -1.8311 0.9194
-21.0490 3.4567 -1.8662 0.9179
-26.7701 -2.1098 -2.3493 0.8978
-28.0265 -5.6624 -2.5015 0.8915
-25.8600 -12.1987 -2.5015 0.8915
-24.2029 -15.2239 -2.5015 0.8915
-16.1912 -21.4228 -2.3493 0.8978
-8.2549 -19.2143 -1.8296 0.9195
-5.5958 -19.0946 -1.7408 0.9232
-3.3843 -20.4042 -1.8095 0.9203
-0.9282 -21.2441 -1.8604 0.9182
2.0668 -26.7735 -2.3493 0.8978
5.2757 -26.3298 -2.3493 0.8978
8.9525 -27.1551 -2.5015 0.8915
12.1572 -25.8795 -2.5015 0.8915
20.5368 -19.8944 -2.5015 0.8915
22.7830 -17.2767 -2.5015 0.8915
24.6976 -14.4076 -2.5015 0.8915
26.2527 -11.3288 -2.5015 0.8915
27.4259 -8.0852 -2.5015 0.8915
28.1999 -4.7239 -2.5015 0.8915
28.5115 2.1551 -2.5015 0.8915
26.3382 5.2335 -2.3493 0.8978
25.5164 8.3670 -2.3493 0.8978
10.6811 8.6194 -1.2008 0.9464
8.3902 8.6335 -1.0533 0.9528
6.5292 8.5816 -0.9434 0.9576
4.9881 8.5192 -0.8637 0.9611
2.5708 8.6692 -0.7911 0.9643
-0.6409 8.6636 -0.7600 0.9657
-2.7973 8.5773 -0.7893 0.9644
-10.2705 22.0467 -2.1279 0.9070
-5.4256 8.7184 -0.8984 0.9596
-8.9647 8.7401 -1.0954 0.9510
-11.4695 8.7555 -1.2624 0.9437
-14.5111 8.5277 -1.4725 0.9347
-19.0472 8.2919 -1.8175 0.9200
-26.7831 -1.9381 -2.3493 0.8978
-28.0622 -5.4826 -2.5015 0.8915
-27.1979 -8.8218 -2.5015 0.8915
-25.9377 -12.0326 -2.5015 0.8915
-22.3088 -17.8847 -2.5015 0.8915
-16.3283 -21.3185 -2.3493 0.8978
-8.4099 -19.2338 -1.8366 0.9192
-5.7655 -19.2159 -1.7552 0.9226
-3.5074 -20.3372 -1.8055 0.9205
-1.0612 -21.1736 -1.8548 0.9184
1.8864 -26.6642 -2.3386 0.8982
5.1067 -26.3631 -2.3493 0.8978
11.9910 -25.9569 -2.5015 0.8915
24.6047 -14.5657 -2.5015 0.8915
27.3734 -8.2609 -2.5015 0.8915
28.1690 -4.9046 -2.5015 0.8915
28.5546 -1.4770 -2.5015 0.8915
28.5247 1.9721 -2.5015 0.8915
26.3712 5.0645 -2.3493 0.8978
25.5695 8.2031 -2.3493 0.8978
13.9674 8.5992 -1.4350 0.9363
10.8214 8.6185 -1.2103 0.9460
8.4979 8.6328 -1.0598 0.9525
5.0637 8.5225 -0.8673 0.9610
8.5621 19.4121 -1.8562 0.9183
1.5249 8.6757 -0.7707 0.9652
0.4630 8.6822 -0.7607 0.9657
-0.5852 8.6662 -0.7599 0.9657
-5.3480 8.7179 -0.8948 0.9598
-8.8497 8.7394 -1.0882 0.9513
-14.3213 8.5402 -1.4588 0.9352
-18.8537 8.3520 -1.8041 0.9205
-23.5551 7.1911 -2.1547 0.9058
-26.8127 1.4732 -2.3493 0.8978
-28.0968 -5.3025 -2.5015 0.8915
-27.2539 -8.6472 -2.5015 0.8915
-24.3962 -14.9122 -2.5015 0.8915
-22.4231 -17.7413 -2.5015 0.8915
-5.8373 -19.0116 -1.7399 0.9233
-3.6051 -20.1319 -1.7893 0.9212
-1.1934 -21.1035 -1.8493 0.9186
1.6691 -25.9558 -2.2755 0.9008
8.6034 -27.2677 -2.5015 0.8915
11.8242 -26.0333 -2.5015 0.8915
14.8730 -24.4201 -2.5015 0.8915
22.5595 -17.5675 -2.5015 0.8915
28.1370 -5.0852 -2.5015 0.8915
28.5368 1.7892 -2.5015 0.8915
26.4032 4.8952 -2.3493 0.8978
24.4809 11.0719 -2.3507 0.8977
14.1681 8.5979 -1.4499 0.9356
5.1400 8.5259 -0.8710 0.9608
8.5548 19.0636 -1.8281 0.9195
2.6920 8.6685 -0.7941 0.9642
-0.5295 8.6688 -0.7598 0.9657
-1.5838 8.6193 -0.7667 0.9654
-3.8438 8.5354 -0.8190 0.9631
-5.2711 8.7174 -0.8913 0.9599
-23.0147 7.1878 -2.1094 0.9077
-21.2161 3.9047 -1.8873 0.9170
-24.4913 -14.7554 -2.5015 0.8915
-22.5364 -17.5971 -2.5015 0.8915
-11.9508 -19.6804 -2.0144 0.9117
-8.7233 -19.2733 -1.8509 0.9186
-4.7550 -15.1399 -1.3884 0.9383
-3.7600 -20.2476 -1.8017 0.9206
-1.3248 -21.0338 -1.8439 0.9189
4.6399 -25.7152 -2.2861 0.9004
11.6570 -26.1086 -2.5015 0.8915
17.5609 -22.5646 -2.5015 0.8915
20.1502 -20.2858 -2.5015 0.8915
24.4158 -14.8801 -2.5015 0.8915
28.1038 -5.2656 -2.5015 0.8915
28.5333 -1.8432 -2.5015 0.8915
28.5476 1.6060 -2.5015 0.8915
26.4340 4.7258 -2.3493 0.8978
25.6726 7.8744 -2.3493 0.8978
3.9495 8.6520 -0.8321 0.9625
2.7530 8.6681 -0.7957 0.9641
0.5748 8.6815 -0.7612 0.9657
-0.4739 8.6714 -0.7598 0.9657
-1.5271 8.6220 -0.7661 0.9655
-2.6185 8.5860 -0.7853 0.9646
-5.1948 8.7170 -0.8878 0.9601
-6.7466 8.7265 -0.9650 0.9567
-8.6242 8.7380 -1.0741 0.9519
-26.8154 -1.4224 -2.3493 0.8978
-28.1625 -4.9417 -2.5015 0.8915
-26.1644 -11.5313 -2.5015 0.8915
-8.8819 -19.2933 -1.8582 0.9183
1.2677 -24.6471 -2.1592 0.9057
4.4734 -25.7367 -2.2854 0.9004
14.5585 -24.6089 -2.5015 0.8915
22.3323 -17.8554 -2.5015 0.8915
24.3198 -15.0364 -2.5015 0.8915
25.9535 -11.9985 -2.5015 0.8915
27.2094 -8.7860 -2.5015 0.8915
28.0694 -5.4457 -2.5015 0.8915
28.5574 1.4229 -2.5015 0.8915
26.4962 4.5617 -2.3522 0.8977
25.7226 7.7096 -2.3493 0.8978
11.2558 8.6158 -1.2401 0.9447
8.8293 8.6308 -1.0802 0.9516
5.2945 8.5327 -0.8785 0.9605
4.0178 8.6542 -0.8348 0.9624
-0.4183 8.6740 -0.7598 0.9657
-2.5593 8.5889 -0.7841 0.9647
-3.7128 8.5352 -0.8143 0.9633
-5.1190 8.7165 -0.8844 0.9602
-10.8746 8.7519 -1.2212 0.9455
-13.7726 8.5764 -1.4195 0.9369
-18.2309 8.4993 -1.7598 0.9224
-21.6322 1.6065 -1.8978 0.9166
-26.8240 -1.2503 -2.3493 0.8978
-27.4152 -8.1211 -2.5015 0.8915
-24.6786 -14.4400 -2.5015 0.8915
-22.7603 -17.3066 -2.5015 0.8915
-20.5107 -19.9213 -2.5015 0.8915
-16.8698 -20.8926 -2.3493 0.8978
-9.0418 -19.3135 -1.8657 0.9179
-6.2576 -19.0650 -1.7555 0.9226
11.3212 -26.2560 -2.5015 0.8915
14.4004 -24.7017 -2.5015 0.8915
22.2173 -17.9983 -2.5015 0.8915
27.4378 4.5429 -2.4332 0.8943
25.7715 7.5445 -2.3493 0.8978
11.4054 8.6149 -1.2505 0.9442
0.6867 8.6808 -0.7618 0.9656
-2.5002 8.5918 -0.7829 0.9647
-10.7318 8.7510 -1.2115 0.9459
-17.9670 8.5171 -1.7396 0.9233
-22.4088 7.4747 -2.0667 0.9095
-26.3314 5.3719 -2.3511 0.8977
-21.3246 1.7213 -1.8717 0.9177
-27.4667 -7.9452 -2.5015 0.8915
-24.7707 -14.2814 -2.5015 0.8915
-22.8708 -17.1602 -2.5015 0.8915
-20.6381 -19.7894 -2.5015 0.8915
-17.0034 -20.7840 -2.3493 0.8978
-12.6252 -19.9167 -2.0631 0.9097
-4.1175 -20.0191 -1.7881 0.9212
7.9011 -27.4794 -2.5015 0.8915
11.1526 -26.3281 -2.5015 0.8915
14.2417 -24.7936 -2.5015 0.8915
17.1236 -22.8983 -2.5015 0.8915
22.1014 -18.1404 -2.5015 0.8915
24.1250 -15.3471 -2.5015 0.8915
27.0945 -9.1343 -2.5015 0.8915
27.9972 -5.8053 -2.5015 0.8915
28.1625 4.4775 -2.4948 0.8918
25.8194 7.3791 -2.3493 0.8978
15.3930 8.8092 -1.5517 0.9313
11.5576 8.6140 -1.2611 0.9438
5.4518 8.5396 -0.8864 0.9601
2.9374 8.6670 -0.8006 0.9639
0.7427 8.6805 -0.7622 0.9656
-0.3070 8.6793 -0.7598 0.9657
-1.3578 8.6299 -0.7643 0.9655
-4.9692 8.7156 -0.8777 0.9605
-13.4226 8.5994 -1.3947 0.9380
-17.7092 8.5343 -1.7199 0.9241
-20.9958 1.8303 -1.8439 0.9189
-28.2524 -4.3989 -2.5015 0.8915
-9.3654 -19.3543 -1.8811 0.9173
-6.6598 -19.4451 -1.7982 0.9208
-4.2275 -19.9058 -1.7804 0.9215
-1.8432 -20.7589 -1.8233 0.9197
7.7248 -27.5295 -2.5015 0.8915
24.0261 -15.5015 -2.5015 0.8915
-7.2132 -17.7221 -2.3493 0.9258
-2.7671 -18.9327 -2.3493 0.9258
4.3305 -19.6428 -2.4697 0.9221
6.7501 -19.2227 -2.5015 0.9212
11.1501 -17.0515 -2.5015 0.9212
18.8579 -7.7108 -2.5015 0.9212
19.6492 -5.3839 -2.5015 0.9212
20.1545 -2.9787 -2.5015 0.9212
20.3666 -0.5301 -2.5015 0.9212
20.2822 1.9261 -2.5015 0.9212
17.1720 8.4396 -2.3493 0.9258
13.2039 8.6039 -1.9350 0.9385
10.2734 8.6219 -1.6468 0.9474
8.0749 8.6354 -1.4516 0.9535
4.7339 8.4541 -1.1897 0.9617
3.5585 8.6632 -1.1499 0.9630
2.3906 8.6703 -1.1043 0.9644
1.2966 8.6771 -1.0772 0.9653
-1.8653 8.5916 -1.0795 0.9652
-5.6621 8.7198 -1.2766 0.9590
-15.6877 8.8175 -2.2096 0.9300
-17.6873 7.2984 -2.3493 0.9258
-18.4374 5.1155 -2.3493 0.9258
-18.9192 2.8582 -2.3493 0.9258
-20.3188 0.5941 -2.4959 0.9213
-19.2550 -6.6575 -2.5015 0.9212
-18.3132 -8.9277 -2.5015 0.9212
-17.1049 -11.0679 -2.5015 0.9212
-15.6478 -13.0470 -2.5015 0.9212
-13.9629 -14.8363 -2.5015 0.9212
-7.3268 -17.6755 -2.3493 0.9258
-0.4946 -16.0351 -1.9698 0.9374
1.7173 -19.0567 -2.3493 0.9258
4.1260 -19.3031 -2.4237 0.9235
6.6267 -19.2656 -2.5015 0.9212
11.0405 -17.1227 -2.5015 0.9212
13.0219 -15.6687 -2.5015 0.9212
14.8139 -13.9866 -2.5015 0.9212
18.8081 -7.8316 -2.5015 0.9212
20.1350 -3.1079 -2.5015 0.9212
20.3627 -0.6608 -2.5015 0.9212
20.2941 1.7960 -2.5015 0.9212
14.6603 3.1091 -1.8401 0.9414
17.2258 8.3293 -2.3493 0.9258
10.4072 8.6211 -1.6593 0.9470
8.1788 8.6348 -1.4603 0.9532
6.2994 8.5037 -1.2994 0.9582
4.8068 8.4565 -1.1943 0.9616
3.6234 8.6628 -1.1529 0.9629
2.4505 8.6700 -1.1062 0.9643
0.2957 8.6832 -1.0668 0.9656
-1.8083 8.5947 -1.0784 0.9652
-2.9050 8.5344 -1.1069 0.9643
-5.5826 8.7193 -1.2712 0.9591
-9.1994 8.7416 -1.5582 0.9501
-11.7757 8.7525 -1.8015 0.9426
-18.4042 5.2337 -2.3493 0.9258
-18.9005 2.9795 -2.3493 0.9258
-20.2991 0.7239 -2.4940 0.9214
-20.2998 -1.7309 -2.5015 0.9212
-19.2973 -6.5339 -2.5015 0.9212
-18.3701 -8.8100 -2.5015 0.9212
-17.1756 -10.9580 -2.5015 0.9212
-15.7311 -12.9464 -2.5015 0.9212
-12.1497 -16.2916 -2.4954 0.9214
-9.5085 -16.6040 -2.3493 0.9258
-7.4400 -17.6282 -2.3493 0.9258
3.9308 -18.9847 -2.3805 0.9248
6.5030 -19.3077 -2.5015 0.9212
10.9304 -17.1931 -2.5015 0.9212
12.9212 -15.7518 -2.5015 0.9212
16.3124 -12.2059 -2.5015 0.9212
17.6634 -10.1529 -2.5015 0.9212
18.7575 -7.9520 -2.5015 0.9212
19.5785 -5.6355 -2.5015 0.9212
20.1147 -3.2370 -2.5015 0.9212
18.1428 6.0782 -2.3493 0.9258
17.2789 8.2186 -2.3493 0.9258
13.5780 8.6016 -1.9735 0.9373
10.5431 8.6202 -1.6722 0.9466
8.2839 8.6341 -1.4692 0.9529
6.3863 8.5063 -1.3060 0.9580
3.6887 8.6624 -1.1560 0.9628
-1.7514 8.5977 -1.0773 0.9653
-2.8451 8.5378 -1.1050 0.9644
-7.1134 8.7288 -1.3826 0.9556
-11.6245 8.7565 -1.7869 0.9430
-14.3451 8.3068 -2.0354 0.9354
-17.5922 7.5247 -2.3493 0.9258
-18.3702 5.3516 -2.3493 0.9258
-19.9700 -4.0347 -2.5015 0.9212
-19.3388 -6.4100 -2.5015 0.9212
-18.4262 -8.6921 -2.5015 0.9212
-15.8138 -12.8453 -2.5015 0.9212
-14.1520 -14.6560 -2.5015 0.9212
-12.2623 -16.2244 -2.4971 0.9213
-9.6148 -16.5427 -2.3493 0.9258
-0.7027 -16.0823 -1.9765 0.9372
1.4727 -19.0771 -2.3493 0.9258
6.3790 -19.3491 -2.5015 0.9212
8.6625 -18.4401 -2.5015 0.9212
10.8199 -17.2629 -2.5015 0.9212
12.8199 -15.8344 -2.5015 0.9212
16.2337 -12.3103 -2.5015 0.9212
18.7061 -8.0722 -2.5015 0.9212
20.0935 -3.3659 -2.5015 0.9212
20.3526 -0.9219 -2.5015 0.9212
19.8397 3.9422 -2.4836 0.9217
18.1814 5.9618 -2.3493 0.9258
6.4740 8.5090 -1.3128 0.9578
3.7435 8.6369 -1.1558 0.9628
2.5708 8.6692 -1.1103 0.9642
1.4677 8.6760 -1.0804 0.9652
0.4072 8.6825 -1.0673 0.9656
-0.6402 8.6546 -1.0656 0.9656
-2.7855 8.5412 -1.1031 0.9644
-8.9647 8.7401 -1.5373 0.9508
-14.2094 8.3504 -2.0237 0.9357
-18.3356 5.4693 -2.3493 0.9258
-19.7539 0.9583 -2.4283 0.9234
-19.9954 -3.9066 -2.5015 0.9212
-19.3795 -6.2859 -2.5015 0.9212
-17.3147 -10.7367 -2.5015 0.9212
-15.8959 -12.7435 -2.5015 0.9212
-7.6655 -17.5313 -2.3493 0.9258
-3.2519 -18.8555 -2.3493 0.9258
-0.9578 -19.1099 -2.3493 0.9258
6.2548 -19.3896 -2.5015 0.9212
8.5440 -18.4953 -2.5015 0.9212
10.7090 -17.3319 -2.5015 0.9212
12.7181 -15.9163 -2.5015 0.9212
14.5421 -14.2690 -2.5015 0.9212
17.5318 -10.3786 -2.5015 0.9212
19.5046 -5.8862 -2.5015 0.9212
20.3463 -1.0524 -2.5015 0.9212
20.3249 1.4052 -2.5015 0.9212
17.3829 7.9963 -2.3493 0.9258
13.9674 8.5992 -2.0139 0.9360
8.4979 8.6328 -1.4874 0.9524
6.5626 8.5116 -1.3197 0.9576
5.0288 8.4638 -1.2088 0.9611
2.6313 8.6689 -1.1124 0.9641
0.4630 8.6822 -1.0676 0.9656
-1.6380 8.6037 -1.0754 0.9653
-8.8497 8.7394 -1.5271 0.9511
-11.3170 8.7546 -1.7568 0.9440
-17.4942 7.7497 -2.3493 0.9258
-18.3001 5.5868 -2.3493 0.9258
-20.3293 -1.3400 -2.5015 0.9212
-20.0201 -3.7782 -2.5015 0.9212
-15.9773 -12.6414 -2.5015 0.9212
-14.3388 -14.4733 -2.5015 0.9212
-9.8262 -16.4180 -2.3493 0.9258
-4.6375 -15.1037 -1.9400 0.9383
-3.3727 -18.8343 -2.3493 0.9258
1.2279 -19.0944 -2.3493 0.9258
3.5182 -18.8076 -2.3493 0.9258
6.1303 -19.4293 -2.5015 0.9212
10.5976 -17.4002 -2.5015 0.9212
16.0745 -12.5175 -2.5015 0.9212
17.4648 -10.4908 -2.5015 0.9212
19.4665 -6.0112 -2.5015 0.9212
20.0487 -3.6234 -2.5015 0.9212
20.3391 -1.1829 -2.5015 0.9212
20.3335 1.2749 -2.5015 0.9212
19.9785 3.7041 -2.4949 0.9214
14.1681 8.5979 -2.0349 0.9354
8.6070 8.6321 -1.4967 0.9521
6.6522 8.5143 -1.3267 0.9574
2.6920 8.6685 -1.1145 0.9641
1.5823 8.6753 -1.0828 0.9651
0.5189 8.6818 -1.0679 0.9656
-0.5290 8.6601 -1.0653 0.9656
-1.5814 8.6067 -1.0745 0.9653
-2.6669 8.5478 -1.0994 0.9646
-5.2711 8.7174 -1.2508 0.9598
-6.8369 8.7271 -1.3612 0.9563
-8.7362 8.7387 -1.5172 0.9514
-11.1671 8.7537 -1.7422 0.9444
-17.4442 7.8618 -2.3493 0.9258
-18.8179 3.4633 -2.3493 0.9258
-19.2189 1.1796 -2.3642 0.9253
-19.4586 -6.0368 -2.5015 0.9212
-18.5900 -8.3359 -2.5015 0.9212
-16.0580 -12.5386 -2.5015 0.9212
-14.4313 -14.3810 -2.5015 0.9212
-12.5947 -16.0141 -2.5015 0.9212
-4.7203 -15.0295 -1.9342 0.9385
-1.2028 -19.0960 -2.3493 0.9258
12.5128 -16.0782 -2.5015 0.9212
14.3578 -14.4544 -2.5015 0.9212
15.9939 -12.6204 -2.5015 0.9212
17.3972 -10.6026 -2.5015 0.9212
19.4275 -6.1359 -2.5015 0.9212
20.0250 -3.7519 -2.5015 0.9212
20.3311 -1.3133 -2.5015 0.9212
20.3413 1.1444 -2.5015 0.9212
11.1086 8.6168 -1.7262 0.9449
8.7174 8.6315 -1.5063 0.9518
6.7427 8.5170 -1.3338 0.9572
5.1798 8.4687 -1.2189 0.9608
3.9495 8.6520 -1.1678 0.9624
-0.4734 8.6628 -1.0652 0.9656
-2.6079 8.5511 -1.0977 0.9646
-3.7489 8.4693 -1.1372 0.9634
-5.1948 8.7170 -1.2459 0.9599
-6.7466 8.7265 -1.3544 0.9565
-11.0196 8.7528 -1.7279 0.9449
-17.3934 7.9735 -2.3493 0.9258
-18.7952 3.5839 -2.3493 0.9258
-20.3449 -1.0792 -2.5015 0.9212
-19.4969 -5.9119 -2.5015 0.9212
-18.6431 -8.2165 -2.5015 0.9212
-16.1381 -12.4354 -2.5015 0.9212
-12.6972 -15.9330 -2.5015 0.9212
-10.0361 -16.2906 -2.3493 0.9258
-4.8336 -15.0517 -1.9411 0.9383
-3.6141 -18.7895 -2.3493 0.9258
3.2766 -18.8512 -2.3493 0.9258
8.1866 -18.6563 -2.5015 0.9212
10.3735 -17.5347 -2.5015 0.9212
12.4095 -16.1581 -2.5015 0.9212
14.2648 -14.5462 -2.5015 0.9212
15.9126 -12.7227 -2.5015 0.9212
18.4929 -8.5494 -2.5015 0.9212
20.3222 -1.4437 -2.5015 0.9212
20.3482 1.0139 -2.5015 0.9212
20.0781 3.4567 -2.5015 0.9212
18.3283 5.4934 -2.3493 0.9258
15.2605 8.9951 -2.1750 0.9311
8.8293 8.6308 -1.5160 0.9515
4.0178 8.6542 -1.1715 0.9623
2.8142 8.6677 -1.1190 0.9639
-0.4179 8.6655 -1.0652 0.9656
-3.6911 8.4854 -1.1362 0.9634
-5.1190 8.7165 -1.2412 0.9601
-8.5136 8.7374 -1.4979 0.9520
-10.8746 8.7519 -1.7139 0.9453
-13.5805 8.4568 -1.9644 0.9376
-17.3419 8.0849 -2.3493 0.9258
-18.1892 5.9378 -2.3493 0.9258
-19.0813 1.4171 -2.3493 0.9258
-20.3514 -0.9486 -2.5015 0.9212
-18.6955 -8.0967 -2.5015 0.9212
-16.2176 -12.3316 -2.5015 0.9212
-14.6147 -14.1947 -2.5015 0.9212
-10.1403 -16.2259 -2.3493 0.9258
-3.7345 -18.7659 -2.3493 0.9258
-1.4477 -19.0790 -2.3493 0.9258
0.8602 -19.1145 -2.3493 0.9258
3.1557 -18.8719 -2.3493 0.9258
8.0668 -18.7084 -2.5015 0.9212
10.2608 -17.6009 -2.5015 0.9212
14.1712 -14.6374 -2.5015 0.9212
15.8307 -12.8245 -2.5015 0.9212
17.2598 -10.8249 -2.5015 0.9212
18.4376 -8.6678 -2.5015 0.9212
20.3126 -1.5740 -2.5015 0.9212
20.0998 3.3279 -2.5015 0.9212
18.3632 5.3758 -2.3493 0.9258
11.4054 8.6149 -1.7550 0.9440
8.9426 8.6301 -1.5259 0.9511
5.3334 8.4736 -1.2294 0.9605
2.8756 8.6674 -1.1213 0.9639
0.6867 8.6808 -1.0692 0.9655
-2.4903 8.5576 -1.0943 0.9647
-3.6296 8.4927 -1.1340 0.9635
-5.0438 8.7160 -1.2365 0.9602
-6.5687 8.7254 -1.3410 0.9569
-8.4043 8.7367 -1.4885 0.9523
-10.7318 8.7510 -1.7002 0.9457
-13.4319 8.4844 -1.9507 0.9380
-17.2861 8.1943 -2.3489 0.9258
-18.1508 6.0544 -2.3493 0.9258
-18.7477 3.8248 -2.3493 0.9258
-19.0719 1.5394 -2.3493 0.9258
-20.1104 -3.2634 -2.5015 0.9212
-18.7470 -7.9767 -2.5015 0.9212
-17.6501 -10.1760 -2.5015 0.9212
-14.7054 -14.1007 -2.5015 0.9212
-10.2442 -16.1605 -2.3493 0.9258
-6.0835 -18.1410 -2.3493 0.9258
0.7377 -19.1197 -2.3493 0.9258
5.6299 -19.5801 -2.5015 0.9212
10.1478 -17.6664 -2.5015 0.9212
12.2012 -16.3159 -2.5015 0.9212
14.0771 -14.7280 -2.5015 0.9212
15.7481 -12.9257 -2.5015 0.9212
17.1900 -10.9354 -2.5015 0.9212
18.3817 -8.7859 -2.5015 0.9212
19.3059 -6.5085 -2.5015 0.9212
20.3021 -1.7042 -2.5015 0.9212
20.1207 3.1990 -2.5015 0.9212
18.3973 5.2579 -2.3493 0.9258
15.3930 8.8092 -2.1776 0.9310
5.4112 8.4761 -1.2347 0.9603
2.9374 8.6670 -1.1236 0.9638
0.7427 8.6805 -1.0697 0.9655
-1.3560 8.6184 -1.0712 0.9655
-2.4318 8.5609 -1.0927 0.9648
-6.4810 8.7249 -1.3345 0.9571
-8.2965 8.7360 -1.4793 0.9526
-10.5913 8.7501 -1.6868 0.9461
-18.1115 6.1707 -2.3493 0.9258
-18.7228 3.9449 -2.3493 0.9258
-20.1309 -3.1344 -2.5015 0.9212
-18.7978 -7.8563 -2.5015 0.9212
-17.7150 -10.0627 -2.5015 0.9212
-16.3744 -12.1226 -2.5015 0.9212
-13.0013 -15.6858 -2.5015 0.9212
-8.3343 -17.2234 -2.3493 0.9258
-3.9749 -18.7165 -2.3493 0.9258
0.6150 -19.1240 -2.3493 0.9258
7.8262 -18.8103 -2.5015 0.9212
10.0343 -17.7311 -2.5015 0.9212
-7.6724 -13.8054 -2.5015 0.9380
-5.9409 -14.5961 -2.4960 0.9382
-3.9778 -14.6091 -2.3981 0.9405
-0.3759 -15.3917 -2.4385 0.9396
1.5184 -15.7209 -2.5015 0.9380
6.9892 -14.1635 -2.5015 0.9380
13.7931 -7.6945 -2.5015 0.9380
14.6192 -5.9776 -2.5015 0.9380
15.6244 -2.3092 -2.5015 0.9380
15.7888 -0.4110 -2.5015 0.9380
15.7234 1.4932 -2.5015 0.9380
14.6079 3.1960 -2.3684 0.9412
6.8010 2.3759 -1.1410 0.9712
12.4276 8.0980 -2.3493 0.9417
10.2734 8.6219 -2.1242 0.9471
4.6649 8.3308 -1.5123 0.9621
3.5585 8.6632 -1.4834 0.9628
1.2966 8.6771 -1.3896 0.9651
-1.8497 8.5197 -1.3808 0.9653
-4.2640 8.7112 -1.5361 0.9615
-5.6621 8.7198 -1.6467 0.9588
-7.3027 8.7299 -1.8027 0.9550
-11.9252 8.7455 -2.3422 0.9419
-12.9306 7.2679 -2.3493 0.9417
-13.7117 5.6580 -2.3493 0.9417
-14.2932 3.9657 -2.3493 0.9417
-12.1306 -10.1145 -2.5015 0.9380
-7.7608 -13.7559 -2.5015 0.9380
-6.0364 -14.5627 -2.4968 0.9382
-4.0774 -14.6049 -2.4017 0.9404
-2.2625 -14.8152 -2.3737 0.9411
-0.4735 -15.3498 -2.4323 0.9397
3.3014 -15.4452 -2.5015 0.9380
5.1372 -14.9353 -2.5015 0.9380
8.5589 -13.2740 -2.5015 0.9380
13.7434 -7.7828 -2.5015 0.9380
14.5806 -6.0713 -2.5015 0.9380
15.2056 -4.2714 -2.5015 0.9380
15.7858 -0.5122 -2.5015 0.9380
15.7326 1.3923 -2.5015 0.9380
15.4505 3.2767 -2.5015 0.9380
6.5616 3.1728 -1.1544 0.9709
12.4793 8.0182 -2.3493 0.9417
8.1788 8.6348 -1.8837 0.9530
4.7445 8.3470 -1.5207 0.9619
1.3535 8.6767 -1.3909 0.9651
0.2957 8.6832 -1.3761 0.9654
-1.7932 8.5228 -1.3794 0.9653
-2.8800 8.4612 -1.4156 0.9645
-5.5826 8.7193 -1.6398 0.9589
-7.2076 8.7293 -1.7930 0.9552
-9.1994 8.7416 -2.0099 0.9499
-11.7757 8.7525 -2.3239 0.9423
-13.6751 5.7458 -2.3493 0.9417
-14.2675 4.0573 -2.3493 0.9417
-15.4379 2.4336 -2.4753 0.9387
-15.7841 0.5629 -2.5015 0.9380
-15.4609 -3.2271 -2.5015 0.9380
-14.9599 -5.0653 -2.5015 0.9380
-9.4421 -12.6610 -2.5015 0.9380
-6.1318 -14.5287 -2.4977 0.9381
-4.1774 -14.6007 -2.4053 0.9403
-2.3571 -14.7980 -2.3733 0.9411
1.3166 -15.7391 -2.5015 0.9380
3.2023 -15.4661 -2.5015 0.9380
10.0169 -12.2113 -2.5015 0.9380
11.4144 -10.9163 -2.5015 0.9380
12.6458 -9.4624 -2.5015 0.9380
14.5414 -6.1647 -2.5015 0.9380
15.1779 -4.3688 -2.5015 0.9380
15.5935 -2.5094 -2.5015 0.9380
15.7822 -0.6135 -2.5015 0.9380
15.7413 1.2914 -2.5015 0.9380
6.9048 2.3133 -1.1534 0.9709
10.5431 8.6202 -2.1570 0.9463
6.3184 8.4160 -1.6668 0.9583
3.6887 8.6624 -1.4912 0.9626
0.3515 8.6829 -1.3764 0.9654
-0.6907 8.5881 -1.3646 0.9657
-1.7368 8.5258 -1.3781 0.9654
-7.1134 8.7288 -1.7834 0.9554
-11.8479 8.9247 -2.3493 0.9417
-12.8363 7.4332 -2.3493 0.9417
-14.2412 4.1487 -2.3493 0.9417
-15.2252 2.5003 -2.4437 0.9394
-15.7453 -1.2409 -2.5015 0.9380
-14.9920 -4.9693 -2.5015 0.9380
-14.2846 -6.7383 -2.5015 0.9380
-10.9711 -11.3618 -2.5015 0.9380
-9.5231 -12.6002 -2.5015 0.9380
-6.2270 -14.4941 -2.4985 0.9381
-2.4516 -14.7807 -2.3730 0.9411
6.7154 -14.2954 -2.5015 0.9380
9.9384 -12.2753 -2.5015 0.9380
11.3442 -10.9893 -2.5015 0.9380
12.5849 -9.5433 -2.5015 0.9380
13.6425 -7.9585 -2.5015 0.9380
14.5015 -6.2578 -2.5015 0.9380
15.5771 -2.6094 -2.5015 0.9380
15.7780 -0.7147 -2.5015 0.9380
15.7492 1.1904 -2.5015 0.9380
6.9929 2.2930 -1.1656 0.9706
6.5718 3.0743 -1.1491 0.9710
12.5811 7.8575 -2.3493 0.9417
3.7435 8.6369 -1.4909 0.9626
2.5708 8.6692 -1.4322 0.9640
0.4072 8.6825 -1.3767 0.9654
-5.4256 8.7184 -1.6264 0.9593
-7.0203 8.7282 -1.7741 0.9557
-8.9647 8.7401 -1.9830 0.9506
-11.7904 9.0005 -2.3493 0.9417
-13.6003 5.9207 -2.3493 0.9417
-14.2143 4.2400 -2.3493 0.9417
-15.0179 2.5652 -2.4131 0.9402
-15.7529 -1.1399 -2.5015 0.9380
-15.0236 -4.8730 -2.5015 0.9380
-12.3230 -9.8792 -2.5015 0.9380
-11.0437 -11.2912 -2.5015 0.9380
-9.6037 -12.5388 -2.5015 0.9380
-4.3796 -14.5968 -2.4137 0.9401
-0.7637 -15.2381 -2.4165 0.9401
6.6236 -14.3382 -2.5015 0.9380
11.2735 -11.0618 -2.5015 0.9380
12.5234 -9.6238 -2.5015 0.9380
13.5912 -8.0458 -2.5015 0.9380
14.4611 -6.3507 -2.5015 0.9380
15.5107 2.9787 -2.5015 0.9380
12.6312 7.7766 -2.3493 0.9417
10.8214 8.6185 -2.1911 0.9455
8.4979 8.6328 -1.9186 0.9521
6.4922 8.4203 -1.6840 0.9579
2.6313 8.6689 -1.4349 0.9640
1.5249 8.6757 -1.3952 0.9650
-0.5813 8.6084 -1.3665 0.9657
-1.6243 8.5319 -1.3756 0.9654
-2.7028 8.4715 -1.4084 0.9646
-3.7887 8.2710 -1.4409 0.9638
-8.8497 8.7394 -1.9699 0.9509
-11.3120 8.7507 -2.2652 0.9437
-13.5620 6.0078 -2.3493 0.9417
-14.1868 4.3311 -2.3493 0.9417
-14.8156 2.6286 -2.3832 0.9409
-15.7704 0.8665 -2.5015 0.9380
-15.5202 -2.9290 -2.5015 0.9380
-15.0545 -4.7765 -2.5015 0.9380
-14.3698 -6.5545 -2.5015 0.9380
-13.4760 -8.2372 -2.5015 0.9380
-12.3861 -9.8000 -2.5015 0.9380
-9.6840 -12.4770 -2.5015 0.9380
-8.1111 -13.5523 -2.5015 0.9380
-6.4170 -14.4232 -2.5003 0.9381
-4.4827 -14.5997 -2.4189 0.9400
-2.6407 -14.7462 -2.3727 0.9411
-0.8599 -15.2064 -2.4123 0.9402
1.0126 -15.7460 -2.4991 0.9381
2.9041 -15.5248 -2.5015 0.9380
6.5315 -14.3803 -2.5015 0.9380
8.2156 -13.4892 -2.5015 0.9380
9.7801 -12.4018 -2.5015 0.9380
14.4201 -6.4433 -2.5015 0.9380
15.7632 0.9883 -2.5015 0.9380
15.5295 2.8792 -2.5015 0.9380
7.1824 2.2535 -1.1923 0.9700
6.5815 2.9766 -1.1441 0.9712
10.9638 8.6176 -2.2087 0.9451
5.0536 8.3826 -1.5503 0.9611
6.1007 13.5949 -2.3601 0.9414
-6.8369 8.7271 -1.7559 0.9561
-13.5232 6.0947 -2.3493 0.9417
-14.6220 2.6911 -2.3548 0.9416
-15.7663 -0.9377 -2.5015 0.9380
-15.5386 -2.8294 -2.5015 0.9380
-9.7638 -12.4146 -2.5015 0.9380
-8.1978 -13.5000 -2.5015 0.9380
-6.5117 -14.3869 -2.5012 0.9380
-4.5862 -14.6025 -2.4242 0.9399
-0.9558 -15.1748 -2.4082 0.9403
0.9112 -15.7465 -2.4982 0.9381
4.6557 -15.0923 -2.5015 0.9380
9.7003 -12.4643 -2.5015 0.9380
11.1306 -11.2055 -2.5015 0.9380
12.3989 -9.7837 -2.5015 0.9380
13.4868 -8.2195 -2.5015 0.9380
15.0608 -4.7568 -2.5015 0.9380
15.7692 0.8872 -2.5015 0.9380
11.1086 8.6168 -2.2267 0.9447
8.7174 8.6315 -1.9430 0.9515
3.9495 8.6520 -1.5064 0.9622
2.7530 8.6681 -1.4405 0.9638
1.6398 8.6750 -1.3983 0.9649
0.5748 8.6815 -1.3780 0.9654
-0.4716 8.6288 -1.3687 0.9656
-2.5856 8.4783 -1.4039 0.9647
-5.1948 8.7170 -1.6072 0.9597
-8.6242 8.7380 -1.9445 0.9515
-11.0196 8.7528 -2.2289 0.9446
-15.5565 -2.7297 -2.5015 0.9380
-13.5806 -8.0637 -2.5015 0.9380
-12.5108 -9.6403 -2.5015 0.9380
-11.2589 -11.0766 -2.5015 0.9380
-9.8432 -12.3517 -2.5015 0.9380
-6.6048 -14.3468 -2.5015 0.9380
-2.8297 -14.7116 -2.3728 0.9411
4.5588 -15.1219 -2.5015 0.9380
6.3465 -14.4629 -2.5015 0.9380
8.0419 -13.5935 -2.5015 0.9380
11.0585 -11.2767 -2.5015 0.9380
12.3359 -9.8630 -2.5015 0.9380
14.3362 -6.6277 -2.5015 0.9380
15.0300 -4.8533 -2.5015 0.9380
15.5050 -3.0081 -2.5015 0.9380
12.7785 7.5321 -2.3493 0.9417
8.8293 8.6308 -1.9556 0.9512
5.2039 8.3868 -1.5633 0.9608
2.8142 8.6677 -1.4434 0.9638
1.6974 8.6746 -1.4000 0.9648
-0.4166 8.6390 -1.3699 0.9656
-1.4564 8.5409 -1.3723 0.9655
-6.6572 8.7259 -1.7383 0.9565
-8.5136 8.7374 -1.9322 0.9518
-10.8746 8.7519 -2.2109 0.9450
-12.5914 7.8409 -2.3493 0.9417
-13.4440 6.2676 -2.3493 0.9417
-14.5525 2.8718 -2.3493 0.9417
-15.7507 1.1697 -2.5015 0.9380
-15.5736 -2.6298 -2.5015 0.9380
-12.5724 -9.5598 -2.5015 0.9380
-8.3704 -13.3937 -2.5015 0.9380
-4.7948 -14.6082 -2.4352 0.9396
-1.1466 -15.1118 -2.4004 0.9405
0.7086 -15.7457 -2.4964 0.9382
7.9545 -13.6448 -2.5015 0.9380
9.5397 -12.5877 -2.5015 0.9380
13.3803 -8.3918 -2.5015 0.9380
14.2934 -6.7196 -2.5015 0.9380
15.7469 -1.2202 -2.5015 0.9380
15.5820 2.5799 -2.5015 0.9380
6.6113 2.8381 -1.1395 0.9713
12.8265 7.4500 -2.3493 0.9417
11.3963 8.6080 -2.2620 0.9438
6.8957 8.4844 -1.7317 0.9567
2.8756 8.6674 -1.4464 0.9637
1.7551 8.6742 -1.4017 0.9648
-1.4005 8.5438 -1.3713 0.9655
-2.4692 8.4850 -1.3996 0.9648
-8.4043 8.7367 -1.9201 0.9521
-10.7318 8.7510 -2.1932 0.9455
-13.4035 6.3538 -2.3493 0.9417
-14.0710 4.6936 -2.3493 0.9417
-15.7429 1.2707 -2.5015 0.9380
-15.5902 -2.5299 -2.5015 0.9380
-15.1721 -4.3888 -2.5015 0.9380
-13.6829 -7.8888 -2.5015 0.9380
-12.6334 -9.4790 -2.5015 0.9380
-11.4001 -10.9313 -2.5015 0.9380
-10.0008 -12.2245 -2.5015 0.9380
-6.7882 -14.2609 -2.5015 0.9380
-4.8997 -14.6110 -2.4408 0.9395
-3.0211 -14.6885 -2.3751 0.9411
-1.2416 -15.0804 -2.3966 0.9406
4.3644 -15.1791 -2.5015 0.9380
7.8669 -13.6955 -2.5015 0.9380
9.4587 -12.6486 -2.5015 0.9380
10.9130 -11.4176 -2.5015 0.9380
12.2084 -10.0204 -2.5015 0.9380
14.2500 -6.8111 -2.5015 0.9380
15.5982 2.4799 -2.5015 0.9380
7.7122 2.2041 -1.2704 0.9680
11.8933 8.8642 -2.3493 0.9417
9.0575 8.6294 -1.9814 0.9506
7.0030 8.5042 -1.7448 0.9564
6.4458 13.4304 -2.3595 0.9415
2.9374 8.6670 -1.4494 0.9636
-0.3063 8.6594 -1.3724 0.9655
-1.3448 8.5468 -1.3703 0.9656
-8.2965 8.7360 -1.9082 0.9524
-14.0406 4.7837 -2.3493 0.9417
-14.5145 3.0582 -2.3493 0.9417
-15.7345 1.3717 -2.5015 0.9380
-15.7851 -0.5330 -2.5015 0.9380
-15.2000 -4.2914 -2.5015 0.9380
-13.7332 -7.8009 -2.5015 0.9380
-12.6939 -9.3978 -2.5015 0.9380
-3.1172 -14.6778 -2.3766 0.9410
0.5063 -15.7437 -2.4949 0.9382
4.2670 -15.2068 -2.5015 0.9380
6.0671 -14.5823 -2.5015 0.9380
7.7789 -13.7457 -2.5015 0.9380
9.3774 -12.7090 -2.5015 0.9380
10.8395 -11.4873 -2.5015 0.9380
12.1439 -10.0985 -2.5015 0.9380
13.2716 -8.5627 -2.5015 0.9380
-3.3810 -12.4173 -2.5015 0.9489
2.7707 -12.5675 -2.5015 0.9489
4.2638 -12.1424 -2.5015 0.9489
5.6949 -11.5407 -2.5015 0.9489
7.0432 -10.7709 -2.5015 0.9489
11.2388 -6.2696 -2.5015 0.9489
12.4118 -3.4009 -2.5015 0.9489
12.8650 -0.3349 -2.5015 0.9489
12.8117 1.2167 -2.5015 0.9489
9.1958 2.0119 -1.8298 0.9624
6.0363 2.9667 -1.3074 0.9730
10.1262 6.5984 -2.3493 0.9519
2.3906 8.6703 -1.7482 0.9640
0.2400 8.6836 -1.6886 0.9652
-0.7998 8.5679 -1.6727 0.9655
-1.8341 8.4481 -1.6804 0.9654
-2.8984 8.3394 -1.7161 0.9647
-9.7464 7.1476 -2.3493 0.9519
-11.1725 4.6102 -2.3493 0.9519
-12.0020 3.3300 -2.4211 0.9505
-12.8155 -1.1756 -2.5015 0.9489
-12.1628 -4.2054 -2.5015 0.9489
-9.8842 -8.2415 -2.5015 0.9489
-8.8199 -9.3717 -2.5015 0.9489
-7.6273 -10.3655 -2.5015 0.9489
-3.4605 -12.3953 -2.5015 0.9489
-1.9428 -12.7218 -2.5015 0.9489
2.6900 -12.5850 -2.5015 0.9489
10.3533 -7.6439 -2.5015 0.9489
11.1984 -6.3416 -2.5015 0.9489
12.3898 -3.4804 -2.5015 0.9489
12.7187 -1.9632 -2.5015 0.9489
12.8626 -0.4174 -2.5015 0.9489
12.8192 1.1345 -2.5015 0.9489
9.4110 1.9958 -1.8700 0.9616
6.0448 2.9229 -1.3052 0.9730
8.3115 8.7749 -2.3493 0.9519
6.1878 8.3531 -2.0206 0.9585
3.6234 8.6628 -1.8252 0.9625
1.3535 8.6767 -1.7070 0.9648
0.2957 8.6832 -1.6888 0.9652
-0.7453 8.5780 -1.6737 0.9655
-1.7781 8.4513 -1.6787 0.9654
-3.8822 8.0617 -1.7393 0.9642
-7.2076 8.7293 -2.2005 0.9549
-10.4979 5.9895 -2.3493 0.9519
-11.1427 4.6818 -2.3493 0.9519
-11.8447 3.3683 -2.3937 0.9511
-12.7124 2.0040 -2.5015 0.9489
-12.8612 0.4586 -2.5015 0.9489
-12.8228 -1.0934 -2.5015 0.9489
-11.6039 -5.5651 -2.5015 0.9489
-10.8493 -6.9218 -2.5015 0.9489
-5.0041 -11.8566 -2.5015 0.9489
-3.5400 -12.3729 -2.5015 0.9489
1.0728 -12.8245 -2.5015 0.9489
2.6093 -12.6020 -2.5015 0.9489
6.9044 -10.8604 -2.5015 0.9489
11.1575 -6.4133 -2.5015 0.9489
12.7058 -2.0447 -2.5015 0.9489
12.8596 -0.4999 -2.5015 0.9489
12.8262 1.0523 -2.5015 0.9489
9.7177 1.9958 -1.9284 0.9604
6.0559 2.8805 -1.3035 0.9730
10.2100 6.4680 -2.3493 0.9519
9.3569 7.6504 -2.3493 0.9519
8.3676 8.7214 -2.3493 0.9519
6.2847 8.3710 -2.0347 0.9582
4.6991 8.1450 -1.8278 0.9624
3.6887 8.6624 -1.8301 0.9624
2.5105 8.6696 -1.7544 0.9639
0.3515 8.6829 -1.6892 0.9652
-0.6907 8.5881 -1.6747 0.9655
-1.7222 8.4544 -1.6771 0.9655
-2.7890 8.3695 -1.7148 0.9647
-3.8263 8.0778 -1.7374 0.9642
-8.7080 8.3816 -2.3493 0.9519
-9.6539 7.2720 -2.3493 0.9519
-10.4593 6.0567 -2.3493 0.9519
-11.1125 4.7531 -2.3493 0.9519
-12.8580 0.5411 -2.5015 0.9489
-12.8296 -1.0111 -2.5015 0.9489
-12.6145 -2.5486 -2.5015 0.9489
-12.2158 -4.0490 -2.5015 0.9489
-10.8935 -6.8521 -2.5015 0.9489
-9.9891 -8.1140 -2.5015 0.9489
-8.9394 -9.2578 -2.5015 0.9489
-5.0800 -11.8243 -2.5015 0.9489
-3.6192 -12.3499 -2.5015 0.9489
-2.1058 -12.6959 -2.5015 0.9489
0.9905 -12.8311 -2.5015 0.9489
4.0294 -12.2222 -2.5015 0.9489
5.4718 -11.6481 -2.5015 0.9489
8.0979 -10.0021 -2.5015 0.9489
10.2544 -7.7760 -2.5015 0.9489
11.1161 -6.4847 -2.5015 0.9489
12.3441 -3.6390 -2.5015 0.9489
12.6925 -2.1262 -2.5015 0.9489
12.8561 -0.5823 -2.5015 0.9489
9.4058 7.5902 -2.3493 0.9519
8.4234 8.6676 -2.3493 0.9519
3.7435 8.6369 -1.8298 0.9624
2.5708 8.6692 -1.7577 0.9638
0.4072 8.6825 -1.6896 0.9652
-0.6360 8.5983 -1.6759 0.9655
-2.7344 8.3845 -1.7143 0.9647
-3.7705 8.0938 -1.7356 0.9643
-5.4256 8.7184 -1.9960 0.9590
-10.4202 6.1236 -2.3493 0.9519
-11.0818 4.8243 -2.3493 0.9519
-12.6856 2.1669 -2.5015 0.9489
-12.6305 -2.4677 -2.5015 0.9489
-12.2415 -3.9706 -2.5015 0.9489
-11.6743 -5.4157 -2.5015 0.9489
-7.8253 -10.2169 -2.5015 0.9489
-6.5381 -11.0848 -2.5015 0.9489
-3.6984 -12.3265 -2.5015 0.9489
-2.1872 -12.6821 -2.5015 0.9489
-0.6442 -12.8532 -2.5015 0.9489
6.7646 -10.9481 -2.5015 0.9489
8.0336 -10.0539 -2.5015 0.9489
9.1858 -9.0133 -2.5015 0.9489
11.0743 -6.5559 -2.5015 0.9489
11.7831 -5.1746 -2.5015 0.9489
12.3205 -3.7181 -2.5015 0.9489
12.6786 -2.2075 -2.5015 0.9489
12.8387 0.8876 -2.5015 0.9489
12.6384 2.4271 -2.5015 0.9489
6.7415 2.1628 -1.3762 0.9716
6.0778 2.7959 -1.3004 0.9731
9.4543 7.5297 -2.3493 0.9519
8.4788 8.6134 -2.3493 0.9519
2.6313 8.6689 -1.7610 0.9638
1.5249 8.6757 -1.7122 0.9647
-1.6107 8.4605 -1.6741 0.9655
-3.7149 8.1098 -1.7339 0.9643
-5.3480 8.7179 -1.9880 0.9592
-6.9281 8.7276 -2.1660 0.9556
-10.3807 6.1903 -2.3493 0.9519
-11.0506 4.8953 -2.3493 0.9519
-11.5597 3.5290 -2.3493 0.9519
-12.8500 0.7060 -2.5015 0.9489
-12.8415 -0.8465 -2.5015 0.9489
-11.7088 -5.3408 -2.5015 0.9489
-10.9805 -6.7118 -2.5015 0.9489
-10.0924 -7.9852 -2.5015 0.9489
-9.0574 -9.1424 -2.5015 0.9489
-6.6091 -11.0427 -2.5015 0.9489
-3.7774 -12.3025 -2.5015 0.9489
-2.2685 -12.6678 -2.5015 0.9489
0.8259 -12.8428 -2.5015 0.9489
2.3663 -12.6499 -2.5015 0.9489
6.6942 -10.9912 -2.5015 0.9489
9.1278 -9.0721 -2.5015 0.9489
10.1538 -7.9070 -2.5015 0.9489
11.0320 -6.6268 -2.5015 0.9489
11.7497 -5.2501 -2.5015 0.9489
12.6642 -2.2888 -2.5015 0.9489
12.8441 0.8053 -2.5015 0.9489
12.6537 2.3461 -2.5015 0.9489
6.8520 2.1499 -1.3959 0.9712
6.0878 2.7533 -1.2988 0.9731
10.3326 6.2704 -2.3493 0.9519
6.5835 8.4265 -2.0786 0.9574
4.9509 11.0325 -2.3505 0.9519
1.5823 8.6753 -1.7141 0.9647
0.5189 8.6818 -1.6906 0.9652
-0.5265 8.6186 -1.6784 0.9654
-2.6215 8.4025 -1.7109 0.9648
-3.6593 8.1257 -1.7322 0.9643
-6.8369 8.7271 -2.1549 0.9558
-9.5122 7.4564 -2.3493 0.9519
-10.3408 6.2568 -2.3493 0.9519
-12.6568 2.3294 -2.5015 0.9489
-12.2914 -3.8133 -2.5015 0.9489
-11.7428 -5.2656 -2.5015 0.9489
-7.9557 -10.1157 -2.5015 0.9489
-3.8562 -12.2780 -2.5015 0.9489
-2.3497 -12.6530 -2.5015 0.9489
-0.8090 -12.8439 -2.5015 0.9489
2.2852 -12.6648 -2.5015 0.9489
6.6235 -11.0340 -2.5015 0.9489
7.9040 -10.1561 -2.5015 0.9489
9.0694 -9.1304 -2.5015 0.9489
10.1029 -7.9719 -2.5015 0.9489
10.9893 -6.6974 -2.5015 0.9489
12.2718 -3.8759 -2.5015 0.9489
12.6492 -2.3700 -2.5015 0.9489
12.8426 -0.8296 -2.5015 0.9489
12.8490 0.7229 -2.5015 0.9489
12.6685 2.2648 -2.5015 0.9489
6.9630 2.1357 -1.4157 0.9708
10.3726 6.2040 -2.3493 0.9519
6.6861 8.4455 -2.0938 0.9571
5.0184 8.2048 -1.8695 0.9616
2.7530 8.6681 -1.7678 0.9636
1.6398 8.6750 -1.7161 0.9647
-1.4996 8.4666 -1.6714 0.9656
-2.5636 8.4059 -1.7082 0.9648
-3.6038 8.1415 -1.7307 0.9644
-10.9869 5.0366 -2.3493 0.9519
-11.5134 3.6770 -2.3493 0.9519
-12.3156 -3.7343 -2.5015 0.9489
-11.0657 -6.5704 -2.5015 0.9489
-9.1739 -9.0254 -2.5015 0.9489
-8.0204 -10.0644 -2.5015 0.9489
-3.9349 -12.2530 -2.5015 0.9489
-2.4308 -12.6377 -2.5015 0.9489
-0.8914 -12.8384 -2.5015 0.9489
0.6610 -12.8523 -2.5015 0.9489
2.2038 -12.6792 -2.5015 0.9489
5.1712 -11.7846 -2.5015 0.9489
6.5527 -11.0762 -2.5015 0.9489
10.0515 -8.0365 -2.5015 0.9489
12.2467 -3.9545 -2.5015 0.9489
12.6827 2.1835 -2.5015 0.9489
6.1074 2.6683 -1.2955 0.9732
6.1701 3.6369 -1.3922 0.9712
8.6429 8.4486 -2.3493 0.9519
6.7901 8.4648 -2.1093 0.9567
2.8142 8.6677 -1.7714 0.9635
1.6974 8.6746 -1.7181 0.9646
0.6307 8.6812 -1.6919 0.9652
-0.4166 8.6390 -1.6812 0.9654
-1.4442 8.4696 -1.6701 0.9656
-5.1190 8.7165 -1.9649 0.9596
-9.4157 7.5778 -2.3493 0.9519
-10.9544 5.1070 -2.3493 0.9519
-12.8340 0.9531 -2.5015 0.9489
-12.8554 -0.5992 -2.5015 0.9489
-12.6897 -2.1428 -2.5015 0.9489
-11.8094 -5.1145 -2.5015 0.9489
-11.1076 -6.4993 -2.5015 0.9489
-10.2442 -7.7895 -2.5015 0.9489
-5.4565 -11.6553 -2.5015 0.9489
-4.0134 -12.2275 -2.5015 0.9489
-0.9737 -12.8324 -2.5015 0.9489
3.6355 -12.3452 -2.5015 0.9489
5.0956 -11.8176 -2.5015 0.9489
7.7731 -10.2566 -2.5015 0.9489
8.9516 -9.2460 -2.5015 0.9489
9.9998 -8.1008 -2.5015 0.9489
11.6465 -5.4752 -2.5015 0.9489
12.2211 -4.0329 -2.5015 0.9489
12.8572 0.5580 -2.5015 0.9489
12.6965 2.1022 -2.5015 0.9489
7.1897 2.1048 -1.4562 0.9699
6.1271 2.6303 -1.2961 0.9732
