ply
format ascii 1.0
element vertex 1578
property float32 x
property float32 y
property float32 z
property float32 I
end_header
-22.4733 0.8916 5.1924 0.9118
-42.1130 -8.6049 9.9234 0.8382
-29.7918 -39.5473 11.4310 0.8161
-18.3068 -31.6044 8.4322 0.8608
-6.6633 -40.4629 9.4674 0.8451
56.0864 -32.7096 14.9897 0.7660
91.5054 18.1343 21.5365 0.6818
31.6570 19.7352 8.6125 0.8580
30.8761 24.8693 9.1530 0.8498
-9.9129 -33.6786 6.8241 0.8667
-6.7646 -40.4623 7.9742 0.8461
28.6589 -87.4278 17.8840 0.6874
56.1236 -32.9150 12.6470 0.7671
56.5385 -24.5607 11.9821 0.7779
31.8280 19.7342 7.2794 0.8585
31.8804 25.5502 7.9415 0.8466
3.7932 8.6617 1.8380 0.9622
2.6074 8.6690 1.7597 0.9638
-4.0098 8.7097 1.8638 0.9617
-15.5463 25.2398 5.7621 0.8862
-54.3168 -24.8125 11.6076 0.7840
-63.8739 -64.5049 17.6456 0.6908
-31.3428 -40.3948 9.9384 0.8119
-20.1253 -33.6293 7.6180 0.8524
-14.1805 -31.8676 6.7800 0.8675
-10.3460 -33.6759 6.8479 0.8663
-7.2565 -40.4593 7.9900 0.8458
24.2101 -39.8307 9.0603 0.8270
56.3264 -43.9715 13.8899 0.7474
56.6388 -34.1230 12.8531 0.7638
92.3903 16.9449 18.2584 0.6820
3.9154 8.6610 1.8476 0.9620
2.7193 8.6683 1.7659 0.9637
1.6089 8.6751 1.7150 0.9647
0.5457 8.6817 1.6909 0.9652
-1.5681 8.6947 1.7173 0.9646
-2.6825 8.7015 1.7700 0.9636
-22.7785 22.9590 6.2866 0.8765
-67.8722 -30.0405 14.4275 0.7390
-20.6669 -33.6259 7.6720 0.8514
-7.2471 -37.8284 7.4868 0.8547
22.7824 -51.8871 11.0152 0.7938
23.7588 -40.1496 9.0684 0.8269
46.3409 -47.2635 12.8663 0.7636
71.5984 -44.2971 16.3656 0.7096
94.3626 16.1564 18.6091 0.6770
56.4529 16.8571 11.4521 0.7866
33.6743 19.7929 7.5926 0.8529
31.3705 23.9464 7.6713 0.8514
31.7815 30.9775 8.6268 0.8346
32.0398 51.4464 11.7809 0.7812
4.0390 8.6602 1.8575 0.9618
-0.4000 8.6875 1.6905 0.9652
-1.4621 8.6940 1.7137 0.9647
-3.7447 8.6674 1.8353 0.9623
-5.0886 8.7163 1.9619 0.9597
-22.5012 23.2220 6.2853 0.8765
-66.1677 53.5685 16.5483 0.7069
-83.1167 6.4581 16.2049 0.7120
-62.7028 -10.3548 12.3533 0.7718
-67.3934 -28.8812 14.2522 0.7417
-14.9586 -31.5849 6.7932 0.8673
-11.2218 -33.6705 6.8988 0.8653
-7.3829 -36.2160 7.1845 0.8602
-7.3610 -91.2491 17.7946 0.6886
18.5878 -43.7305 9.2364 0.8240
22.6914 -39.4007 8.8380 0.8309
31.6357 -42.2141 10.2541 0.8066
56.2272 -46.0733 14.1301 0.7436
71.2190 -45.2347 16.3999 0.7091
56.1846 -26.8125 12.1010 0.7759
56.4484 16.1318 11.4117 0.7872
45.4265 19.1505 9.5826 0.8180
31.3669 23.3622 7.6024 0.8527
31.8518 30.3204 8.5480 0.8359
31.6994 49.5844 11.4395 0.7868
4.1486 8.6275 1.8608 0.9617
2.9455 8.6669 1.7793 0.9634
1.8217 8.6738 1.7228 0.9645
-0.2972 8.6869 1.6895 0.9652
-21.9721 23.2188 6.2137 0.8779
-15.4168 -31.5821 6.8313 0.8666
-7.3698 -34.0891 6.7793 0.8675
35.8708 -87.2405 18.3354 0.6809
56.3062 -47.2610 14.2893 0.7412
56.4440 15.4114 11.3732 0.7879
35.4274 19.7121 7.8806 0.8477
31.4337 22.8395 7.5527 0.8536
31.7698 29.5348 8.4318 0.8380
30.9487 36.6514 9.3245 0.8224
32.0236 48.8109 11.3476 0.7883
4.2822 8.6425 1.8748 0.9615
-0.1944 8.6862 1.6889 0.9652
-1.2515 8.6927 1.7071 0.9648
-2.3477 8.6995 1.7515 0.9639
-4.8152 8.7146 1.9353 0.9602
-21.4548 23.2156 6.1446 0.8791
-63.0378 53.5492 16.0776 0.7139
-83.2291 -11.7315 16.3380 0.7100
-61.3781 -44.0453 14.6847 0.7350
-8.1220 -77.7165 15.1888 0.7273
20.6564 -51.9758 10.8717 0.7962
21.9632 -40.3100 8.9231 0.8294
56.2992 -48.4005 14.4316 0.7389
71.2043 -47.6233 16.6511 0.7053
56.1745 -28.4565 12.2403 0.7737
56.4396 14.6959 11.3366 0.7885
36.4230 19.7060 8.0497 0.8447
31.9014 28.9619 8.3753 0.8390
3.1754 8.6655 1.7939 0.9631
2.0365 8.6725 1.7316 0.9644
-2.2376 8.6988 1.7459 0.9641
-61.4979 53.5049 15.8450 0.7174
-24.9683 2.8333 4.8845 0.9027
-59.3173 -15.0715 11.8965 0.7793
-68.2704 -36.4169 15.0404 0.7296
-10.5075 -28.1584 5.8421 0.8847
-8.1213 -33.6895 6.7362 0.8683
-5.3621 -46.0381 9.0094 0.8279
21.4073 -40.4195 8.8907 0.8300
56.1693 -29.2932 12.3138 0.7725
56.5354 14.0097 11.3217 0.7887
38.4019 20.1938 8.4337 0.8379
31.4569 21.7396 7.4327 0.8557
31.8972 28.2777 8.2858 0.8405
32.0085 46.3611 10.9509 0.7949
4.5425 8.6478 1.8988 0.9610
3.2917 8.6648 1.8017 0.9629
2.1448 8.6719 1.7364 0.9643
1.0628 8.6785 1.6995 0.9650
0.0109 8.6850 1.6882 0.9652
-1.0423 8.6914 1.7015 0.9650
-3.2822 8.7052 1.8084 0.9628
-4.5399 8.6956 1.9067 0.9608
-20.4026 23.1514 5.9983 0.8818
-61.1643 -14.7736 12.2310 0.7738
-62.6644 -42.7618 14.7465 0.7341
-4.0952 -16.1481 3.2382 0.9344
32.3771 -87.4326 18.1230 0.6839
20.9982 -40.8056 8.9204 0.8294
28.5166 -42.0554 9.8768 0.8130
46.3046 -53.1734 13.7056 0.7503
49.0611 -44.2366 12.8407 0.7640
57.6732 13.5704 11.5167 0.7855
39.2596 20.0562 8.5694 0.8356
31.8931 27.6080 8.1995 0.8421
31.5847 44.6101 10.6247 0.8003
4.6684 8.6381 1.9086 0.9608
3.4092 8.6641 1.8098 0.9628
1.1669 8.6779 1.7020 0.9649
0.1135 8.6843 1.6882 0.9652
-2.9954 5.9064 1.2873 0.9734
-58.8578 53.7035 15.4875 0.7228
-60.4583 -13.8492 12.0563 0.7767
-64.0739 -32.2569 13.9439 0.7465
-22.6138 -31.5431 7.5442 0.8537
-18.3590 -33.4951 7.4246 0.8559
31.2048 -87.4254 18.0438 0.6851
20.4322 -40.8859 8.8845 0.8301
27.8012 -42.0618 9.8005 0.8143
60.8051 13.5512 12.1093 0.7758
31.8890 26.9520 8.1160 0.8435
31.9944 44.0752 10.5866 0.8010
4.8094 8.6529 1.9243 0.9605
3.5277 8.6633 1.8182 0.9626
2.3632 8.6705 1.7469 0.9640
1.2714 8.6772 1.7047 0.9649
0.2161 8.6808 1.6879 0.9652
-2.9317 5.9542 1.2901 0.9733
-52.8330 -25.8200 11.4305 0.7869
-61.3663 -39.7838 14.2158 0.7423
-62.1481 -66.1240 17.6392 0.6909
-24.5964 -33.4662 8.0732 0.8443
-18.9567 -33.6364 7.5051 0.8544
-9.3943 -33.6817 6.7970 0.8672
20.4931 -42.2489 9.1275 0.8258
46.4675 -43.9326 12.4302 0.7706
58.8534 -24.5749 12.3972 0.7711
56.4674 19.2194 11.5945 0.7842
41.1984 19.8335 8.8878 0.8300
31.3465 20.0598 7.2340 0.8593
31.8851 26.3091 8.0353 0.8450
31.9298 33.5729 9.0060 0.8280
31.9877 42.9883 10.4156 0.8038
4.9451 8.6546 1.9375 0.9602
-0.4856 5.7741 1.1263 0.9767
-2.9335 8.7031 1.7852 0.9633
-19.0285 23.2006 5.8326 0.8849
-57.5722 55.0795 15.4875 0.7228
-62.6918 -12.8096 12.4378 0.7705
-61.6689 -38.9528 14.1783 0.7429
-30.4344 -40.4004 9.8320 0.8137
-19.4820 -33.6332 7.5552 0.8535
-6.6633 -40.4629 7.9711 0.8461
26.5862 -42.3670 9.7225 0.8156
56.3340 -42.6993 13.7403 0.7497
56.1506 -32.7470 12.6351 0.7673
41.3421 19.3043 8.8690 0.8303
31.6571 19.7353 7.2513 0.8590
31.8812 25.6788 7.9573 0.8464
-9.3171 -31.6543 5.2262 0.8749
18.1227 -55.2858 9.2149 0.7901
24.9890 -40.0386 7.4752 0.8260
33.9933 -42.1595 8.5776 0.8031
56.5978 -33.1931 10.3921 0.7667
26.9896 5.2804 4.3558 0.8946
41.3414 19.1812 7.2183 0.8315
31.8280 19.7342 5.9314 0.8593
31.8804 25.5502 6.4709 0.8475
8.4311 8.6157 1.9093 0.9524
-0.6061 8.6888 1.3795 0.9653
-4.0098 8.7097 1.5186 0.9619
-5.3698 8.7180 1.6217 0.9594
-22.5750 22.2225 5.0172 0.8796
-55.3213 16.8173 9.1579 0.7912
-81.7825 4.4131 12.9719 0.7177
-60.7233 -11.5082 9.7888 0.7786
-69.6133 -31.8000 12.1216 0.7335
-26.0728 -33.6029 6.7364 0.8418
-18.9114 -31.6007 5.8329 0.8614
-5.6751 -31.6417 5.0915 0.8779
28.0246 -89.0335 14.7836 0.6852
23.9759 -39.4455 7.3111 0.8295
56.2942 -25.2494 9.7719 0.7789
73.2115 13.4274 11.7890 0.7398
31.3742 24.5413 6.3088 0.8510
6.7886 8.6433 1.7407 0.9565
5.2479 8.6528 1.6028 0.9598
3.9154 8.6610 1.5054 0.9622
2.7193 8.6683 1.4389 0.9639
-1.5681 8.6947 1.3993 0.9649
-6.7847 8.7267 1.7508 0.9562
-55.4589 17.5777 9.2145 0.7901
-72.2134 -31.9620 12.5077 0.7263
-14.5055 -31.5876 5.5053 0.8687
-10.1342 -31.6493 5.2635 0.8741
-6.0614 -31.6394 5.1023 0.8777
-5.7329 -83.3427 13.2314 0.7130
27.8993 -92.4353 15.2926 0.6764
18.5484 -42.2440 7.3073 0.8296
24.0311 -40.6097 7.4737 0.8260
32.3583 -42.1317 8.4140 0.8064
56.6185 -45.2863 11.4832 0.7456
56.1384 -34.7321 10.4556 0.7654
78.5247 13.4447 12.6181 0.7242
33.5564 19.7236 6.1649 0.8542
31.3705 23.9464 6.2507 0.8523
31.9146 31.1072 7.0587 0.8349
6.9545 8.6423 1.7570 0.9561
5.3882 8.6519 1.6143 0.9596
4.0390 8.6602 1.5135 0.9620
2.8320 8.6676 1.4442 0.9637
1.7150 8.6745 1.4005 0.9648
0.6487 8.6811 1.3788 0.9654
-0.4000 8.6875 1.3774 0.9654
-1.4621 8.6940 1.3963 0.9649
-2.5701 8.7008 1.4369 0.9639
-3.7447 8.6674 1.4954 0.9625
-66.1677 53.5684 13.4838 0.7084
-27.0415 -20.3901 5.3641 0.8718
-27.3626 -33.5950 6.8625 0.8391
-14.9586 -31.5849 5.5352 0.8680
18.1041 -42.5926 7.3301 0.8291
23.2536 -40.3768 7.3798 0.8280
41.7391 -43.5886 9.5585 0.7832
56.5377 -46.3277 11.5770 0.7438
56.5312 -35.9057 10.6070 0.7624
73.2804 -24.6636 12.2462 0.7312
34.4728 19.7179 6.2900 0.8514
31.3669 23.3622 6.1946 0.8535
31.9101 30.3759 6.9778 0.8366
4.1486 8.6275 1.5162 0.9620
2.9455 8.6669 1.4498 0.9636
1.8217 8.6738 1.4038 0.9647
0.7519 8.6804 1.3800 0.9653
-1.3566 8.6934 1.3936 0.9650
-12.4168 29.6986 5.0984 0.8778
-6.4582 8.7247 1.7193 0.9570
-8.2547 8.7230 1.9021 0.9525
-55.2213 18.9495 9.2468 0.7894
-60.9952 -17.0421 10.0307 0.7738
-83.4651 -34.6072 14.3109 0.6936
-65.8934 -61.9874 14.3287 0.6932
-15.4168 -31.5821 5.5663 0.8673
22.8658 -40.8111 7.4093 0.8274
39.3755 -42.1051 9.1305 0.7918
50.7547 -42.6013 10.4952 0.7646
56.6282 -27.8505 9.9951 0.7745
49.3625 20.1263 8.4431 0.8058
35.4273 19.7121 6.4212 0.8486
31.7698 29.5348 6.8704 0.8389
7.2958 8.6402 1.7911 0.9552
4.2822 8.6425 1.5277 0.9617
1.9288 8.6732 1.4073 0.9647
-1.2515 8.6927 1.3910 0.9651
-2.3477 8.6995 1.4272 0.9642
-3.5199 8.7067 1.4874 0.9627
-4.8152 8.7146 1.5769 0.9605
-8.0722 8.7346 1.8837 0.9530
-63.0378 53.5492 13.1003 0.7154
-84.0135 -33.6766 14.3357 0.6931
-28.7025 -33.5867 6.9975 0.8362
-15.9002 -31.6192 5.6055 0.8665
-7.2309 -31.6322 5.1393 0.8769
19.8727 -50.0036 8.5223 0.8042
22.2095 -40.7619 7.3522 0.8286
56.6191 -37.8683 10.7884 0.7589
67.8344 -24.6301 11.4302 0.7466
31.3599 22.2246 6.0878 0.8558
5.8219 8.6493 1.6513 0.9587
4.4181 8.6579 1.5395 0.9614
3.1754 8.6655 1.4617 0.9633
2.0365 8.6725 1.4110 0.9646
-3.4005 8.7059 1.4803 0.9629
-6.1431 8.7228 1.6898 0.9577
-7.8818 8.7335 1.8633 0.9535
-83.2960 -10.7387 13.3020 0.7117
-61.1877 -15.5467 9.9991 0.7744
-29.3927 -33.5825 7.0685 0.8347
-21.5085 -31.5498 6.0477 0.8567
-11.8063 -31.6390 5.3487 0.8722
-7.6247 -31.6298 5.1532 0.8765
19.8370 -51.6850 8.7683 0.7992
28.9839 -41.6758 8.0402 0.8142
56.5354 14.0097 9.2251 0.7899
51.5554 19.6128 8.7365 0.7998
31.3565 21.6701 6.0370 0.8570
31.8972 28.2777 6.7515 0.8414
4.5474 8.6571 1.5488 0.9612
3.2917 8.6648 1.4681 0.9632
2.1448 8.6719 1.4149 0.9645
1.0628 8.6785 1.3848 0.9652
0.0109 8.6850 1.3756 0.9654
-3.2822 8.7052 1.4735 0.9630
-4.5490 8.7130 1.5568 0.9610
-7.6815 8.7164 1.8401 0.9540
-60.0400 53.4960 12.7365 0.7220
-82.0547 43.4111 14.7029 0.6866
-67.8750 -35.1821 12.1087 0.7337
-22.0566 -31.5465 6.0966 0.8557
-5.3344 -41.5248 6.6309 0.8440
18.9118 -51.0703 8.6255 0.8021
21.1828 -41.1643 7.3324 0.8290
28.4999 -42.0308 8.0431 0.8141
46.8244 -42.2198 9.9858 0.7747
64.2319 -25.0553 10.9199 0.7564
53.4168 19.6013 9.0120 0.7942
31.3531 21.1248 5.9878 0.8580
31.8931 27.6080 6.6811 0.8430
7.8339 8.6369 1.8468 0.9539
4.6783 8.6563 1.5584 0.9609
3.4092 8.6641 1.4747 0.9630
-0.6211 5.7539 0.9166 0.9768
-2.0194 8.6975 1.4142 0.9645
-2.9950 5.9056 1.0488 0.9735
-7.4808 8.6937 1.8165 0.9546
-60.1549 -13.7796 9.7744 0.7789
-87.3822 -31.4806 14.7107 0.6865
-22.6138 -31.5431 6.1472 0.8545
-12.6637 -31.6338 5.3969 0.8711
-8.4283 -31.6597 5.1891 0.8757
58.5672 -42.2503 11.4379 0.7464
56.6098 -31.2461 10.2412 0.7696
60.8983 -24.5879 10.4019 0.7665
40.6808 20.1798 7.1924 0.8320
31.8890 26.9520 6.6130 0.8444
8.0135 8.6278 1.8650 0.9534
6.2765 8.6465 1.6922 0.9577
4.8108 8.6555 1.5684 0.9607
0.2161 8.6808 1.3753 0.9654
-2.9312 5.9531 1.0510 0.9735
-7.3344 8.7301 1.8059 0.9549
-82.3217 46.0743 14.9417 0.6825
-62.5399 -13.5503 10.1352 0.7717
-24.7030 -33.6112 6.6067 0.8446
-17.8132 -31.6075 5.7464 0.8634
-13.0984 -31.6311 5.4224 0.8705
-5.3292 -34.9309 5.5965 0.8667
25.4909 -39.5751 7.4558 0.8264
35.0957 -42.2789 8.7028 0.8005
57.0953 -42.2234 11.2472 0.7501
56.6044 -32.1215 10.3082 0.7683
65.2839 13.7417 10.5665 0.7632
56.5676 19.2535 9.4642 0.7851
41.1985 19.8335 7.2420 0.8310
31.3466 20.0599 5.8944 0.8601
31.8851 26.3091 6.5473 0.8459
8.2000 8.6220 1.8846 0.9530
4.9451 8.6546 1.5787 0.9604
3.6473 8.6626 1.4887 0.9627
2.4734 8.6698 1.4280 0.9641
1.3762 8.6766 1.3914 0.9650
-0.4855 5.7738 0.9177 0.9768
-1.8036 8.6961 1.4066 0.9647
-4.1617 8.7106 1.5290 0.9617
-81.6223 46.9584 14.9145 0.6829
-62.0817 -39.2136 11.6300 0.7428
-18.3069 -31.6044 5.7848 0.8625
-5.2763 -32.0407 5.1431 0.8768
18.0586 -54.6399 9.1145 0.7921
19.7923 -42.0629 7.3628 0.8284
34.1641 -42.1606 8.5947 0.8027
43.6642 -42.2704 9.6255 0.7818
56.3342 -42.6994 11.1959 0.7511
56.5990 -33.0085 10.3775 0.7669
69.1421 13.7024 11.1640 0.7517
56.4629 18.4763 9.4095 0.7862
31.6571 19.7353 5.9085 0.8598
31.8812 25.6788 6.4837 0.8472
19.6561 -42.0392 5.6981 0.8294
56.3329 -42.9150 8.6953 0.7517
60.5363 -18.0126 7.7550 0.7753
60.6292 -2.9125 7.4529 0.7830
60.7201 11.8796 7.5968 0.7793
56.4619 18.3237 7.2886 0.7872
41.3414 19.1812 5.5958 0.8322
8.4482 8.6331 1.4831 0.9525
5.1095 8.6536 1.2339 0.9603
3.7932 8.6617 1.1610 0.9626
-0.6061 8.6888 1.0694 0.9655
-4.0098 8.7097 1.1773 0.9621
-5.3698 8.7180 1.2572 0.9596
-8.8782 8.7396 1.5297 0.9510
-11.3523 8.7548 1.7602 0.9439
-84.3660 -51.6217 12.1441 0.6713
-31.2171 -31.5255 5.4475 0.8363
-14.1805 -31.8676 4.2828 0.8689
-10.3460 -33.6759 4.3256 0.8676
-7.1430 -39.8261 4.9681 0.8495
-4.7934 -84.2055 10.3559 0.7118
24.4568 -40.2366 5.7815 0.8272
33.1751 -42.1546 6.5866 0.8056
42.3034 -42.1378 7.3313 0.7861
54.2838 -42.3769 8.4557 0.7577
63.0519 -19.5750 8.1063 0.7664
75.8176 -4.5407 9.3259 0.7363
60.8052 3.7006 7.4797 0.7823
63.2782 11.6049 7.8992 0.7716
56.4574 17.5876 7.2607 0.7880
42.6246 19.1678 5.7385 0.8283
11.0166 8.6173 1.7173 0.9452
8.6490 8.6319 1.5004 0.9519
6.7886 8.6433 1.3495 0.9567
3.9154 8.6610 1.1671 0.9624
2.7193 8.6683 1.1155 0.9640
1.6089 8.6751 1.0833 0.9651
0.5457 8.6817 1.0681 0.9656
-2.6825 8.7015 1.1180 0.9640
-5.2282 8.7172 1.2481 0.9599
-11.0770 8.7531 1.7335 0.9447
-70.3307 -31.1286 9.4436 0.7335
-25.1798 -31.6720 4.9681 0.8495
-20.6669 -33.6260 4.8462 0.8529
-14.5055 -31.5877 4.2679 0.8693
-10.7823 -33.6733 4.3413 0.8672
23.7997 -40.2187 5.7381 0.8283
41.7374 -42.5684 7.3199 0.7864
60.5802 -19.5954 7.8178 0.7737
60.7647 10.4039 7.5695 0.7800
43.9882 19.1594 5.8912 0.8242
11.2868 8.6157 1.7435 0.9444
8.8546 8.6306 1.5182 0.9514
4.0390 8.6602 1.1733 0.9622
2.8320 8.6676 1.1196 0.9639
1.7150 8.6745 1.0857 0.9650
0.6487 8.6811 1.0689 0.9655
-0.4000 8.6875 1.0678 0.9656
-1.4621 8.6940 1.0825 0.9651
-5.0886 8.7163 1.2393 0.9601
-8.4658 8.7371 1.4938 0.9522
-10.8098 8.7515 1.7077 0.9455
-83.4706 27.5454 10.7923 0.7017
-84.7626 -36.3247 11.3229 0.6896
-21.1250 -33.4782 4.8605 0.8525
-11.2218 -33.6706 4.3578 0.8667
-7.3829 -36.2160 4.5382 0.8616
-6.9025 -85.5655 10.5403 0.7075
25.3867 -87.8506 11.2280 0.6918
30.5654 -40.7860 6.2581 0.8143
58.2942 -19.6198 7.5521 0.7805
60.5700 -12.5340 7.5946 0.7794
60.6609 2.2547 7.4534 0.7830
56.8191 16.2378 7.2558 0.7881
5.5306 8.6510 1.2607 0.9595
4.1486 8.6275 1.1754 0.9622
1.8217 8.6738 1.0882 0.9649
0.7519 8.6804 1.0698 0.9655
-0.2972 8.6869 1.0672 0.9656
-1.3566 8.6934 1.0803 0.9652
-2.4585 8.7001 1.1101 0.9642
-13.3929 32.0331 4.2631 0.8694
-4.9510 8.7155 1.2307 0.9604
-10.5505 8.7499 1.6830 0.9463
-26.3002 -31.5224 5.0407 0.8475
-21.2753 -32.8498 4.8055 0.8541
-15.4168 -31.5821 4.3151 0.8679
-7.9208 -85.5592 10.5503 0.7073
21.9103 -39.1059 5.5039 0.8347
29.8278 -40.7976 6.2053 0.8157
39.5160 -42.2553 7.1036 0.7920
50.5316 -42.4140 8.1004 0.7665
56.0772 -36.5544 8.2191 0.7636
56.3790 -27.7279 7.7144 0.7763
60.5704 -21.1860 7.8789 0.7721
60.7906 -5.8089 7.4981 0.7818
57.9828 8.5226 7.1959 0.7896
56.8368 15.5187 7.2341 0.7886
35.4274 19.7121 4.9779 0.8493
9.2809 8.6280 1.5559 0.9502
5.6751 8.6502 1.2703 0.9592
3.0600 8.6662 1.1285 0.9636
-2.3477 8.6995 1.1064 0.9643
-3.5199 8.7067 1.1531 0.9629
-82.9587 -33.2538 10.9739 0.6975
-60.5035 -43.4177 9.1437 0.7407
-21.2702 -32.0063 4.7185 0.8565
-16.9209 -33.6489 4.6245 0.8592
19.4962 -49.0563 6.4816 0.8084
21.3956 -39.2682 5.4908 0.8351
38.6681 -42.3408 7.0406 0.7937
56.1745 -28.4565 7.7319 0.7759
63.0823 -14.6165 7.9507 0.7703
76.1221 -8.1826 9.4005 0.7345
58.4468 7.8864 7.2414 0.7885
56.8403 14.8002 7.2118 0.7892
51.0546 20.1158 6.7377 0.8016
7.4716 8.6391 1.4024 0.9550
5.8219 8.6493 1.2802 0.9589
4.4181 8.6579 1.1935 0.9616
3.1754 8.6655 1.1332 0.9635
-0.0918 8.6856 1.0665 0.9656
-3.4005 8.7059 1.1476 0.9630
-60.7500 -42.5160 9.1044 0.7417
-27.5810 -31.5126 5.1420 0.8447
-21.5085 -31.5499 4.6884 0.8574
19.1432 -49.8775 6.5598 0.8063
21.1195 -39.8761 5.5405 0.8337
56.0654 -38.4645 8.3483 0.7603
56.1693 -29.2931 7.7783 0.7747
60.5070 -22.7823 7.9385 0.7706
60.6972 -14.8216 7.6717 0.7774
60.8274 0.1037 7.4687 0.7826
58.8536 7.2342 7.2807 0.7874
56.5354 14.0097 7.1516 0.7908
51.5554 19.6128 6.7728 0.8007
38.4019 20.1938 5.3273 0.8396
9.7292 8.6252 1.5964 0.9490
5.9710 8.6483 1.2904 0.9585
4.5474 8.6571 1.2007 0.9614
3.2917 8.6648 1.1381 0.9633
2.1448 8.6719 1.0969 0.9646
-1.0423 8.6914 1.0748 0.9653
-2.1282 8.6981 1.0995 0.9646
-3.2822 8.7052 1.1423 0.9632
-4.5490 8.7130 1.2068 0.9612
-7.6815 8.7164 1.4265 0.9543
-9.8152 8.7454 1.6141 0.9484
-62.9425 -15.2031 7.9506 0.7703
-67.2785 -34.8729 9.3045 0.7368
-28.2732 -31.5435 5.2011 0.8431
-22.0567 -31.5465 4.7263 0.8563
-13.4855 -25.3089 3.5212 0.8909
-10.9011 -28.1918 3.7113 0.8853
-4.0902 -16.1285 2.0430 0.9351
-5.3344 -41.5248 5.1405 0.8447
18.9272 -51.1117 6.6922 0.8028
21.1346 -41.0706 5.6713 0.8302
28.4817 -42.0039 6.2313 0.8150
36.8669 -42.3357 6.8929 0.7975
46.8452 -42.2386 7.7447 0.7755
56.1092 -39.4776 8.4237 0.7584
62.9366 -24.5500 8.2947 0.7617
60.5981 -7.9666 7.5045 0.7817
75.8213 -0.7667 9.3102 0.7367
60.8239 6.7479 7.5141 0.7814
59.6171 14.0278 7.5200 0.7813
53.6847 19.6996 7.0214 0.7942
31.3532 21.1249 4.6420 0.8587
2.2536 8.6712 1.1001 0.9645
-2.9944 5.9044 0.8129 0.9737
-5.8385 8.7209 1.2886 0.9586
-12.2963 8.7606 1.8538 0.9410
-61.6907 -14.1314 7.7708 0.7749
-22.6138 -31.5431 4.7655 0.8552
-18.3590 -33.4951 4.6899 0.8573
-13.4736 -33.6568 4.4514 0.8641
26.4855 -40.0712 5.8977 0.8240
46.3506 -42.7963 7.7460 0.7755
60.5504 -24.4474 8.0178 0.7686
60.7169 -16.3562 7.7209 0.7761
60.7836 -1.3333 7.4651 0.7827
76.2549 7.5488 9.4087 0.7343
55.5935 19.6579 7.2402 0.7885
40.6808 20.1798 5.5757 0.8328
31.3498 20.5881 4.6051 0.8597
10.2018 8.6223 1.6401 0.9476
8.0135 8.6278 1.4458 0.9537
6.2765 8.6465 1.3119 0.9579
4.8108 8.6555 1.2159 0.9609
-0.5505 5.7344 0.7073 0.9771
-1.9112 8.6968 1.0933 0.9648
-3.0488 8.7038 1.1324 0.9635
-2.9303 5.9514 0.8145 0.9736
-5.6898 8.7200 1.2784 0.9589
-11.9913 8.7587 1.8233 0.9419
-68.6416 -33.5457 9.3808 0.7350
-81.3098 -52.7133 11.8980 0.6767
-6.1023 -39.9987 4.9681 0.8495
18.1875 -52.9227 6.8711 0.7981
20.1249 -41.4899 5.6620 0.8304
35.0018 -42.1659 6.7286 0.8018
56.1560 -31.8670 7.9279 0.7709
63.0628 -17.7899 8.0453 0.7679
75.8096 -2.5594 9.3135 0.7366
60.7332 5.2884 7.4853 0.7822
63.2541 13.3144 7.9368 0.7707
56.5676 19.2535 7.3369 0.7860
41.1985 19.8335 5.6142 0.8317
6.4331 8.6455 1.3232 0.9575
4.9451 8.6546 1.2239 0.9606
2.4734 8.6698 1.1070 0.9643
-4.1617 8.7106 1.1853 0.9618
-5.5435 8.7191 1.2686 0.9592
-7.1593 8.7290 1.3862 0.9555
-11.6491 8.7217 1.7868 0.9430
-41.6667 -8.5137 5.2217 0.8425
-68.9462 -32.6910 9.3689 0.7353
-83.4504 -52.7110 12.1193 0.6718
-24.3456 -32.3177 4.9681 0.8495
-19.4820 -33.6332 4.7724 0.8550
-9.8239 -33.6791 4.3076 0.8682
-6.5745 -39.9238 4.9681 0.8495
25.0071 -39.8506 5.7766 0.8273
56.3342 -42.6994 8.6794 0.7521
56.1506 -32.7470 7.9812 0.7695
34.0931 -14.7116 4.5592 0.8610
60.5373 -17.8523 7.7495 0.7754
60.6301 -2.7644 7.4522 0.7830
63.2515 4.7554 7.7882 0.7744
60.7211 12.0336 7.6006 0.7792
41.3421 19.3043 5.6023 0.8320
31.6571 19.7353 4.5805 0.8604
-5.3098 -31.7602 2.8172 0.8787
17.8728 -54.5234 5.0199 0.7942
56.7721 -24.6621 5.4153 0.7799
60.6742 4.4128 5.3223 0.7833
56.4619 18.3237 5.1934 0.7879
41.3414 19.1812 3.9872 0.8328
10.7232 8.5940 1.2023 0.9463
8.4482 8.6331 1.0568 0.9527
3.7932 8.6617 0.8273 0.9627
2.6074 8.6690 0.7920 0.9643
1.5032 8.6758 0.7703 0.9653
-0.6061 8.6888 0.7620 0.9656
-1.6746 8.6953 0.7747 0.9651
-4.0098 8.7097 0.8389 0.9622
-5.3698 8.7180 0.8958 0.9597
-6.9525 8.7278 0.9762 0.9562
-11.3523 8.7548 1.2542 0.9441
-19.9166 8.7921 1.9047 0.9163
-20.1253 -33.6293 3.4288 0.8544
-14.0727 -31.6252 3.0284 0.8702
-9.7242 -31.6518 2.8969 0.8755
-5.6813 -31.6766 2.8156 0.8788
24.4492 -77.6745 7.1243 0.7211
19.6331 -43.3167 4.1608 0.8262
42.3768 -42.2109 5.2329 0.7865
53.5035 -41.7679 5.9384 0.7614
56.2942 -25.2494 5.3978 0.7806
60.6247 -3.6308 5.3135 0.7836
60.6698 3.6924 5.3177 0.7834
56.4574 17.5876 5.1735 0.7886
42.6246 19.1678 4.0889 0.8289
8.6490 8.6319 1.0691 0.9521
2.7193 8.6683 0.7948 0.9642
1.6089 8.6751 0.7719 0.9652
0.5457 8.6817 0.7610 0.9657
-0.5030 8.6881 0.7614 0.9657
-1.5681 8.6947 0.7730 0.9651
-8.6696 8.7383 1.0769 0.9518
-14.3696 8.7733 1.4730 0.9346
-19.2616 8.7764 1.8519 0.9185
-20.6669 -33.6260 3.4531 0.8534
-14.5055 -31.5877 3.0410 0.8697
24.2735 -80.4226 7.3496 0.7137
23.5250 -39.7544 4.0414 0.8307
40.2025 -41.0029 5.0239 0.7941
56.1384 -34.7322 5.7755 0.7672
60.5267 -19.5781 5.5655 0.7746
60.6203 -4.3499 5.3172 0.7835
60.6654 2.9731 5.3139 0.7836
55.1364 9.4403 4.8940 0.7988
33.7248 19.8226 3.4225 0.8546
11.2868 8.6157 1.2423 0.9446
5.3882 8.6519 0.8917 0.9599
4.0390 8.6602 0.8360 0.9624
2.8320 8.6676 0.7978 0.9640
0.6487 8.6811 0.7616 0.9656
-0.4000 8.6875 0.7609 0.9657
-1.4621 8.6940 0.7713 0.9652
-5.0886 8.7163 0.8830 0.9603
-8.4658 8.7371 1.0644 0.9523
-10.8098 8.7515 1.2168 0.9457
-13.9914 8.7710 1.4447 0.9358
-83.5199 27.5617 7.6946 0.7025
-27.3626 -33.5950 3.7907 0.8403
-21.1250 -33.4782 3.4633 0.8530
-14.9586 -31.5850 3.0576 0.8691
-10.5473 -31.6468 2.9185 0.8746
-6.4565 -31.6718 2.8279 0.8783
24.3471 -84.2529 7.6728 0.7032
18.7605 -44.1368 4.1958 0.8248
22.8934 -39.7514 4.0133 0.8318
30.5922 -40.8217 4.4630 0.8148
60.5700 -12.5340 5.4115 0.7801
60.6159 -5.0702 5.3217 0.7833
60.6609 2.2547 5.3108 0.7837
56.4484 16.1318 5.1363 0.7900
11.5654 8.6139 1.2617 0.9437
9.0652 8.6293 1.0950 0.9510
7.1235 8.6412 0.9798 0.9560
5.5306 8.6510 0.8983 0.9596
4.1485 8.6275 0.8375 0.9623
1.8217 8.6738 0.7754 0.9650
0.7519 8.6804 0.7623 0.9656
-0.2972 8.6869 0.7604 0.9657
-2.4585 8.7001 0.7910 0.9643
-13.3929 32.0331 3.0376 0.8699
-8.2668 8.7358 1.0522 0.9529
-10.5505 8.7499 1.1992 0.9465
-13.6273 8.7688 1.4177 0.9370
-84.1763 -12.8811 7.4502 0.7104
-62.2985 -17.4062 5.6592 0.7713
-27.9052 -33.4460 3.8109 0.8395
-21.2753 -32.8498 3.4241 0.8546
-15.4168 -31.5822 3.0747 0.8684
-10.9635 -31.6442 2.9300 0.8742
-7.1679 -77.4264 6.8029 0.7318
23.3032 -84.3657 7.6574 0.7037
22.3815 -39.9470 4.0061 0.8321
30.0192 -41.0594 4.4499 0.8153
56.3790 -27.7279 5.4968 0.7770
54.9884 -19.2336 5.0967 0.7914
60.5654 -13.2812 5.4247 0.7796
60.6565 1.5371 5.3085 0.7838
11.8528 8.6122 1.2818 0.9429
9.2809 8.6280 1.1087 0.9504
3.0600 8.6662 0.8041 0.9638
1.9288 8.6732 0.7773 0.9650
-1.2515 8.6927 0.7684 0.9654
-13.2765 8.7666 1.3919 0.9381
-17.6158 8.7933 1.7225 0.9240
-25.0907 2.5472 2.2065 0.9037
-21.2702 -32.0063 3.3621 0.8570
-16.9209 -33.6489 3.2952 0.8596
-11.3831 -31.6417 2.9420 0.8737
-7.2389 -31.6671 2.8420 0.8777
29.1645 -40.8959 4.3945 0.8174
56.5693 -37.8351 5.9541 0.7609
54.9380 -19.9476 5.1135 0.7908
60.6731 0.8204 5.3087 0.7838
55.3167 7.4641 4.8834 0.7992
48.5557 19.1313 4.5659 0.8109
36.4230 19.7060 3.6231 0.8468
31.4604 22.2958 3.3735 0.8566
9.5022 8.6266 1.1228 0.9498
7.4716 8.6391 0.9993 0.9552
5.8219 8.6493 0.9122 0.9590
3.1754 8.6655 0.8074 0.9636
2.0365 8.6725 0.7794 0.9649
-0.0918 8.6856 0.7599 0.9657
-4.6812 8.7138 0.8654 0.9611
-6.1431 8.7228 0.9334 0.9581
-7.8818 8.7335 1.0292 0.9539
-24.9854 2.8352 2.2000 0.9040
-29.3927 -33.5825 3.9045 0.8359
-5.5482 -47.6365 4.1958 0.8248
19.6764 -51.2667 4.8043 0.8021
28.9857 -41.6784 4.4415 0.8156
56.1693 -29.2931 5.5423 0.7754
60.6785 0.1033 5.3087 0.7838
50.2620 19.1208 4.7048 0.8058
7.6509 8.6380 1.0095 0.9547
5.9710 8.6483 0.9194 0.9587
2.1448 8.6719 0.7815 0.9648
1.0628 8.6785 0.7649 0.9655
0.0109 8.6850 0.7598 0.9657
-2.1282 8.6981 0.7834 0.9647
-5.9895 8.7218 0.9257 0.9584
-7.6815 8.7164 1.0165 0.9544
-12.6117 8.7625 1.3436 0.9402
-22.0567 -31.5465 3.3677 0.8568
-13.4800 -25.2986 2.5079 0.8913
-10.9101 -28.2150 2.6466 0.8856
19.0291 -51.3872 4.7941 0.8025
28.4999 -42.0308 4.4429 0.8155
36.7281 -42.1763 4.8929 0.7989
45.3947 -40.9307 5.3475 0.7824
60.5515 -15.5466 5.4694 0.7780
60.5981 -7.9666 5.3473 0.7824
60.6885 6.7328 5.3421 0.7826
53.4169 19.6013 4.9781 0.7958
39.5154 20.1869 3.8821 0.8368
31.4536 21.1925 3.3182 0.8587
9.9623 8.6238 1.1528 0.9485
7.8339 8.6369 1.0202 0.9543
6.1225 8.6474 0.9270 0.9583
3.4092 8.6641 0.8146 0.9633
2.2536 8.6712 0.7838 0.9647
-2.0194 8.6975 0.7812 0.9648
-3.1650 8.7045 0.8103 0.9635
-9.5831 8.7439 1.1350 0.9492
-16.1395 8.7842 1.6076 0.9289
-61.5283 -14.0942 5.5224 0.7761
-18.3590 -33.4951 3.3418 0.8578
-8.4283 -31.6598 2.8663 0.8767
-5.6856 -40.4690 3.5753 0.8487
19.9709 -88.3812 7.9273 0.6950
19.0057 -53.2476 4.9464 0.7969
35.8409 -42.1531 4.8408 0.8008
58.4409 -42.1592 6.3045 0.7488
56.6098 -31.2461 5.6571 0.7713
60.4969 -24.4258 5.7079 0.7695
60.5468 -16.3103 5.4860 0.7774
60.5936 -8.6955 5.3556 0.7821
60.6640 -1.3305 5.3087 0.7838
60.7303 13.5345 5.4436 0.7789
55.3991 19.5892 5.1409 0.7898
10.2018 8.6223 1.1686 0.9478
8.0135 8.6278 1.0302 0.9538
6.2765 8.6465 0.9348 0.9580
0.2161 8.6808 0.7597 0.9657
-2.9295 5.9497 0.5802 0.9737
-7.3344 8.7301 0.9976 0.9552
-18.9567 -33.6364 3.3780 0.8564
-6.8170 -24.4413 2.2200 0.9031
-5.2926 -34.6910 3.0702 0.8686
20.2743 -41.7979 4.0643 0.8298
26.0761 -40.4837 4.2130 0.8242
59.9472 -25.0317 5.6836 0.7704
60.5420 -17.0788 5.5035 0.7768
60.5891 -9.4268 5.3646 0.7818
10.4479 8.6208 1.1851 0.9471
8.2000 8.6220 1.0410 0.9533
4.9451 8.6546 0.8721 0.9608
3.6473 8.6626 0.8223 0.9630
-0.4855 5.7736 0.5069 0.9770
-1.8036 8.6961 0.7770 0.9650
-2.9335 8.7031 0.8035 0.9638
-5.5435 8.7191 0.9039 0.9594
-15.2592 8.7788 1.5402 0.9318
-25.2080 -33.4625 3.6653 0.8452
-19.4820 -33.6332 3.4005 0.8555
-5.3128 -32.2623 2.8606 0.8770
18.5203 -56.0367 5.1634 0.7890
19.5177 -41.4791 4.0106 0.8319
24.8592 -39.6149 4.0917 0.8288
34.1641 -42.1606 4.7476 0.8042
43.3830 -41.9982 5.2827 0.7847
54.0711 -40.9840 5.9359 0.7615
60.5373 -17.8523 5.5218 0.7761
60.5846 -10.1607 5.3745 0.7814
60.6301 -2.7644 5.3100 0.7837
60.7211 12.0336 5.4157 0.7799
41.3421 19.3043 3.9918 0.8326
31.6571 19.7353 3.2637 0.8609
-9.8242 -33.3774 1.8234 0.8699
-6.0996 -36.4847 1.9386 0.8623
-4.4109 -97.8515 5.1334 0.6755
17.6509 -88.8255 4.7462 0.6958
18.7028 -57.0555 3.1467 0.7862
33.9933 -42.1595 2.8382 0.8050
31.8784 -24.2853 2.1002 0.8517
56.5978 -33.1932 3.4386 0.7689
56.7721 -24.6621 3.2440 0.7804
65.6783 -19.5426 3.5912 0.7600
65.6222 -11.1703 3.4886 0.7660
65.5691 -3.1498 3.4403 0.7688
65.5172 4.7651 3.4427 0.7686
49.6818 9.7200 2.6531 0.8165
26.2643 8.5236 1.4471 0.8953
41.3414 19.1812 2.3885 0.8331
10.7232 8.5940 0.7202 0.9464
8.4482 8.6331 0.6330 0.9528
6.6258 8.6443 0.5708 0.9573
3.7932 8.6617 0.4956 0.9628
2.6035 8.6560 0.4737 0.9644
-0.6057 8.6820 0.4561 0.9657
-1.6719 8.6813 0.4633 0.9652
-4.0098 8.7097 0.5025 0.9623
-6.9525 8.7278 0.5848 0.9563
-14.7630 8.7758 0.9001 0.9335
-19.9517 8.8076 1.1430 0.9163
-24.4658 -31.5318 2.0916 0.8523
25.3025 -80.3854 4.4166 0.7135
24.0169 -52.9888 3.0490 0.7921
25.3326 -41.6775 2.5561 0.8225
33.1750 -42.1544 2.8113 0.8066
42.3770 -42.2111 3.1347 0.7870
31.1028 -24.2806 2.0679 0.8538
56.2942 -25.2494 3.2334 0.7810
65.6840 -20.3922 3.6044 0.7592
65.6276 -11.9707 3.4961 0.7655
65.5742 -3.9272 3.4428 0.7686
49.1919 9.0220 2.6210 0.8185
27.3401 8.5170 1.5007 0.8916
31.0564 18.7514 1.9013 0.8648
8.6490 8.6319 0.6404 0.9522
5.2479 8.6528 0.5304 0.9603
2.7157 8.6571 0.4755 0.9643
1.6066 8.6627 0.4617 0.9653
0.5453 8.6754 0.4556 0.9658
-0.5026 8.6817 0.4557 0.9658
-1.5658 8.6817 0.4623 0.9653
-2.6794 8.6914 0.4767 0.9642
-3.8854 8.7089 0.4998 0.9625
-5.2282 8.7172 0.5327 0.9601
-6.7847 8.7267 0.5793 0.9567
-8.6696 8.7383 0.6451 0.9519
-11.0770 8.7531 0.7399 0.9450
-14.3696 8.7733 0.8823 0.9348
-19.2616 8.7764 1.1093 0.9187
-18.7858 -30.5653 1.8802 0.8661
-14.5055 -31.5876 1.8216 0.8700
-8.1071 -25.3187 1.3933 0.8990
-4.3194 -62.7930 3.2986 0.7772
25.4448 -84.3034 4.6150 0.7028
23.5516 -39.7994 2.4236 0.8309
40.1492 -40.9485 3.0055 0.7948
56.6383 -26.2119 3.2707 0.7788
65.6897 -21.2481 3.6183 0.7584
65.5793 -4.7057 3.4457 0.7685
65.5273 3.2114 3.4383 0.7689
33.5564 19.7236 2.0399 0.8556
8.8546 8.6306 0.6480 0.9517
5.3882 8.6519 0.5342 0.9600
-2.5666 8.6889 0.4748 0.9644
-3.7447 8.6674 0.4948 0.9629
-8.4658 8.7371 0.6376 0.9524
-10.8098 8.7515 0.7289 0.9458
-25.7046 -31.5593 2.1331 0.8496
-14.9586 -31.5849 1.8315 0.8694
-11.1214 -33.3694 1.8434 0.8686
24.2027 -42.0248 2.5416 0.8235
30.5775 -40.8022 2.6722 0.8153
56.5810 -35.9374 3.5128 0.7645
56.6333 -27.0266 3.2887 0.7777
65.6383 -13.5828 3.5128 0.7645
34.4728 19.7180 2.0813 0.8529
11.5654 8.6139 0.7558 0.9439
5.5306 8.6510 0.5381 0.9597
2.9430 8.6595 0.4793 0.9640
1.8186 8.6595 0.4637 0.9652
0.7513 8.6735 0.4563 0.9657
-0.2970 8.6810 0.4552 0.9658
-2.4547 8.6864 0.4731 0.9645
-13.3929 32.0331 1.8196 0.8702
-6.4582 8.7247 0.5689 0.9575
-8.2668 8.7358 0.6303 0.9530
-13.6273 8.7688 0.8493 0.9372
-83.8009 7.5084 4.4094 0.7139
-84.0517 -12.8621 4.4562 0.7114
-62.1741 -17.3714 3.3832 0.7722
-26.3279 -31.5555 2.1538 0.8482
-19.7918 -30.5592 1.9081 0.8643
-8.0877 -23.3438 1.2947 0.9058
-7.1679 -77.4264 4.0751 0.7324
21.2310 -51.6354 2.9259 0.7996
22.8983 -40.8693 2.4551 0.8289
38.7821 -41.4706 2.9757 0.7966
56.5752 -36.8790 3.5393 0.7630
65.6437 -14.3948 3.5220 0.7640
65.5375 1.6608 3.4358 0.7691
49.8135 7.3218 2.6387 0.8174
46.9465 19.1412 2.6570 0.8162
35.4274 19.7121 2.1247 0.8501
11.8528 8.6122 0.7678 0.9430
0.8546 8.6724 0.4567 0.9657
-0.1943 8.6805 0.4550 0.9658
-1.2500 8.6823 0.4597 0.9655
-3.5199 8.7067 0.4922 0.9631
-4.8152 8.7146 0.5218 0.9609
-8.0722 8.7346 0.6233 0.9535
-10.2985 8.7483 0.7082 0.9473
-61.2554 -16.3369 3.3225 0.7757
-58.6879 -42.1148 3.7838 0.7488
-26.9633 -31.5516 2.1751 0.8468
-16.6834 -25.1044 1.5797 0.8863
-15.4687 -30.7611 1.8045 0.8712
-7.6329 -33.3908 1.7951 0.8718
22.7571 -86.3517 4.6800 0.6993
20.2513 -50.9564 2.8737 0.8028
29.1517 -40.8780 2.6313 0.8178
30.7556 -26.4406 2.1256 0.8501
56.5693 -37.8350 3.5666 0.7614
49.9413 -18.1333 2.7845 0.8083
65.6492 -15.2113 3.5317 0.7634
65.5949 -7.0510 3.4575 0.7678
65.5425 0.8862 3.4352 0.7691
55.0011 7.4215 2.9086 0.8007
48.5557 19.1313 2.7351 0.8114
31.3599 22.2246 2.0144 0.8573
9.5022 8.6266 0.6726 0.9499
3.1742 8.6623 0.4835 0.9637
2.0326 8.6559 0.4660 0.9650
-4.6812 8.7138 0.5184 0.9612
-6.1431 8.7228 0.5591 0.9582
-10.0535 8.7468 0.6984 0.9480
-17.1007 8.7901 1.0077 0.9259
-23.8832 8.8318 1.3345 0.9030
-25.0787 -22.4991 1.7657 0.8738
-27.6117 -31.5476 2.1972 0.8454
-15.8348 -30.5834 1.8049 0.8711
-5.3621 -46.0381 2.4290 0.8306
19.6677 -51.2441 2.8766 0.8026
22.3726 -42.2421 2.5051 0.8257
30.7517 -27.0758 2.1473 0.8486
35.4194 -24.3000 2.2511 0.8419
49.6275 -18.6859 2.7791 0.8086
65.6547 -16.0321 3.5419 0.7628
65.4958 8.0507 3.4583 0.7677
50.2620 19.1208 2.8183 0.8062
38.4019 20.1938 2.2739 0.8405
31.3565 21.6702 1.9976 0.8584
5.9710 8.6483 0.5508 0.9588
3.2914 8.6638 0.4857 0.9636
2.1403 8.6540 0.4672 0.9649
1.0617 8.6701 0.4578 0.9656
0.0109 8.6794 0.4549 0.9658
-2.1237 8.6796 0.4683 0.9648
-3.2822 8.7052 0.4876 0.9634
-4.5490 8.7130 0.5151 0.9614
-5.9895 8.7218 0.5545 0.9585
-7.6815 8.7164 0.6089 0.9545
-9.8152 8.7454 0.6890 0.9487
-12.6117 8.7625 0.8048 0.9403
-23.0286 8.8266 1.2925 0.9059
-28.2732 -31.5436 2.2200 0.8439
-10.9413 -28.2956 1.5899 0.8856
-4.0893 -16.1250 0.8718 0.9355
-5.3344 -41.5248 2.1941 0.8456
20.1180 -54.3276 3.0361 0.7929
28.4818 -42.0040 2.6597 0.8161
36.7280 -42.1762 2.9310 0.7993
30.7477 -27.7241 2.1697 0.8472
34.4976 -24.2720 2.2106 0.8445
65.5527 -0.6628 3.4356 0.7691
65.5009 7.2667 3.4538 0.7680
59.5368 14.0089 3.2054 0.7827
39.5154 20.1869 2.3255 0.8372
31.3532 21.1249 1.9813 0.8595
6.1225 8.6474 0.5553 0.9584
4.6783 8.6563 0.5157 0.9614
3.4092 8.6641 0.4880 0.9634
2.2489 8.6530 0.4686 0.9648
1.1657 8.6688 0.4584 0.9656
0.1134 8.6788 0.4549 0.9658
-0.6211 5.7537 0.3033 0.9771
-9.5831 8.7439 0.6799 0.9494
-12.2963 8.7606 0.7912 0.9413
-22.2263 8.8216 1.2532 0.9087
-67.1591 -33.8100 3.9405 0.7400
-16.6735 -23.2572 1.4997 0.8917
-11.9471 -29.8436 1.6847 0.8792
-6.4779 -24.3334 1.3197 0.9041
20.0197 -88.5971 4.7602 0.6950
21.0745 -42.1713 2.4707 0.8279
27.8077 -42.0716 2.6430 0.8171
30.7437 -28.3862 2.1930 0.8457
33.6796 -24.2964 2.1764 0.8468
56.6098 -31.2461 3.3887 0.7718
65.6658 -17.6893 3.5641 0.7615
65.6105 -9.4155 3.4737 0.7668
65.5578 -1.4380 3.4366 0.7690
65.5060 6.4848 3.4498 0.7682
61.1332 13.6243 3.2824 0.7781
40.6808 20.1798 2.3799 0.8337
10.2018 8.6223 0.7000 0.9479
8.0135 8.6278 0.6171 0.9539
4.8108 8.6555 0.5190 0.9611
3.5277 8.6633 0.4902 0.9632
1.2700 8.6675 0.4591 0.9655
-1.9076 8.6803 0.4658 0.9650
-3.0475 8.7001 0.4831 0.9637
-5.6898 8.7200 0.5457 0.9592
-11.9913 8.7587 0.7782 0.9423
-15.6900 8.7815 0.9423 0.9305
-29.6390 -31.5352 2.2681 0.8408
-23.1804 -31.5396 2.0513 0.8549
-13.8764 -33.5099 1.9008 0.8648
-6.7756 -24.2928 1.3217 0.9039
18.7082 -87.5946 4.6942 0.6985
20.7276 -42.7323 2.4891 0.8268
35.0017 -42.1657 2.8720 0.8029
32.8471 -24.2913 2.1410 0.8490
56.6044 -32.1215 3.4109 0.7705
49.8192 -20.8026 2.8294 0.8055
65.6714 -18.5258 3.5760 0.7609
65.5629 -2.2134 3.4380 0.7689
41.1985 19.8335 2.3963 0.8326
31.3466 20.0599 1.9504 0.8615
8.2000 8.6220 0.6236 0.9535
3.6473 8.6626 0.4926 0.9631
2.4691 8.6548 0.4717 0.9646
-2.9316 8.6973 0.4810 0.9639
-4.1617 8.7106 0.5059 0.9621
-5.5435 8.7191 0.5415 0.9595
-7.1593 8.7290 0.5917 0.9558
-20.7590 8.8126 1.1819 0.9136
-39.0452 -7.9780 2.0882 0.8525
-69.6274 -33.0140 4.0384 0.7344
-84.0280 -53.0759 5.2086 0.6716
-30.3446 -31.5309 2.2934 0.8392
-6.0106 -36.4994 1.9386 0.8623
26.5884 -42.3706 2.6215 0.8184
34.1641 -42.1605 2.8439 0.8046
30.7178 -29.7373 2.2406 0.8426
56.9232 -24.5631 3.2491 0.7801
65.6211 -11.0054 3.4871 0.7660
49.7697 9.8632 2.6590 0.8161
26.0518 8.5249 1.4366 0.8960
41.3421 19.3043 2.3912 0.8330
-9.1851 -31.2062 0.5678 0.8780
-6.7646 -40.4624 0.7161 0.8486
-3.8578 -85.5813 1.4953 0.7098
28.6588 -87.4278 1.6059 0.6921
26.5421 -56.7666 1.0938 0.7783
26.6289 -42.6660 0.8779 0.8177
31.5856 -39.1734 0.8784 0.8177
30.7344 -29.8989 0.7484 0.8424
31.8784 -24.2853 0.6995 0.8519
41.5100 -24.3445 0.8400 0.8249
46.8063 -20.3329 0.8908 0.8153
83.0919 -24.7240 1.5132 0.7069
26.2491 8.5187 0.4817 0.8955
31.8280 19.7342 0.6537 0.8609
1.4958 8.6334 0.1529 0.9656
0.4406 8.6397 0.1510 0.9660
-0.6061 8.6888 0.1520 0.9658
-1.6746 8.6953 0.1546 0.9652
-4.0035 8.6959 0.1671 0.9624
-6.9230 8.6907 0.1939 0.9565
-8.8782 8.7396 0.2175 0.9514
-14.7630 8.7758 0.2998 0.9336
-19.9383 8.8017 0.3804 0.9165
-29.1593 8.8642 0.5320 0.8852
-51.0277 -23.3100 0.9792 0.7990
-21.0021 -35.0944 0.7139 0.8491
-14.1806 -31.8678 0.6088 0.8698
-9.5865 -31.2037 0.5698 0.8776
-7.2565 -40.4594 0.7175 0.8484
-4.7934 -84.2056 1.4722 0.7136
39.6553 -87.4919 1.6767 0.6809
26.6220 -43.7988 0.8947 0.8146
30.8234 -39.1663 0.8700 0.8192
30.7300 -30.6097 0.7571 0.8407
31.1028 -24.2806 0.6887 0.8540
40.3968 -24.3377 0.8232 0.8281
56.1945 -25.2047 1.0750 0.7816
46.5236 8.5327 0.8256 0.8276
27.3401 8.5170 0.4998 0.8918
8.6490 8.6319 0.2133 0.9523
5.2479 8.6528 0.1766 0.9603
3.9099 8.6488 0.1657 0.9627
1.6010 8.6328 0.1533 0.9655
-0.5030 8.6881 0.1519 0.9658
-2.6825 8.7015 0.1589 0.9642
-3.8822 8.7016 0.1663 0.9626
-5.2165 8.6977 0.1770 0.9602
-11.0770 8.7531 0.2464 0.9451
-24.7807 -31.1700 0.6951 0.8527
-14.5055 -31.5876 0.6067 0.8702
-7.2471 -37.8288 0.6723 0.8572
-4.5733 -66.4841 1.1632 0.7660
27.8993 -92.4354 1.6854 0.6796
30.0754 -39.1593 0.8619 0.8208
30.7255 -31.3373 0.7660 0.8390
30.7669 -24.6089 0.6877 0.8542
52.7526 -24.4136 1.0146 0.7925
76.3064 -24.6823 1.3999 0.7255
46.8606 8.0233 0.8299 0.8268
46.1447 20.0986 0.8785 0.8176
33.5564 19.7236 0.6794 0.8558
6.9545 8.6423 0.1936 0.9566
4.0365 8.6548 0.1667 0.9625
1.7067 8.6322 0.1536 0.9654
0.6455 8.6384 0.1512 0.9659
-1.4621 8.6940 0.1539 0.9653
-2.5701 8.7008 0.1584 0.9644
-6.5915 8.6882 0.1904 0.9573
-10.8098 8.7515 0.2428 0.9459
-13.9913 8.7710 0.2882 0.9361
-18.6928 8.7855 0.3605 0.9207
-26.8176 8.8499 0.4929 0.8932
-25.3845 -31.1663 0.7016 0.8515
-21.2807 -33.7248 0.6961 0.8525
-14.9586 -31.5849 0.6100 0.8695
-7.2328 -35.4797 0.6320 0.8651
-5.3585 -66.4255 1.1632 0.7660
37.1824 -87.4771 1.6591 0.6837
26.6072 -46.2000 0.9306 0.8079
29.3413 -39.1525 0.8540 0.8222
30.7210 -32.0822 0.7753 0.8372
38.2425 -24.2897 0.7908 0.8342
93.1972 -19.2857 1.6612 0.6834
47.1471 7.5000 0.8333 0.8261
29.7508 8.5022 0.5401 0.8836
34.4729 19.7180 0.6932 0.8531
11.8266 8.8085 0.2574 0.9427
9.0652 8.6293 0.2185 0.9512
7.1235 8.6412 0.1955 0.9562
1.8128 8.6316 0.1540 0.9653
0.7482 8.6378 0.1513 0.9659
-0.2972 8.6869 0.1517 0.9658
-1.3566 8.6934 0.1536 0.9654
-12.4073 29.6759 0.5614 0.8793
-6.4303 8.6870 0.1887 0.9577
-10.5505 8.7499 0.2392 0.9466
-13.6273 8.7688 0.2829 0.9372
-18.1234 8.7808 0.3515 0.9226
-25.7358 8.8314 0.4749 0.8969
-83.8029 7.5086 1.4686 0.7142
-84.0008 -12.8543 1.4833 0.7118
-21.2753 -32.8498 0.6831 0.8551
-15.4168 -31.5821 0.6134 0.8688
-10.8083 -31.1962 0.5763 0.8763
-7.2534 -33.5504 0.5992 0.8717
-6.1431 -66.3575 1.1632 0.7660
22.2408 -54.0914 1.0209 0.7914
26.5993 -47.4748 0.9499 0.8044
30.7121 -32.8411 0.7848 0.8354
30.7595 -25.8182 0.7010 0.8516
49.6007 -24.3943 0.9648 0.8016
70.4634 -24.6464 1.3030 0.7418
86.9434 -19.0655 1.5537 0.7004
56.4440 15.4114 1.0213 0.7913
35.4274 19.7121 0.7077 0.8503
9.2809 8.6280 0.2212 0.9506
7.2958 8.6402 0.1974 0.9558
5.6751 8.6502 0.1806 0.9595
3.0527 8.6457 0.1600 0.9640
0.8511 8.6372 0.1515 0.9659
-0.1944 8.6862 0.1517 0.9658
-2.3477 8.6995 0.1573 0.9646
-3.5199 8.7067 0.1639 0.9631
-13.2766 8.7666 0.2777 0.9383
-17.5817 8.7763 0.3430 0.9244
-24.7675 8.8276 0.4590 0.9002
-60.7343 -16.1979 1.0972 0.7777
-17.7747 -35.3468 0.6906 0.8536
-7.6688 -33.5479 0.6007 0.8714
-5.5514 -53.1201 0.9323 0.8076
23.3056 -88.4329 1.5963 0.6936
30.6976 -33.6132 0.7946 0.8335
30.7556 -26.4406 0.7080 0.8502
36.3515 -24.3128 0.7634 0.8395
86.9368 -20.1437 1.5577 0.6998
56.4397 14.6959 1.0180 0.7919
5.8219 8.6493 0.1820 0.9591
4.4181 8.6579 0.1697 0.9619
-2.2376 8.6988 0.1568 0.9647
-3.4005 8.7059 0.1631 0.9633
-7.8818 8.7335 0.2053 0.9540
-10.0535 8.7468 0.2326 0.9481
-12.9382 8.7645 0.2728 0.9394
-17.0833 8.7812 0.3353 0.9260
-23.8832 8.8318 0.4445 0.9031
-24.9965 2.8365 0.4391 0.9043
-84.2858 -32.6352 1.5776 0.6966
-25.0737 -22.4946 0.5880 0.8739
-13.2131 -25.5198 0.5016 0.8914
-11.6392 -31.1911 0.5811 0.8753
-8.0865 -33.5453 0.6023 0.8711
-5.5145 -47.3469 0.8320 0.8264
0.4596 -98.6791 1.7225 0.6738
30.7517 -27.0758 0.7152 0.8488
35.4298 -24.3072 0.7500 0.8421
50.9666 -19.1902 0.9506 0.8042
56.4353 13.9849 1.0149 0.7925
51.5555 19.6128 0.9628 0.8020
38.4019 20.1938 0.7573 0.8407
2.1379 8.6440 0.1554 0.9650
1.0576 8.6360 0.1519 0.9658
-1.0423 8.6914 0.1528 0.9656
-9.8152 8.7454 0.2295 0.9488
-27.9211 -31.1507 0.7302 0.8459
-22.0567 -31.5465 0.6719 0.8573
-13.4692 -25.2783 0.5000 0.8917
-4.0893 -16.1249 0.2904 0.9356
-4.9566 -38.5836 0.6790 0.8559
32.3838 -87.4507 1.6277 0.6886
26.5736 -51.6401 1.0137 0.7927
30.6993 -35.2533 0.8160 0.8294
30.7477 -27.7241 0.7227 0.8474
87.1200 9.6652 1.5300 0.7042
57.6730 13.5704 1.0342 0.7890
31.3531 21.1249 0.6599 0.8596
9.9623 8.6238 0.2300 0.9487
7.8339 8.6369 0.2035 0.9544
3.4012 8.6437 0.1621 0.9635
2.2479 8.6493 0.1560 0.9649
0.1135 8.6843 0.1516 0.9659
-2.0194 8.6975 0.1559 0.9649
-3.1650 8.7045 0.1617 0.9636
-2.9925 5.9006 0.1155 0.9739
-5.8184 8.6909 0.1826 0.9590
-9.5831 8.7439 0.2264 0.9494
-12.2963 8.7606 0.2635 0.9414
-4.9354 -35.1293 0.6192 0.8677
28.3096 -79.3138 1.4700 0.7140
46.7920 -18.8925 0.8808 0.8172
31.3498 20.5881 0.6547 0.8607
8.0135 8.6278 0.2055 0.9540
6.2765 8.6465 0.1865 0.9582
4.8108 8.6555 0.1728 0.9612
3.5194 8.6431 0.1629 0.9634
0.2161 8.6808 0.1516 0.9659
-1.9112 8.6968 0.1554 0.9650
-3.0488 8.7038 0.1610 0.9638
-2.9279 5.9464 0.1157 0.9738
-5.6752 8.6976 0.1813 0.9593
-7.3038 8.6936 0.1982 0.9556
-15.6766 8.7739 0.3136 0.9307
-59.1347 -12.8125 1.0561 0.7850
-24.5964 -33.4663 0.7250 0.8469
-19.9132 -35.3337 0.7080 0.8502
-6.1736 -40.4660 0.7145 0.8489
28.7370 -83.6203 1.5434 0.7021
32.5251 -39.1822 0.8889 0.8157
32.8471 -24.2913 0.7131 0.8492
46.4523 -19.3967 0.8787 0.8176
87.7355 -24.7500 1.5912 0.6944
47.2057 9.9364 0.8420 0.8245
10.4479 8.6208 0.2364 0.9473
8.2000 8.6220 0.2077 0.9535
3.6388 8.6424 0.1637 0.9632
1.3695 8.6342 0.1526 0.9656
-9.1368 8.7412 0.2207 0.9507
-11.6491 8.7217 0.2540 0.9434
-15.2592 8.7788 0.3073 0.9320
-20.7472 8.8076 0.3934 0.9138
-23.4869 -31.1779 0.6813 0.8554
-13.3456 -31.1807 0.5920 0.8731
28.8955 -87.4292 1.6073 0.6919
32.0415 -24.2863 0.7018 0.8514
41.7455 -24.3460 0.8435 0.8242
46.6911 -20.1478 0.8876 0.8159
83.8552 -24.7287 1.5260 0.7049
46.8299 9.2806 0.8333 0.8261
26.0255 8.5163 0.4780 0.8962
43.1840 20.1643 0.8319 0.8264
31.6571 19.7353 0.6512 0.8614
-9.8704 -33.5344 -0.6102 0.8695
-3.7391 -22.3652 -0.3958 0.9133
-1.4409 -31.9639 -0.5585 0.8798
25.5573 -54.6605 -1.0532 0.7855
30.7344 -29.8989 -0.7484 0.8424
83.7781 -24.9282 -1.5257 0.7049
85.6353 -14.5769 -1.5163 0.7064
94.6431 6.8834 -1.6564 0.6841
48.2846 9.4467 -0.8588 0.8213
31.8280 19.7342 -0.6537 0.8609
10.7232 8.5940 -0.2399 0.9465
8.4482 8.6331 -0.2108 0.9528
6.6258 8.6443 -0.1901 0.9574
5.1095 8.6536 -0.1754 0.9606
1.4888 8.5927 -0.1522 0.9657
-1.6746 8.6953 -0.1546 0.9652
-2.7958 8.7022 -0.1595 0.9641
-4.0035 8.6959 -0.1671 0.9624
-5.3432 8.6748 -0.1778 0.9601
-8.8782 8.7396 -0.2175 0.9514
-11.3523 8.7548 -0.2502 0.9443
-14.7630 8.7758 -0.2998 0.9336
-58.1496 10.2522 -1.0307 0.7896
-68.2490 -4.5586 -1.1939 0.7606
-50.9114 -9.6487 -0.9045 0.8128
-76.6604 -24.3791 -1.4041 0.7248
-51.0152 -23.3043 -0.9790 0.7990
-15.6500 -20.1699 -0.4456 0.9029
-11.7265 -19.5949 -0.3986 0.9127
-14.1806 -31.8678 -0.6088 0.8698
-6.3891 -20.7962 -0.3797 0.9166
-3.9626 -22.0935 -0.3918 0.9141
-1.6031 -28.1616 -0.4924 0.8933
36.2078 -79.8856 -1.5309 0.7041
22.2358 -36.5827 -0.7473 0.8426
30.7300 -30.6097 -0.7571 0.8407
40.3968 -24.3377 -0.8232 0.8281
56.2942 -25.2494 -1.0769 0.7813
73.4252 4.4687 -1.2840 0.7451
48.2810 8.8550 -0.8568 0.8217
27.3401 8.5170 -0.4998 0.8918
32.6755 19.7291 -0.6663 0.8584
11.6241 9.0925 -0.2576 0.9427
8.6490 8.6319 -0.2133 0.9523
6.7886 8.6433 -0.1918 0.9570
3.9099 8.6488 -0.1657 0.9627
2.7062 8.6266 -0.1578 0.9645
1.5945 8.5977 -0.1526 0.9656
-3.8822 8.7016 -0.1663 0.9626
-5.2023 8.6740 -0.1765 0.9603
-8.6696 8.7383 -0.2149 0.9519
-11.0770 8.7531 -0.2464 0.9451
-19.0720 8.6900 -0.3658 0.9196
-27.9438 8.8568 -0.5117 0.8893
-90.6860 17.0959 -1.6108 0.6913
-58.1890 3.8300 -1.0179 0.7919
-63.7087 -37.9547 -1.2944 0.7433
-16.1009 -20.2523 -0.4516 0.9017
-12.0037 -19.5307 -0.4001 0.9124
-8.9901 -19.5771 -0.3760 0.9174
-4.1959 -21.9020 -0.3893 0.9146
38.4137 -87.4877 -1.6678 0.6823
21.6738 -36.6262 -0.7429 0.8434
30.7669 -24.6089 -0.6877 0.8542
52.7526 -24.4136 -1.0146 0.7925
94.8074 -18.4534 -1.6859 0.6795
41.9606 18.2762 -0.7989 0.8327
33.5564 19.7236 -0.6794 0.8558
11.7254 8.9505 -0.2575 0.9427
6.9545 8.6423 -0.1936 0.9566
5.3882 8.6519 -0.1779 0.9600
4.0365 8.6548 -0.1667 0.9625
2.8183 8.6259 -0.1584 0.9643
-1.4621 8.6940 -0.1539 0.9653
-2.5701 8.7008 -0.1584 0.9644
-5.0635 8.6732 -0.1753 0.9606
-6.5525 8.6368 -0.1892 0.9576
-8.4658 8.7371 -0.2124 0.9525
-10.8098 8.7515 -0.2428 0.9459
-18.4847 8.6876 -0.3565 0.9215
-90.6790 18.2066 -1.6144 0.6907
-90.8182 -3.9131 -1.5867 0.6951
-76.6879 -12.6643 -1.3567 0.7327
-76.6572 -32.8512 -1.4557 0.7163
-63.4876 -36.8135 -1.2810 0.7456
-9.2092 -19.4452 -0.3756 0.9175
-4.4321 -21.7415 -0.3873 0.9151
-2.1797 -27.0202 -0.4732 0.8972
21.0614 -36.5704 -0.7366 0.8447
38.2425 -24.2897 -0.7908 0.8342
74.0278 -24.9152 -1.3634 0.7316
46.3337 7.3706 -0.8189 0.8289
47.4552 20.0057 -0.8989 0.8138
34.4729 19.7180 -0.6932 0.8531
9.0652 8.6293 -0.2185 0.9512
7.1235 8.6412 -0.1955 0.9562
1.8078 8.6077 -0.1535 0.9654
-0.2972 8.6869 -0.1517 0.9658
-1.3566 8.6934 -0.1536 0.9654
-4.9266 8.6725 -0.1741 0.9609
-6.3947 8.6388 -0.1876 0.9579
-8.2668 8.7358 -0.2099 0.9530
-10.5505 8.7499 -0.2392 0.9466
-13.6273 8.7688 -0.2829 0.9372
-25.7708 8.8434 -0.4756 0.8967
-58.3861 5.2313 -1.0232 0.7910
-76.7592 -11.7461 -1.3554 0.7330
-60.8996 -17.0153 -1.1037 0.7765
-65.5490 -48.2218 -1.4204 0.7221
-12.7092 -19.6235 -0.4081 0.9107
-9.4482 -19.3551 -0.3759 0.9174
-7.1112 -20.5252 -0.3792 0.9168
-2.4157 -26.0938 -0.4574 0.9005
22.2594 -54.1367 -1.0217 0.7912
37.3068 -24.3187 -0.7773 0.8368
49.6007 -24.3943 -0.9648 0.8016
57.6064 -12.6323 -1.0294 0.7898
56.8948 15.5345 -1.0294 0.7898
49.0429 19.9959 -0.9245 0.8091
7.2958 8.6402 -0.1974 0.9558
5.6751 8.6502 -0.1806 0.9595
3.0452 8.6244 -0.1596 0.9641
0.8471 8.5965 -0.1508 0.9660
-0.1944 8.6862 -0.1517 0.9658
-2.3477 8.6995 -0.1573 0.9646
-3.5199 8.7067 -0.1639 0.9631
-4.7915 8.6717 -0.1729 0.9611
-8.0722 8.7346 -0.2076 0.9535
-17.4964 8.7337 -0.3413 0.9247
-24.7950 8.8374 -0.4595 0.9000
-23.1162 2.3468 -0.4056 0.9112
-90.8047 -1.7644 -1.5853 0.6953
-76.6374 -10.8024 -1.3509 0.7337
-60.6629 -16.1788 -1.0959 0.7779
-76.7933 -30.7824 -1.4441 0.7182
-13.1735 -19.8229 -0.4154 0.9092
-9.7260 -19.3412 -0.3779 0.9170
-2.5836 -24.7215 -0.4339 0.9053
34.7608 -87.4653 -1.6429 0.6862
25.8259 -47.3994 -0.9422 0.8058
30.7115 -33.6284 -0.7949 0.8334
30.7556 -26.4406 -0.7080 0.8502
36.3515 -24.3128 -0.7634 0.8395
48.1377 -24.3853 -0.9419 0.8058
57.0171 -13.2112 -1.0216 0.7912
36.4230 19.7060 -0.7230 0.8473
31.3599 22.2246 -0.6709 0.8575
7.4716 8.6391 -0.1994 0.9553
5.8219 8.6493 -0.1820 0.9591
4.4181 8.6579 -0.1697 0.9619
0.9497 8.5959 -0.1510 0.9660
-1.1467 8.6921 -0.1530 0.9655
-10.0535 8.7468 -0.2326 0.9481
-12.9382 8.7645 -0.2728 0.9394
-16.9954 8.7360 -0.3336 0.9264
-23.8832 8.8318 -0.4445 0.9031
-25.0021 2.8371 -0.4392 0.9042
-76.7790 -9.8986 -1.3513 0.7337
-59.9095 -15.2219 -1.0789 0.7809
-18.4179 -21.0433 -0.4881 0.8942
-13.5686 -19.9033 -0.4205 0.9081
-10.0738 -19.4566 -0.3824 0.9161
-12.5075 -33.5182 -0.6245 0.8666
-8.0865 -33.5453 -0.6023 0.8711
26.5824 -50.1906 -0.9914 0.7967
27.0056 -38.8312 -0.8256 0.8276
30.7065 -34.4312 -0.8053 0.8315
30.7517 -27.0758 -0.7152 0.8488
46.7421 -24.3767 -0.9202 0.8099
56.5354 14.0097 -1.0166 0.7921
38.4019 20.1938 -0.7573 0.8407
31.3565 21.6702 -0.6653 0.8586
7.6509 8.6380 -0.2014 0.9549
4.5474 8.6571 -0.1707 0.9616
3.2758 8.6229 -0.1610 0.9638
1.0526 8.5952 -0.1511 0.9660
0.0109 8.6850 -0.1516 0.9659
-3.2822 8.7052 -0.1624 0.9635
-5.9473 8.6603 -0.1834 0.9588
-7.6815 8.7164 -0.2028 0.9546
-9.8152 8.7454 -0.2295 0.9488
-12.6117 8.7625 -0.2681 0.9404
-16.5103 8.7348 -0.3260 0.9280
-53.5986 13.4243 -0.9645 0.8017
-76.7512 -8.9744 -1.3488 0.7341
-59.0698 -14.2677 -1.0607 0.7842
-76.7704 -28.6869 -1.4305 0.7205
-66.5015 -34.4703 -1.3074 0.7411
-62.1059 -54.4070 -1.4411 0.7187
-13.8630 -19.8275 -0.4223 0.9077
-4.0892 -16.1248 -0.2904 0.9356
-3.0474 -23.7220 -0.4175 0.9088
26.7759 -39.4882 -0.8328 0.8262
30.7015 -35.2557 -0.8160 0.8294
34.4976 -24.2720 -0.7363 0.8447
45.4095 -24.3685 -0.8995 0.8137
47.1651 -18.3980 -0.8837 0.8167
59.5368 14.0089 -1.0676 0.7829
31.3531 21.1249 -0.6599 0.8596
7.8339 8.6369 -0.2035 0.9544
6.1225 8.6474 -0.1849 0.9585
3.3936 8.6246 -0.1618 0.9636
0.1135 8.6843 -0.1516 0.9659
-0.6211 5.7536 -0.1010 0.9771
-2.0194 8.6975 -0.1559 0.9649
-3.1650 8.7045 -0.1617 0.9636
-5.8026 8.6673 -0.1821 0.9591
-7.4354 8.6409 -0.1990 0.9554
-12.2963 8.7606 -0.2635 0.9414
-16.0853 8.7548 -0.3197 0.9294
-22.0011 8.7323 -0.4132 0.9096
-30.9631 8.1450 -0.5588 0.8798
-76.5810 -8.0385 -1.3441 0.7349
-76.7951 -27.6665 -1.4248 0.7214
-66.6268 -33.5421 -1.3020 0.7420
-20.3739 -22.1972 -0.5259 0.8864
-14.3208 -19.9755 -0.4290 0.9064
-8.0398 -20.0832 -0.3776 0.9171
-3.1829 -22.6552 -0.3993 0.9125
26.5643 -53.1565 -1.0373 0.7884
22.0229 -33.3195 -0.6971 0.8523
30.6963 -36.1024 -0.8272 0.8273
30.7437 -28.3862 -0.7304 0.8459
33.6796 -24.2964 -0.7249 0.8469
44.1352 -24.3607 -0.8799 0.8174
48.1525 -19.4417 -0.9064 0.8124
