ply
format ascii 1.0
element vertex 1570
property float32 x
property float32 y
property float32 z
property float32 I
end_header
42.9936 -42.1275 7.3907 0.7846
56.6967 -33.5052 8.0862 0.7669
34.6282 -15.1742 4.6421 0.8587
63.6552 -11.0262 7.9323 0.7708
64.1769 4.4973 7.8992 0.7716
57.0129 18.3540 7.3541 0.7855
41.8930 19.3242 5.6647 0.8303
31.9750 19.7333 4.6135 0.8595
10.7970 8.6187 1.6963 0.9458
8.4786 8.6329 1.4857 0.9524
5.1274 8.6535 1.2350 0.9603
3.8075 8.6616 1.1617 0.9626
2.6192 8.6689 1.1119 0.9642
1.5132 8.6757 1.0813 0.9651
-0.5988 8.6887 1.0694 0.9655
-2.7903 8.7022 1.1221 0.9638
-4.0053 8.7096 1.1771 0.9621
-5.3663 8.7180 1.2570 0.9596
-8.8780 8.7396 1.5296 0.9510
-11.3553 8.7548 1.7605 0.9439
-24.7427 -32.0155 4.9681 0.8495
-20.0317 -33.6299 4.8062 0.8541
-13.9742 -31.5909 4.2414 0.8700
-10.2601 -33.6765 4.3226 0.8677
-4.5727 -84.2069 10.3545 0.7119
33.4119 -42.1561 6.6047 0.8051
54.6783 -42.3586 8.4925 0.7567
56.6945 -33.8592 8.1082 0.7663
56.8451 -25.2242 7.6360 0.7783
61.2662 -10.9051 7.6408 0.7782
61.3565 -3.4032 7.5452 0.7806
61.2761 4.0090 7.5398 0.7808
42.0728 19.1712 5.6769 0.8300
5.1815 8.6532 1.2384 0.9602
2.6630 8.6687 1.1135 0.9641
1.5545 8.6755 1.0822 0.9651
0.4916 8.6820 1.0677 0.9656
-2.7459 8.7019 1.1204 0.9639
-8.7957 8.7391 1.5224 0.9513
-68.3457 -30.9519 9.2122 0.7391
-24.8836 -31.8913 4.9667 0.8496
-20.2426 -33.6286 4.8194 0.8537
-4.9640 -84.2045 10.3570 0.7118
2.3979 -38.7153 4.7627 0.8553
19.7807 -43.8133 5.9025 0.8239
33.0934 -42.1541 6.5803 0.8058
42.6930 -42.6154 7.4066 0.7842
56.7435 -25.4943 7.6381 0.7783
63.6014 -19.7804 8.1782 0.7646
77.0126 -4.6294 9.4730 0.7328
61.3561 3.7290 7.5475 0.7806
32.6413 19.7292 4.6831 0.8575
11.0029 8.6174 1.7160 0.9452
8.5963 8.5920 1.4923 0.9522
1.5960 8.6752 1.0831 0.9651
0.5320 8.6818 1.0680 0.9656
-0.5179 8.6882 1.0687 0.9655
-1.5847 8.6948 1.0852 0.9650
-2.7015 8.7016 1.1187 0.9639
-3.9077 8.7090 1.1720 0.9623
-8.7140 8.7386 1.5153 0.9515
-11.0963 8.7203 1.7328 0.9447
-69.7432 -31.1960 9.3810 0.7350
-14.3247 -31.5888 4.2588 0.8695
-10.6014 -33.6744 4.3347 0.8674
42.2789 -42.5950 7.3689 0.7852
53.4326 -42.1915 8.3594 0.7600
56.6901 -34.5732 8.1530 0.7652
61.2187 -19.3510 7.8833 0.7720
63.6496 -11.9388 7.9515 0.7703
63.7931 11.3982 7.9568 0.7702
57.2079 17.5430 7.3471 0.7857
43.1130 19.1648 5.7931 0.8268
11.1078 8.6168 1.7261 0.9449
3.9517 8.6607 1.1689 0.9624
2.7510 8.6681 1.1166 0.9640
1.6376 8.6750 1.0840 0.9650
-3.8592 8.7087 1.1696 0.9623
-69.9328 -30.8928 9.3872 0.7348
-25.1852 -31.6685 4.9681 0.8495
-20.5790 -33.4815 4.8255 0.8535
-14.5010 -31.5877 4.2676 0.8693
-10.7727 -33.6733 4.3410 0.8672
-6.7193 -35.1489 4.3939 0.8657
-5.8403 -85.5691 10.5310 0.7078
24.4408 -80.7003 10.3532 0.7119
19.1257 -43.4308 5.8268 0.8259
32.4638 -42.1502 6.5325 0.8070
53.0709 -42.3065 8.3334 0.7607
56.6879 -34.9331 8.1759 0.7646
56.9390 -26.2189 7.6968 0.7768
61.1307 -19.6350 7.8836 0.7720
61.3513 -4.2588 7.5511 0.7805
77.0839 3.9683 9.4772 0.7327
61.4432 10.6849 7.6575 0.7778
33.3280 19.7250 4.7552 0.8555
11.2138 8.6161 1.7364 0.9446
8.7673 8.6020 1.5081 0.9517
2.7952 8.6679 1.1182 0.9640
0.6127 8.6813 1.0686 0.9655
-1.5015 8.6943 1.0833 0.9651
-2.6132 8.7011 1.1155 0.9640
-3.8109 8.7084 1.1672 0.9624
-5.1453 8.7167 1.2428 0.9600
-6.6887 8.7261 1.3500 0.9567
-8.5530 8.7376 1.5013 0.9519
-70.1818 -30.6151 9.4015 0.7345
-25.3317 -31.5514 4.9681 0.8495
-20.7278 -33.3758 4.8240 0.8536
-14.6782 -31.5866 4.2766 0.8690
-6.8236 -34.8181 4.3564 0.8668
-6.2390 -85.5695 10.5345 0.7077
19.0709 -43.8566 5.8720 0.8247
41.0350 -42.1153 7.2199 0.7890
53.0982 -42.7323 8.3687 0.7598
56.9370 -26.5386 7.7131 0.7763
61.2236 -4.5353 7.5379 0.7808
61.3153 10.3700 7.6355 0.7783
57.3746 17.0143 7.3480 0.7857
44.1965 19.1581 5.9146 0.8236
11.2802 8.5843 1.7405 0.9445
6.9715 8.6422 1.3633 0.9562
5.4009 8.6518 1.2523 0.9597
0.6531 8.6810 1.0689 0.9655
-0.3968 8.6875 1.0678 0.9656
-2.5692 8.7008 1.1139 0.9641
-3.7628 8.7082 1.1648 0.9625
-5.0908 8.7163 1.2394 0.9601
-54.8903 18.0524 7.0948 0.7923
-83.5588 -13.9332 10.4014 0.7108
-25.5531 -31.5270 4.9829 0.8491
-20.7257 -33.0300 4.7879 0.8546
-14.8559 -31.5856 4.2858 0.8688
-11.0695 -33.5271 4.3352 0.8674
-6.8183 -33.9570 4.2526 0.8697
-6.6374 -85.5671 10.5379 0.7076
20.5784 -47.9292 6.4045 0.8104
56.6336 -35.6279 8.2153 0.7637
56.8460 -26.8174 7.7175 0.7762
61.3069 -4.8271 7.5508 0.7805
61.3491 2.5885 7.5394 0.7808
57.3729 16.7248 7.3377 0.7860
44.7561 19.1547 5.9775 0.8219
34.0364 19.7206 4.8299 0.8534
8.9604 8.6300 1.5275 0.9511
7.0376 8.6418 1.3684 0.9561
5.4566 8.6515 1.2559 0.9596
2.8840 8.6673 1.1216 0.9639
0.6931 8.6743 1.0685 0.9655
-1.4186 8.6937 1.0816 0.9651
-3.7148 8.7079 1.1624 0.9626
-8.3949 8.7366 1.4877 0.9523
-82.8428 27.6713 10.7242 0.7033
-25.7948 -31.5255 5.0015 0.8486
-20.7236 -32.6894 4.7524 0.8556
-7.0361 -85.5647 10.5415 0.7075
24.7407 -85.9810 10.9855 0.6973
21.9299 -29.3070 4.4943 0.8629
40.5077 -42.3521 7.1958 0.7896
51.5359 -42.2676 8.1838 0.7644
59.0661 -19.8817 7.6522 0.7779
61.2120 2.2987 7.5212 0.7812
59.2436 9.4560 7.3663 0.7852
57.3711 16.4364 7.3277 0.7862
34.3989 19.7184 4.8684 0.8523
11.5397 8.6141 1.7681 0.9436
9.0433 8.6295 1.5348 0.9509
7.1041 8.6414 1.3735 0.9559
5.5126 8.6512 1.2596 0.9595
1.8045 8.6739 1.0878 0.9649
0.7308 8.6418 1.0649 0.9657
-0.3161 8.6870 1.0673 0.9656
-1.3773 8.6935 1.0807 0.9651
-4.9826 8.7156 1.2327 0.9603
-10.6187 8.7503 1.6895 0.9461
-20.7215 -32.3535 4.7174 0.8566
-11.4635 -33.6691 4.3671 0.8665
-7.0913 -33.6959 4.2280 0.8704
-2.9246 8.7030 0.8033 0.9638
-4.1533 8.7105 0.8443 0.9620
-9.1300 8.7411 1.1058 0.9505
-15.2560 8.7788 1.5399 0.9318
-38.5317 -7.9027 3.4413 0.8539
-67.7359 -32.2015 6.5617 0.7400
-83.4775 -52.8627 8.6446 0.6725
-5.1480 -31.6799 2.8080 0.8791
18.2317 -54.6728 5.0422 0.7934
25.0565 -39.6693 4.1050 0.8283
57.1494 -33.0621 5.7763 0.7671
57.5060 -24.5667 5.4710 0.7780
61.0886 -17.7644 5.5659 0.7746
61.1363 -10.0074 5.4199 0.7798
61.1822 -2.5411 5.3574 0.7820
61.2742 12.4192 5.4698 0.7780
41.7752 19.7413 4.0424 0.8307
10.5956 8.6199 1.1950 0.9466
8.3238 8.6339 1.0492 0.9530
3.7124 8.6622 0.8245 0.9629
1.4305 8.6762 0.7693 0.9653
0.3707 8.6827 0.7603 0.9657
-0.6798 8.6892 0.7625 0.9656
-2.8797 8.7027 0.8020 0.9639
-11.5774 8.7562 1.2700 0.9434
-20.4933 8.8110 1.9516 0.9143
-50.0228 -23.4972 4.8352 0.8010
-63.0326 -65.0782 7.9264 0.6950
-25.4785 -33.6065 3.6896 0.8442
-19.6133 -33.6324 3.4062 0.8553
-3.7907 -84.2117 7.3750 0.7129
20.2404 -43.2195 4.1753 0.8256
34.0413 -42.1421 4.7396 0.8045
57.0974 -33.3860 5.7867 0.7668
61.1345 -10.2982 5.4239 0.7796
61.2260 4.5758 5.3715 0.7815
61.2724 12.1235 5.4646 0.7782
6.5854 8.6446 0.9508 0.9573
5.0735 8.6539 0.8776 0.9605
3.7599 8.6619 0.8261 0.9628
2.5755 8.6692 0.7912 0.9643
1.4718 8.6760 0.7699 0.9653
-0.6393 8.6890 0.7622 0.9656
-1.7101 8.6955 0.7753 0.9650
-2.8350 8.7025 0.8007 0.9639
-4.0544 8.7099 0.8405 0.9622
-5.4224 8.7184 0.8983 0.9596
-17.8424 22.1933 2.4913 0.8920
-8.9612 8.7401 1.0952 0.9510
-14.9626 8.7955 1.5185 0.9327
-20.2308 8.8094 1.9305 0.9152
-53.4077 -24.7858 5.1514 0.7895
-25.7234 -33.6050 3.7025 0.8437
-19.8219 -33.6312 3.4154 0.8549
-13.8001 -31.5920 3.0161 0.8707
-7.4939 -25.0122 2.2844 0.9005
-5.4495 -31.6780 2.8122 0.8789
-4.1817 -84.2093 7.3764 0.7128
33.7227 -42.1457 4.7223 0.8051
43.0831 -42.2153 5.2772 0.7849
54.1735 -41.5675 5.9740 0.7602
57.0129 18.3539 5.2401 0.7862
41.8930 19.3242 4.0363 0.8309
10.7970 8.6187 1.2087 0.9460
6.6486 8.6442 0.9541 0.9572
0.4513 8.6823 0.7606 0.9657
-0.5988 8.6887 0.7620 0.9656
-1.6682 8.6953 0.7746 0.9651
-2.7903 8.7022 0.7995 0.9640
-5.3663 8.7180 0.8956 0.9597
-6.9248 8.6956 0.9725 0.9563
-8.8780 8.7396 1.0899 0.9512
-14.7720 8.7758 1.5032 0.9333
-25.9700 -33.6035 3.7156 0.8432
-20.0317 -33.6299 3.4246 0.8546
-13.9742 -31.5910 3.0222 0.8705
-9.6434 -31.6523 2.8949 0.8756
-4.5727 -84.2069 7.3780 0.7128
19.9393 -43.6246 4.1964 0.8248
24.4741 -39.9670 4.1002 0.8285
56.6945 -33.8592 5.7773 0.7671
60.3743 -18.4705 5.5237 0.7761
61.1309 -10.8810 5.4323 0.7793
61.2225 4.0055 5.3677 0.7816
61.2688 11.5340 5.4545 0.7785
57.0111 18.0622 5.2322 0.7865
32.3057 19.7313 3.3119 0.8590
6.7123 8.6438 0.9575 0.9570
2.6630 8.6687 0.7934 0.9642
0.4916 8.6820 0.7608 0.9657
-0.5584 8.6885 0.7617 0.9656
-2.7459 8.7019 0.7983 0.9640
-5.3106 8.7177 0.8931 0.9598
-6.8842 8.7273 0.9725 0.9563
-11.2463 8.7541 1.2469 0.9444
-26.2184 -33.6020 3.7288 0.8427
-14.1492 -31.5899 3.0283 0.8702
-4.9640 -84.2045 7.3797 0.7127
26.2375 -83.8258 7.6847 0.7028
24.0835 -39.7414 4.0655 0.8298
33.2460 -42.3484 4.7103 0.8056
53.8511 -42.1184 5.9812 0.7599
56.7705 -34.2623 5.8012 0.7663
61.1291 -11.1730 5.4367 0.7792
61.2670 11.2400 5.4496 0.7787
57.0093 17.7715 5.2244 0.7868
42.5875 19.1680 4.0859 0.8290
11.0029 8.6174 1.2227 0.9454
6.7764 8.6434 0.9609 0.9569
3.9034 8.6610 0.8311 0.9626
1.5960 8.6752 0.7717 0.9652
-1.5847 8.6948 0.7732 0.9651
-2.7015 8.7016 0.7971 0.9641
-8.7140 8.7386 1.0797 0.9517
-14.4619 8.7739 1.4799 0.9343
-26.4685 -33.6005 3.7422 0.8422
-20.3667 -33.4828 3.4288 0.8544
-14.3247 -31.5888 3.0345 0.8700
19.6598 -44.0890 4.2234 0.8238
23.9467 -39.9318 4.0736 0.8295
40.7530 -41.0576 5.0612 0.7927
53.5443 -42.2798 5.9689 0.7604
61.1273 -11.4657 5.4412 0.7790
61.1735 -3.9619 5.3632 0.7818
61.2190 3.4360 5.3644 0.7818
56.1594 10.0343 4.9911 0.7953
33.1477 19.8261 3.3792 0.8563
11.1078 8.6168 1.2299 0.9451
31.4657 31.1599 3.8743 0.8371
5.2906 8.6525 0.8873 0.9601
3.9517 8.6607 0.8329 0.9625
1.6376 8.6750 0.7724 0.9652
0.5724 8.6815 0.7612 0.9657
-0.4775 8.6880 0.7612 0.9657
-1.5431 8.6945 0.7726 0.9652
-3.8592 8.7087 0.8334 0.9625
-26.7204 -33.5989 3.7558 0.8417
-20.5790 -33.4815 3.4383 0.8540
-14.5010 -31.5878 3.0409 0.8697
-7.5705 -23.6639 2.1737 0.9051
-6.0551 -31.6743 2.8213 0.8785
24.4809 -80.8328 7.3892 0.7124
23.6503 -39.8550 4.0546 0.8302
32.4639 -42.1502 4.6546 0.8077
40.3825 -41.0631 5.0387 0.7935
53.0334 -42.2766 5.9337 0.7616
56.7875 -34.9945 5.8358 0.7650
56.9390 -26.2189 5.4843 0.7775
61.1255 -11.7587 5.4458 0.7789
61.1717 -4.2464 5.3647 0.7818
61.2172 3.1515 5.3629 0.7818
57.0057 17.1926 5.2092 0.7874
33.4953 19.8240 3.4052 0.8553
11.2138 8.6161 1.2372 0.9448
8.7673 8.6020 1.0746 0.9519
2.7952 8.6679 0.7968 0.9641
0.6127 8.6813 0.7614 0.9657
-0.4372 8.6877 0.7610 0.9657
-1.5015 8.6943 0.7719 0.9652
-2.6132 8.7011 0.7948 0.9642
-3.8109 8.7084 0.8316 0.9626
-6.6887 8.7261 0.9619 0.9568
-14.1613 8.7721 1.4574 0.9353
-26.9744 -33.5974 3.7695 0.8411
-20.7278 -33.3758 3.4373 0.8541
-5.7517 -78.8858 6.9199 0.7279
25.0170 -84.0051 7.6685 0.7033
23.3469 -39.7626 4.0341 0.8310
39.8298 -40.8785 4.9933 0.7952
61.1237 -12.0525 5.4506 0.7787
61.2155 2.8669 5.3615 0.7819
55.7071 9.4215 4.9430 0.7970
33.8484 19.8218 3.4318 0.8543
8.8782 8.6305 1.0833 0.9515
5.4009 8.6518 0.8923 0.9599
4.0487 8.6601 0.8364 0.9623
0.6531 8.6810 0.7616 0.9656
-0.3968 8.6875 0.7608 0.9657
-8.4737 8.7371 1.0648 0.9523
-10.8231 8.7516 1.2177 0.9456
-14.0145 8.7712 1.4464 0.9358
-18.7102 8.7737 1.8080 0.9204
-27.1824 -33.5371 3.7769 0.8409
-6.3596 -31.6725 2.8263 0.8783
25.3456 -86.5722 7.8920 0.6961
23.1394 -39.8305 4.0301 0.8311
39.5498 -40.9690 4.9820 0.7956
52.0290 -42.2704 5.8649 0.7640
57.1317 -35.9414 5.9052 0.7626
56.0605 -18.5814 5.1671 0.7889
61.1682 -4.8161 5.3681 0.7816
61.2137 2.5828 5.3603 0.7819
55.5683 9.1335 4.9268 0.7976
34.2073 19.8196 3.4588 0.8532
8.9604 8.6300 1.0884 0.9513
7.0376 8.6418 0.9750 0.9562
5.4566 8.6515 0.8949 0.9598
2.8840 8.6673 0.7992 0.9640
-0.3565 8.6872 0.7607 0.9657
-3.7148 8.7079 0.8283 0.9627
-5.0365 8.7160 0.8807 0.9604
-8.3949 8.7366 1.0600 0.9525
-10.7203 8.7509 1.2107 0.9460
-18.5401 8.7990 1.7955 0.9209
-82.9400 27.7038 7.6504 0.7039
-27.3689 -33.4493 3.7812 0.8407
-20.7236 -32.6894 3.3862 0.8561
-15.0369 -31.5895 3.0609 0.8689
-10.6114 -31.6464 2.9202 0.8746
-6.3673 -77.4314 6.7972 0.7320
24.3574 -84.6490 7.7063 0.7021
39.5629 -41.3643 5.0077 0.7947
51.5358 -42.2675 5.8313 0.7652
57.1294 -36.3103 5.9223 0.7620
55.9197 -18.8226 5.1621 0.7891
61.1665 -5.1012 5.3699 0.7816
55.3019 8.8269 4.8995 0.7986
45.3271 19.1511 4.3050 0.8207
34.5716 19.8174 3.4863 0.8521
7.1041 8.6414 0.9787 0.9561
2.9285 8.6670 0.8004 0.9639
0.7308 8.6418 0.7588 0.9658
-0.3161 8.6870 0.7605 0.9657
-1.3773 8.6935 0.7701 0.9653
-2.4817 8.7003 0.7915 0.9643
-4.9826 8.7156 0.8783 0.9605
-6.4972 8.7250 0.9517 0.9573
-8.3170 8.7361 1.0553 0.9527
-10.6187 8.7503 1.2038 0.9463
-18.3177 8.7976 1.7778 0.9216
-83.5051 -13.1300 7.3955 0.7122
-20.7215 -32.3535 3.3614 0.8570
-15.2164 -31.5884 3.0676 0.8687
-10.7745 -31.6454 2.9247 0.8744
-6.6651 -31.6706 2.8315 0.8781
-5.5355 8.7191 0.5413 0.9595
-11.6905 8.7569 0.7655 0.9432
-20.7618 8.8126 1.1820 0.9136
-67.6372 -32.1545 3.9249 0.7408
-30.2585 -31.5314 2.2903 0.8394
-9.6644 -33.3784 1.8211 0.8701
18.2990 -89.7498 4.8004 0.6929
19.9812 -42.1564 2.4449 0.8296
26.2266 -41.5219 2.5738 0.8214
43.8377 -42.1656 3.1877 0.7838
32.2682 -24.2877 2.1166 0.8506
57.5060 -24.5667 3.2772 0.7784
66.1174 -2.7460 3.4681 0.7672
66.0123 13.3796 3.5299 0.7635
25.6704 8.5273 1.4176 0.8973
41.7752 19.7413 2.4215 0.8310
8.3238 8.6339 0.6285 0.9531
6.5226 8.6449 0.5676 0.9575
5.0200 8.6542 0.5243 0.9607
3.7124 8.6622 0.4939 0.9630
1.4287 8.6654 0.4603 0.9654
-1.7490 8.6811 0.4641 0.9652
-2.8775 8.6959 0.4800 0.9640
-4.1038 8.7102 0.5046 0.9622
-5.4788 8.7187 0.5397 0.9596
-11.5773 8.7562 0.7607 0.9435
-20.4933 8.8110 1.1691 0.9145
-30.2440 8.8709 1.6518 0.8814
-37.1298 1.6283 1.9478 0.8617
-53.1056 -24.9453 3.0749 0.7906
-30.5386 -31.5297 2.3004 0.8388
-23.9081 -31.5352 2.0740 0.8534
-17.8281 -30.5712 1.8547 0.8678
-13.6282 -31.5967 1.8034 0.8712
-2.8229 -62.7117 3.2899 0.7777
26.3112 -42.0864 2.6012 0.8197
34.0557 -42.1599 2.8403 0.8049
56.7660 -24.5621 3.2415 0.7806
66.2296 -19.5926 3.6196 0.7583
66.1731 -11.1469 3.5168 0.7643
66.1195 -3.0531 3.4689 0.7671
66.0671 4.9377 3.4721 0.7669
26.0662 8.5248 1.4373 0.8960
41.8945 19.5607 2.4231 0.8309
31.8963 19.8893 1.9700 0.8602
10.6958 8.6193 0.7199 0.9465
8.4009 8.6334 0.6313 0.9529
6.5854 8.6446 0.5695 0.9574
2.5715 8.6556 0.4732 0.9645
1.4699 8.6648 0.4606 0.9654
-1.7073 8.6812 0.4637 0.9652
-4.0544 8.7099 0.5035 0.9622
-8.9612 8.7401 0.6560 0.9511
-11.4657 8.7555 0.7561 0.9439
-53.2437 -24.7097 3.0762 0.7905
-30.8213 -31.5280 2.3107 0.8381
-24.1379 -31.5338 2.0812 0.8529
-18.0177 -30.5700 1.8597 0.8675
-13.8001 -31.5920 1.8067 0.8710
-7.5727 -25.2750 1.3828 0.8997
-6.2716 -36.4570 1.9387 0.8623
24.0087 -51.8906 2.9964 0.7953
25.7349 -41.5921 2.5633 0.8221
33.7324 -42.1579 2.8296 0.8055
43.0833 -42.2154 3.1612 0.7854
31.6484 -24.2839 2.0906 0.8523
56.7936 -33.5625 3.4574 0.7678
34.6225 -15.1717 1.9811 0.8595
66.2319 -19.9274 3.6248 0.7580
66.0691 4.6302 3.4710 0.7670
50.2688 9.7046 2.6831 0.8146
26.4729 8.5223 1.4575 0.8946
41.8930 19.3242 2.4178 0.8313
10.7970 8.6187 0.7240 0.9462
6.6486 8.6442 0.5715 0.9573
5.1274 8.6535 0.5271 0.9605
3.8075 8.6616 0.4959 0.9628
2.6153 8.6560 0.4739 0.9644
1.5111 8.6642 0.4609 0.9654
0.4510 8.6763 0.4553 0.9658
-2.7877 8.6938 0.4785 0.9641
-11.3553 8.7548 0.7514 0.9442
-14.7720 8.7758 0.9005 0.9335
-29.2173 8.8646 1.6001 0.8849
-18.2084 -30.5689 1.8647 0.8672
-13.9742 -31.5909 1.8104 0.8708
-7.6850 -25.2241 1.3819 0.8998
-6.4404 -36.4275 1.9387 0.8623
-3.4044 -62.6931 3.2904 0.7776
24.9374 -40.7236 2.5026 0.8259
42.6834 -42.2129 3.1461 0.7863
56.6945 -33.8592 3.4608 0.7676
66.1773 -11.7792 3.5227 0.7640
66.0711 4.3228 3.4700 0.7670
50.1014 9.4317 2.6718 0.8153
42.0728 19.1712 2.4231 0.8309
32.3057 19.7313 1.9839 0.8593
10.8994 8.6180 0.7282 0.9459
8.5567 8.6321 0.6370 0.9525
3.8553 8.6613 0.4969 0.9627
1.5524 8.6636 0.4613 0.9654
-1.6239 8.6815 0.4629 0.9652
-2.7430 8.6928 0.4777 0.9641
-3.9564 8.7093 0.5013 0.9624
-5.3106 8.7177 0.5350 0.9599
-6.8842 8.7273 0.5825 0.9565
-8.7957 8.7391 0.6498 0.9515
-11.2463 8.7541 0.7469 0.9445
-19.7224 8.8062 1.1320 0.9171
-24.6024 -31.5309 2.0960 0.8520
-3.7002 -62.7670 3.2952 0.7774
66.1794 -12.0961 3.5258 0.7638
27.3220 8.5171 1.4998 0.8917
11.0029 8.6174 0.7324 0.9456
8.5963 8.5920 0.6370 0.9525
2.7034 8.6569 0.4753 0.9643
1.5938 8.6630 0.4616 0.9653
0.5316 8.6756 0.4555 0.9658
-0.5175 8.6818 0.4558 0.9658
-1.5823 8.6817 0.4625 0.9653
-3.9077 8.7090 0.5003 0.9625
-8.7140 8.7386 0.6468 0.9518
-14.4619 8.7739 0.8865 0.9345
-19.4759 8.8047 1.1201 0.9180
-24.8371 -31.5295 2.1035 0.8515
-10.5066 -33.3732 1.8336 0.8692
31.3169 -24.7285 2.0912 0.8523
56.6901 -34.5732 3.4799 0.7665
66.2387 -20.9377 3.6407 0.7571
66.0751 3.7085 3.4683 0.7671
27.7655 8.5144 1.5220 0.8902
32.9821 19.7271 2.0141 0.8573
11.1078 8.6168 0.7368 0.9452
2.7476 8.6573 0.4760 0.9643
0.5719 8.6753 0.4556 0.9658
-0.4772 8.6817 0.4557 0.9658
-1.5408 8.6818 0.4621 0.9653
-6.7534 8.7265 0.5783 0.9568
-8.6331 8.7381 0.6438 0.9520
-62.8630 49.8750 4.2055 0.7251
-14.3105 8.7730 0.8797 0.9350
-27.7920 8.8558 1.5287 0.8897
-25.0735 -31.5280 2.1111 0.8510
-18.7866 -30.5653 1.8802 0.8661
-6.4718 -33.8538 1.8063 0.8710
-5.7389 -84.0832 4.4169 0.7135
22.1978 -50.4070 2.8865 0.8020
24.6756 -41.5828 2.5341 0.8239
31.3155 -24.9637 2.0988 0.8518
66.2409 -21.2764 3.6462 0.7568
49.6036 8.6260 2.6386 0.8174
28.2220 8.5116 1.5449 0.8886
31.6173 18.7125 1.9254 0.8632
11.2138 8.6161 0.7411 0.9449
8.7673 8.6020 0.6437 0.9520
6.9060 8.6426 0.5798 0.9567
5.3456 8.6522 0.5330 0.9601
4.0001 8.6604 0.4999 0.9625
2.7919 8.6578 0.4767 0.9642
1.6767 8.6617 0.4624 0.9653
0.6123 8.6749 0.4558 0.9658
-0.4368 8.6816 0.4556 0.9658
-1.4994 8.6819 0.4617 0.9653
-2.6098 8.6898 0.4755 0.9643
-3.8109 8.7084 0.4982 0.9626
-5.1453 8.7167 0.5305 0.9603
-6.6887 8.7261 0.5762 0.9569
-10.8873 8.7204 0.7310 0.9457
-18.9960 8.8006 1.0972 0.9196
-27.3449 8.8531 1.5063 0.8913
-18.9816 -30.5641 1.8856 0.8658
25.0721 -84.1900 4.6037 0.7034
31.1279 -40.8056 2.6897 0.8142
66.1316 -4.8988 3.4753 0.7667
66.0791 3.0947 3.4668 0.7672
11.2802 8.5843 0.7429 0.9448
8.8782 8.6305 0.6489 0.9516
6.9715 8.6422 0.5819 0.9565
2.8364 8.6583 0.4775 0.9642
-2.5657 8.6888 0.4748 0.9644
-5.0908 8.7163 0.5290 0.9604
-10.8231 8.7516 0.7294 0.9458
-14.0145 8.7712 0.8665 0.9359
-26.9064 8.8490 1.4844 0.8927
-6.7373 -33.5536 1.7936 0.8719
-6.0065 -77.4336 4.0703 0.7326
4.2808 -98.7424 5.1797 0.6731
25.3624 -86.6294 4.7306 0.6966
30.8285 -40.8037 2.6802 0.8148
31.3125 -25.4395 2.1143 0.8508
57.1317 -35.9414 3.5374 0.7631
57.1844 -26.9770 3.3136 0.7763
66.1879 -13.3698 3.5388 0.7630
66.0811 2.7881 3.4662 0.7673
49.9052 8.2027 2.6505 0.8166
29.1780 8.5057 1.5928 0.8854
44.7561 19.1547 2.5513 0.8228
4.0976 8.6598 0.5021 0.9624
0.6931 8.6741 0.4560 0.9657
-0.3562 8.6813 0.4553 0.9658
-1.4167 8.6821 0.4610 0.9654
-3.7148 8.7079 0.4962 0.9628
-8.3949 8.7366 0.6350 0.9526
-13.8696 8.7703 0.8600 0.9364
-26.4887 8.8478 1.4636 0.8942
-19.3747 -30.5617 1.8964 0.8651
24.4809 -85.0781 4.6397 0.7014
21.8871 -51.6356 2.9392 0.7988
21.9218 -29.2961 1.9176 0.8637
31.3111 -25.6800 2.1223 0.8503
66.1357 -5.5156 3.4781 0.7666
50.0287 7.9852 2.6551 0.8163
29.6784 8.5026 1.6180 0.8837
11.5397 8.6141 0.7547 0.9440
9.0433 8.6295 0.6551 0.9512
5.5126 8.6512 0.5376 0.9597
4.1467 8.6595 0.5032 0.9623
1.8015 8.6598 0.4636 0.9652
-2.4778 8.6869 0.4734 0.9645
-6.4972 8.7250 0.5701 0.9574
-8.3170 8.7361 0.6321 0.9528
-10.6187 8.7503 0.7211 0.9464
-13.7271 8.7694 0.8537 0.9368
-26.0782 8.8453 1.4432 0.8956
-83.5957 -13.1443 4.4349 0.7125
-61.9645 -17.5971 3.3758 0.7726
-14.9193 -30.9717 1.8017 0.8714
-7.1352 8.7087 0.1965 0.9560
-20.7499 8.8076 0.3935 0.9138
-38.5128 -7.8988 0.6862 0.8545
-23.4109 -31.1784 0.6806 0.8556
-13.6307 -32.0095 0.6073 0.8701
-9.0357 -31.2071 0.5671 0.8781
-3.4553 -85.5838 1.4951 0.7099
41.4743 -87.5027 1.6902 0.6788
31.9456 -39.1750 0.8823 0.8169
31.2840 -30.0907 0.7577 0.8406
32.2682 -24.2877 0.7050 0.8508
42.0869 -24.3481 0.8487 0.8232
31.8976 20.0959 0.6581 0.8600
10.5956 8.6199 0.2384 0.9468
8.3238 8.6339 0.2093 0.9532
6.5226 8.6449 0.1890 0.9576
3.7037 8.6420 0.1641 0.9631
1.4235 8.6338 0.1527 0.9656
0.3707 8.6827 0.1517 0.9658
-2.8797 8.7027 0.1600 0.9640
-4.0943 8.6902 0.1677 0.9623
-18.0131 22.1944 0.4989 0.8919
-15.0831 8.7726 0.3046 0.9326
-20.4809 8.8056 0.3891 0.9147
-62.7701 -64.8073 1.5748 0.6970
-23.6365 -31.1770 0.6829 0.8551
-20.4512 -35.0693 0.7086 0.8501
-13.6282 -31.5967 0.6006 0.8714
-9.1924 -31.2061 0.5678 0.8780
28.7052 -87.4281 1.6062 0.6920
27.1748 -43.4677 0.8948 0.8146
31.6423 -39.1722 0.8790 0.8175
31.2822 -30.3693 0.7610 0.8399
31.9564 -24.2858 0.7006 0.8517
41.6358 -24.3453 0.8419 0.8245
47.4883 -20.5478 0.9032 0.8130
83.5856 -24.7271 1.5215 0.7056
26.0404 8.5164 0.4782 0.8962
31.8963 19.8893 0.6561 0.8604
10.6958 8.6193 0.2398 0.9465
3.7511 8.6417 0.1644 0.9630
1.4646 8.6336 0.1529 0.9656
-0.6393 8.6890 0.1521 0.9657
-2.8350 8.7025 0.1598 0.9640
-5.3992 8.6810 0.1784 0.9599
-8.9612 8.7401 0.2185 0.9512
-14.9626 8.7955 0.3030 0.9329
-20.2179 8.8037 0.3849 0.9156
-29.7225 8.8677 0.5414 0.8833
-76.6805 -5.5523 1.3420 0.7352
-67.8109 -69.3655 1.6932 0.6784
-20.5784 -34.9146 0.7074 0.8503
-13.8001 -31.5920 0.6018 0.8712
-9.3494 -31.2052 0.5686 0.8778
28.4767 -88.1075 1.6162 0.6904
38.7407 -83.7314 1.6104 0.6914
27.1720 -43.9147 0.9014 0.8133
31.2805 -30.6504 0.7644 0.8393
34.6187 -15.1700 0.6597 0.8597
82.1551 -24.7183 1.4975 0.7095
26.4685 8.5209 0.4854 0.8947
43.7074 20.1611 0.8402 0.8248
31.9750 19.7333 0.6559 0.8604
10.7970 8.6187 0.2411 0.9462
8.4786 8.6329 0.2112 0.9527
6.6486 8.6442 0.1904 0.9573
2.6096 8.6370 0.1575 0.9645
1.5058 8.6334 0.1530 0.9655
0.4513 8.6823 0.1518 0.9658
-0.5988 8.6887 0.1520 0.9658
-1.6682 8.6953 0.1545 0.9652
-11.3553 8.7548 0.2503 0.9443
-14.7720 8.7758 0.2999 0.9336
-19.9604 8.8019 0.3808 0.9164
-53.5205 -24.5375 1.0277 0.7901
-24.0925 -31.1742 0.6877 0.8542
-20.7366 -34.8134 0.7073 0.8503
-13.9742 -31.5909 0.6030 0.8709
-6.6967 -37.8774 0.6714 0.8574
-4.5727 -84.2069 1.4720 0.7136
28.4681 -89.4955 1.6393 0.6868
38.2885 -83.7701 1.6077 0.6918
27.3256 -44.6236 0.9133 0.8111
31.3076 -24.2536 0.6913 0.8535
80.7682 -24.7097 1.4743 0.7133
44.2382 20.1579 0.8486 0.8233
32.3058 19.7313 0.6608 0.8595
10.8994 8.6180 0.2425 0.9459
8.5567 8.6321 0.2122 0.9525
5.1815 8.6532 0.1760 0.9605
2.6539 8.6391 0.1578 0.9645
1.5470 8.6331 0.1531 0.9655
-0.5584 8.6885 0.1520 0.9658
-1.6264 8.6950 0.1544 0.9652
-6.8549 8.6902 0.1932 0.9567
-8.7957 8.7391 0.2164 0.9516
-11.2463 8.7541 0.2488 0.9446
-19.7085 8.8001 0.3767 0.9173
-24.3230 -31.1728 0.6902 0.8537
-9.6648 -31.2032 0.5702 0.8775
27.3228 -45.0867 0.9202 0.8098
30.7459 -39.1638 0.8691 0.8194
31.2770 -31.2201 0.7714 0.8380
31.3183 -24.4949 0.6940 0.8529
40.3253 -24.3373 0.8221 0.8283
27.3220 8.5171 0.4995 0.8918
32.6414 19.7293 0.6657 0.8585
11.0029 8.6174 0.2439 0.9456
8.5963 8.5920 0.2121 0.9525
6.7764 8.6434 0.1917 0.9570
3.8943 8.6409 0.1654 0.9628
-1.5847 8.6948 0.1543 0.9653
-5.2378 8.6885 0.1771 0.9602
-8.7140 8.7386 0.2154 0.9518
-19.4617 8.7983 0.3728 0.9181
-28.2526 8.8587 0.5168 0.8883
-66.1772 -29.6009 1.2654 0.7482
-24.5550 -31.1714 0.6926 0.8532
-14.3247 -31.5888 0.6054 0.8704
28.4503 -92.3945 1.6875 0.6793
31.2752 -31.5091 0.7749 0.8373
31.3169 -24.7285 0.6965 0.8525
39.8978 -24.3322 0.8157 0.8295
77.9587 -24.6424 1.4271 0.7210
45.3319 20.1511 0.8659 0.8200
5.2906 8.6525 0.1770 0.9602
3.9425 8.6406 0.1658 0.9627
0.5724 8.6815 0.1519 0.9658
-1.5431 8.6945 0.1541 0.9653
-6.7244 8.6892 0.1918 0.9570
-19.2202 8.7965 0.3690 0.9189
-66.5969 -29.4192 1.2708 0.7473
-24.7887 -31.1699 0.6951 0.8527
-20.7299 -33.7271 0.6910 0.8535
-14.5009 -31.5877 0.6067 0.8702
-6.6787 -34.9362 0.6209 0.8674
28.4410 -93.9085 1.7127 0.6753
27.1607 -45.7705 0.9290 0.8082
31.3155 -24.9637 0.6990 0.8520
76.8550 -24.6856 1.4090 0.7240
28.2220 8.5116 0.5145 0.8888
45.8957 20.1477 0.8749 0.8183
33.3281 19.7250 0.6760 0.8565
11.2138 8.6161 0.2468 0.9450
8.7673 8.6020 0.2144 0.9521
2.7880 8.6455 0.1586 0.9643
0.6127 8.6813 0.1519 0.9658
-1.5015 8.6943 0.1540 0.9653
-2.6132 8.7011 0.1586 0.9643
-3.8020 8.6882 0.1655 0.9628
-10.8873 8.7204 0.2435 0.9457
-14.1613 8.7721 0.2908 0.9355
-27.3449 8.8531 0.5017 0.8914
-60.1071 -17.9760 1.0951 0.7780
-67.4428 -29.4203 1.2843 0.7450
-25.0243 -31.1685 0.6977 0.8522
-6.6733 -34.0512 0.6057 0.8704
-4.8464 -66.4691 1.1633 0.7660
28.1866 -64.8195 1.2338 0.7537
29.8693 -39.1557 0.8596 0.8212
31.2702 -32.0935 0.7821 0.8359
39.0495 -24.3142 0.8029 0.8319
75.4693 -24.6271 1.3857 0.7279
93.2673 -18.3906 1.6593 0.6836
28.6925 8.5087 0.5224 0.8872
11.2802 8.5843 0.2474 0.9449
6.9715 8.6422 0.1938 0.9566
5.4009 8.6518 0.1780 0.9600
4.0393 8.6401 0.1665 0.9626
2.8327 8.6470 0.1588 0.9643
1.7125 8.6322 0.1536 0.9654
0.6531 8.6810 0.1520 0.9658
-2.5692 8.7008 0.1584 0.9644
-5.0789 8.6960 0.1758 0.9605
-6.5959 8.6882 0.1904 0.9573
-8.4737 8.7371 0.2124 0.9525
-10.8231 8.7516 0.2429 0.9458
-14.0145 8.7712 0.2886 0.9360
-18.7102 8.7737 0.3607 0.9207
-60.1207 -17.6772 1.0938 0.7783
-68.3069 -29.4214 1.2982 0.7426
-14.8559 -31.5855 0.6093 0.8697
31.2648 -32.3867 0.7857 0.8352
31.3125 -25.4395 0.7042 0.8510
38.6439 -24.3108 0.7969 0.8331
51.7374 -24.4074 0.9985 0.7954
74.2785 -24.6198 1.3659 0.7312
93.5286 -18.8925 1.6655 0.6827
12.1343 9.1458 0.2652 0.9410
7.0376 8.6418 0.1945 0.9564
5.4566 8.6515 0.1785 0.9599
4.0881 8.6398 0.1668 0.9625
-0.3565 8.6872 0.1518 0.9658
-1.4186 8.6937 0.1538 0.9654
-8.3949 8.7366 0.2115 0.9527
-10.7203 8.7509 0.2416 0.9461
-13.8696 8.7703 0.2864 0.9365
-60.1344 -17.3790 1.0926 0.7785
-10.4611 -31.1983 0.5744 0.8767
-6.8989 -33.5526 0.5979 0.8719
-5.4619 -66.4214 1.1633 0.7660
21.9181 -29.2912 0.6386 0.8638
31.3111 -25.6800 0.7068 0.8504
51.1144 -24.4036 0.9887 0.7972
34.3990 19.7184 0.6921 0.8533
12.1752 9.0885 0.2652 0.9410
5.5126 8.6512 0.1791 0.9598
2.9216 8.6465 0.1593 0.9641
0.7308 8.6418 0.1514 0.9659
-0.3161 8.6870 0.1517 0.9658
-1.3773 8.6935 0.1536 0.9654
-2.4817 8.7003 0.1579 0.9645
-3.6586 8.6873 0.1645 0.9630
-4.9714 8.6960 0.1748 0.9607
-10.6187 8.7503 0.2402 0.9464
-13.7271 8.7694 0.2843 0.9369
-18.2853 8.7821 0.3541 0.9221
-83.6984 -13.1604 1.4789 0.7125
-25.7412 -31.1641 0.7055 0.8507
-20.7215 -32.3535 0.6706 0.8575
-7.0610 -33.5516 0.5985 0.8718
-2.9246 8.7030 -0.1603 0.9639
-4.1331 8.6680 -0.1676 0.9623
-5.4934 8.6526 -0.1789 0.9598
-7.1352 8.7087 -0.1965 0.9560
-9.1300 8.7411 -0.2206 0.9507
-11.6905 8.7569 -0.2550 0.9432
-15.2330 8.7655 -0.3068 0.9321
-20.6247 8.7545 -0.3911 0.9143
-30.6750 8.8432 -0.5572 0.8801
-56.3768 9.0943 -0.9968 0.7958
-76.0947 -6.2192 -1.3327 0.7368
-38.5031 -7.8968 -0.6861 0.8545
-76.2822 -25.5360 -1.4041 0.7248
-63.6894 -40.3317 -1.3159 0.7396
-11.3313 -19.6392 -0.3958 0.9133
-8.2881 -19.4634 -0.3693 0.9189
-3.5588 -21.9003 -0.3873 0.9151
41.9306 -88.4652 -1.7088 0.6759
26.4492 -41.8742 -0.8645 0.8203
31.2840 -30.0907 -0.7577 0.8406
32.2682 -24.2877 -0.7050 0.8508
42.0869 -24.3481 -0.8487 0.8232
48.6860 -20.7987 -0.9241 0.8091
85.7350 -24.9315 -1.5585 0.6996
25.4711 8.4611 -0.4685 0.8982
5.0200 8.6542 -0.1746 0.9608
2.5150 8.6115 -0.1566 0.9647
1.4168 8.5928 -0.1520 0.9658
0.3707 8.6827 -0.1517 0.9658
-0.6798 8.6892 -0.1521 0.9657
-1.7520 8.6958 -0.1548 0.9651
-2.8797 8.7027 -0.1600 0.9640
-5.4389 8.6552 -0.1784 0.9599
-18.0131 22.1944 -0.4989 0.8919
-9.0452 8.7406 -0.2196 0.9509
-11.5773 8.7562 -0.2534 0.9436
-20.3587 8.7531 -0.3868 0.9152
-27.8061 8.1559 -0.5058 0.8905
-41.2643 -8.2641 -0.7346 0.8450
-53.0010 -24.8961 -1.0221 0.7912
-24.4646 -25.2586 -0.6138 0.8688
-15.2012 -20.0507 -0.4392 0.9042
-11.3995 -19.5477 -0.3950 0.9134
-8.4518 -19.5955 -0.3725 0.9182
-6.0763 -20.6277 -0.3754 0.9176
-3.6637 -21.9046 -0.3877 0.9150
-1.2579 -27.9449 -0.4883 0.8941
28.6756 -87.3379 -1.6045 0.6923
37.1165 -79.2551 -1.5276 0.7046
27.1746 -43.4673 -0.8948 0.8146
31.2822 -30.3693 -0.7610 0.8399
31.9564 -24.2858 -0.7006 0.8517
41.6358 -24.3453 -0.8419 0.8245
84.2760 -24.9313 -1.5341 0.7036
39.4539 18.4212 -0.7600 0.8401
31.8963 19.8893 -0.6561 0.8604
10.6958 8.6193 -0.2398 0.9465
6.5854 8.6446 -0.1897 0.9575
5.0735 8.6539 -0.1751 0.9607
2.5590 8.6136 -0.1568 0.9647
0.4110 8.6825 -0.1517 0.9658
-1.7101 8.6955 -0.1547 0.9652
-5.3848 8.6578 -0.1780 0.9600
-17.8424 22.1933 -0.4971 0.8923
-11.4657 8.7555 -0.2518 0.9439
-14.9626 8.7955 -0.3030 0.9329
-90.2153 4.3752 -1.5766 0.6967
-50.4428 -9.8594 -0.8971 0.8141
-53.0580 -24.6235 -1.0210 0.7914
-6.1718 -20.5994 -0.3754 0.9176
-6.7034 -38.9670 -0.6902 0.8537
30.9851 -30.3609 -0.7572 0.8407
31.6484 -24.2839 -0.6963 0.8525
41.1919 -24.3426 -0.8352 0.8258
34.6128 -15.1674 -0.6596 0.8597
85.9988 -14.8966 -1.5235 0.7053
95.2431 6.6747 -1.6665 0.6825
26.2877 8.4627 -0.4820 0.8954
31.9751 19.7333 -0.6559 0.8604
10.7970 8.6187 -0.2411 0.9462
5.1274 8.6535 -0.1756 0.9606
0.4513 8.6823 -0.1518 0.9658
-0.5988 8.6887 -0.1520 0.9658
-3.9859 8.6675 -0.1665 0.9626
-5.3309 8.6604 -0.1775 0.9601
-8.8780 8.7396 -0.2175 0.9514
-66.4801 3.5328 -1.1620 0.7662
-67.7081 -4.5875 -1.1846 0.7622
-53.2466 -24.4119 -1.0224 0.7911
-15.7283 -20.3515 -0.4490 0.9022
-11.6711 -19.5941 -0.3981 0.9128
-6.3172 -20.7348 -0.3784 0.9169
-3.8462 -21.7549 -0.3856 0.9154
29.4752 -64.4878 -1.2376 0.7530
31.2788 -30.9340 -0.7679 0.8386
31.3076 -24.2536 -0.6913 0.8535
56.8451 -25.2242 -1.0855 0.7797
81.0383 -24.7923 -1.4792 0.7125
48.8792 9.2016 -0.8682 0.8196
26.7852 8.4861 -0.4904 0.8937
40.3174 18.3713 -0.7734 0.8376
10.8994 8.6180 -0.2425 0.9459
6.7123 8.6438 -0.1910 0.9572
5.1815 8.6532 -0.1760 0.9605
3.8366 8.6192 -0.1647 0.9630
1.5396 8.5920 -0.1524 0.9657
0.4916 8.6820 -0.1518 0.9658
-1.6264 8.6950 -0.1544 0.9652
-3.9384 8.6698 -0.1662 0.9626
-8.7957 8.7391 -0.2164 0.9516
-14.6158 8.7749 -0.2976 0.9341
-19.6486 8.7733 -0.3756 0.9175
-64.6026 3.7333 -1.1295 0.7719
-70.2604 -4.4334 -1.2288 0.7545
-15.9059 -20.3854 -0.4513 0.9017
-11.8297 -19.6526 -0.4004 0.9123
-8.6773 -19.3733 -0.3705 0.9186
-3.9449 -21.7254 -0.3854 0.9155
-1.5927 -27.0171 -0.4724 0.8974
28.3711 -90.6425 -1.6579 0.6839
31.2770 -31.2201 -0.7714 0.8380
46.5559 -20.9171 -0.8909 0.8153
79.6368 -24.7675 -1.4557 0.7163
74.0402 4.4998 -1.2948 0.7432
27.3000 8.5102 -0.4991 0.8919
40.7604 18.3457 -0.7802 0.8363
32.6414 19.7292 -0.6657 0.8585
8.5963 8.5920 -0.2121 0.9525
3.8844 8.6189 -0.1650 0.9629
2.6918 8.6198 -0.1576 0.9645
1.5807 8.5918 -0.1525 0.9657
-0.5179 8.6882 -0.1519 0.9658
-2.7015 8.7016 -0.1590 0.9642
-3.8910 8.6720 -0.1659 0.9627
-6.7488 8.6377 -0.1913 0.9571
-8.7140 8.7386 -0.2154 0.9518
-11.0963 8.7203 -0.2463 0.9451
-14.4619 8.7739 -0.2953 0.9346
-19.4292 8.7836 -0.3722 0.9182
-74.3765 -4.3471 -1.3005 0.7423
-50.1242 -9.0756 -0.8891 0.8156
-1.6483 -25.9171 -0.4533 0.9013
27.9909 -90.9027 -1.6602 0.6835
21.9654 -36.6280 -0.7455 0.8429
30.2841 -38.9455 -0.8611 0.8209
53.6841 -24.4194 -1.0294 0.7898
79.2287 -25.0438 -1.4504 0.7172
48.8763 8.7329 -0.8666 0.8199
27.7655 8.5144 -0.5069 0.8903
32.9822 19.7271 -0.6708 0.8575
6.8410 8.6430 -0.1924 0.9569
5.2906 8.6525 -0.1770 0.9602
3.9334 8.6207 -0.1654 0.9628
1.6218 8.5915 -0.1526 0.9656
0.5724 8.6815 -0.1519 0.9658
-2.6573 8.7014 -0.1588 0.9643
-3.8438 8.6742 -0.1656 0.9628
-6.6844 8.6374 -0.1906 0.9572
-8.6331 8.7381 -0.2144 0.9520
-19.2139 8.7937 -0.3688 0.9189
-57.6380 3.8671 -1.0083 0.7937
-90.2734 -4.8568 -1.5780 0.6965
-67.0381 -29.6141 -1.2792 0.7459
-16.2387 -20.4190 -0.4554 0.9009
-12.1029 -19.6912 -0.4034 0.9117
-6.5602 -20.5060 -0.3758 0.9175
-4.1679 -21.8024 -0.3875 0.9150
-1.7579 -25.7553 -0.4506 0.9019
27.5858 -91.0849 -1.6612 0.6834
37.3879 -84.9008 -1.6193 0.6900
29.9936 -38.9428 -0.8580 0.8215
76.8551 -24.6857 -1.4090 0.7240
28.2220 8.5116 -0.5145 0.8888
11.2138 8.6161 -0.2468 0.9450
8.7673 8.6020 -0.2144 0.9521
6.9060 8.6426 -0.1931 0.9567
5.3456 8.6522 -0.1775 0.9601
3.9828 8.6230 -0.1658 0.9627
1.6630 8.5912 -0.1527 0.9656
-0.4372 8.6877 -0.1518 0.9658
-1.5015 8.6943 -0.1540 0.9653
-2.6132 8.7011 -0.1586 0.9643
-3.7968 8.6764 -0.1653 0.9628
-14.1613 8.7721 -0.2908 0.9355
-18.9960 8.8006 -0.3654 0.9197
-27.3449 8.8531 -0.5017 0.8914
-57.8420 4.1500 -1.0122 0.7929
-90.2707 -4.4374 -1.5776 0.6966
-76.1935 -33.2376 -1.4510 0.7171
-62.8995 -37.0301 -1.2740 0.7468
-16.5528 -20.6170 -0.4615 0.8996
-12.1586 -19.5777 -0.4023 0.9119
-14.6781 -31.5866 -0.6080 0.8699
27.5847 -92.6270 -1.6869 0.6793
28.1812 -64.8073 -1.2335 0.7537
29.7049 -38.9401 -0.8549 0.8221
31.3140 -25.2008 -0.7016 0.8515
52.3730 -24.4113 -1.0086 0.7936
73.7451 3.4537 -1.2886 0.7443
48.8734 8.2658 -0.8652 0.8201
42.1377 18.2657 -0.8016 0.8322
11.2802 8.5843 -0.2474 0.9449
8.8782 8.6305 -0.2161 0.9517
2.8258 8.6259 -0.1584 0.9643
0.6531 8.6810 -0.1520 0.9658
-0.3968 8.6875 -0.1518 0.9658
-2.5692 8.7008 -0.1584 0.9644
-3.7500 8.6786 -0.1650 0.9629
-5.0656 8.6732 -0.1753 0.9606
-8.4737 8.7371 -0.2124 0.9525
-10.8231 8.7516 -0.2429 0.9458
-14.0145 8.7712 -0.2886 0.9360
-18.5270 8.6878 -0.3572 0.9214
-26.9064 8.8490 -0.4944 0.8929
-57.6347 4.4035 -1.0089 0.7935
-76.1304 -12.6946 -1.3472 0.7343
-60.5783 -17.8117 -1.1022 0.7768
-65.3491 -49.4925 -1.4309 0.7204
-16.9119 -20.8656 -0.4688 0.8981
-11.0695 -33.5271 -0.6163 0.8683
-4.3467 -21.6481 -0.3854 0.9155
37.5607 -87.4825 -1.6618 0.6833
27.1545 -46.7419 -0.9436 0.8055
31.2698 -32.3919 -0.7859 0.8352
94.2967 -19.0477 -1.6792 0.6805
29.1780 8.5057 -0.5305 0.8855
42.6139 18.2378 -0.8091 0.8307
12.1343 9.1458 -0.2652 0.9410
8.9604 8.6300 -0.2171 0.9514
4.0824 8.6277 -0.1666 0.9625
2.8701 8.6256 -0.1587 0.9643
0.6931 8.6743 -0.1519 0.9658
-1.4186 8.6937 -0.1538 0.9654
-3.7033 8.6808 -0.1647 0.9629
-5.0117 8.6729 -0.1748 0.9607
-6.4938 8.6365 -0.1886 0.9577
-8.3949 8.7366 -0.2115 0.9527
-13.8696 8.7703 -0.2864 0.9365
-57.8387 4.6887 -1.0129 0.7928
-60.6309 -17.5225 -1.1016 0.7769
-64.9226 -48.6979 -1.4166 0.7228
-4.4461 -21.6237 -0.3853 0.9155
-2.0332 -24.7259 -0.4330 0.9055
21.9127 -29.2840 -0.6384 0.8639
74.5838 -25.1050 -1.3736 0.7299
73.8424 2.7730 -1.2898 0.7441
46.7301 7.4587 -0.8260 0.8275
29.6784 8.5026 -0.5389 0.8838
7.1041 8.6414 -0.1953 0.9562
5.5126 8.6512 -0.1791 0.9598
4.1325 8.6300 -0.1670 0.9624
-0.3161 8.6870 -0.1517 0.9658
-1.3773 8.6935 -0.1536 0.9654
-2.4817 8.7003 -0.1579 0.9645
-6.4312 8.6362 -0.1880 0.9578
-10.6187 8.7503 -0.2402 0.9464
-26.0782 8.8453 -0.4807 0.8957
-57.5878 12.0498 -1.0270 0.7903
-57.8370 4.9585 -1.0132 0.7928
-60.4173 -17.1576 -1.0963 0.7778
-76.2024 -31.9883 -1.4426 0.7185
-62.4245 -35.5915 -1.2543 0.7502
-64.9960 -48.2838 -1.4133 0.7233
-17.1974 -20.8204 -0.4714 0.8976
-12.6497 -19.7507 -0.4094 0.9104
-9.3138 -19.3352 -0.3746 0.9177
-11.4145 -33.5250 -0.6182 0.8679
-7.0610 -33.5516 -0.5985 0.8718
-2.1676 -24.9435 -0.4370 0.9047
-2.9246 8.7030 -0.4812 0.9639
-4.1296 8.6608 -0.5028 0.9623
-5.4787 8.6295 -0.5357 0.9599
-20.4929 8.6985 -1.1667 0.9147
-44.7928 7.2256 -2.3778 0.8338
-36.9543 -30.2061 -2.5014 0.8260
-23.2761 -24.2553 -1.7618 0.8740
-14.8535 -19.7817 -1.2964 0.9057
-11.1351 -19.2992 -1.1677 0.9146
-5.9148 -20.4282 -1.1146 0.9183
-1.1157 -27.6346 -1.4494 0.8951
3.8328 -47.5746 -2.5014 0.8260
15.0987 -45.2776 -2.5014 0.8260
20.4423 -43.1294 -2.5014 0.8260
23.9375 -37.8978 -2.3492 0.8357
31.1797 -29.9904 -2.2673 0.8409
32.1277 -24.1820 -2.1074 0.8512
41.2207 -17.6096 -2.3492 0.8357
41.7145 -12.1305 -2.2767 0.8403
47.6876 -1.9806 -2.5014 0.8260
47.5790 3.7777 -2.5014 0.8260
25.0312 8.3149 -1.3823 0.8997
26.5249 12.5346 -1.5375 0.8891
26.4599 16.6702 -1.6390 0.8823
10.5956 8.6199 -0.7158 0.9468
8.3238 8.6339 -0.6285 0.9531
6.5226 8.6449 -0.5676 0.9575
2.5088 8.5904 -0.4690 0.9648
1.4101 8.5522 -0.4543 0.9659
0.3707 8.6827 -0.4555 0.9658
-0.6798 8.6892 -0.4568 0.9657
-1.7520 8.6958 -0.4649 0.9651
-2.8797 8.7027 -0.4804 0.9639
-4.0815 8.6630 -0.5019 0.9624
-9.0452 8.7406 -0.6592 0.9509
-15.0831 8.7726 -0.9144 0.9325
-20.2637 8.7122 -1.1560 0.9154
-44.8203 -3.4542 -2.3559 0.8352
-43.8837 -14.4646 -2.4216 0.8310
-43.2001 -20.2924 -2.5014 0.8260
-37.0939 -30.0346 -2.5014 0.8260
-15.1010 -19.9186 -1.3100 0.9047
-8.2968 -19.2360 -1.0979 0.9195
-6.0015 -20.3740 -1.1131 0.9184
-3.6260 -21.6787 -1.1519 0.9157
9.3184 -46.8103 -2.5014 0.8260
28.1667 -34.8695 -2.3492 0.8357
28.3486 -27.5212 -2.0706 0.8536
31.8173 -24.1801 -2.0944 0.8521
38.6952 -22.6258 -2.3492 0.8357
34.7624 -15.0413 -1.9850 0.8592
47.6779 -2.2016 -2.5014 0.8260
47.5960 3.5572 -2.5014 0.8260
43.9721 8.7005 -2.3492 0.8357
26.8421 12.5327 -1.5525 0.8881
10.6958 8.6193 -0.7199 0.9465
8.4009 8.6334 -0.6313 0.9529
6.5854 8.6446 -0.5695 0.9574
3.7380 8.6115 -0.4920 0.9631
0.4110 8.6825 -0.4555 0.9658
-0.6393 8.6890 -0.4566 0.9657
-1.7101 8.6955 -0.4644 0.9651
-4.0336 8.6653 -0.5009 0.9624
-5.3705 8.6348 -0.5329 0.9601
-6.9033 8.5867 -0.5774 0.9568
-11.4657 8.7555 -0.7561 0.9439
-14.9626 8.7955 -0.9096 0.9328
-25.4400 7.5900 -1.3913 0.8991
-44.7391 7.6429 -2.3786 0.8338
-40.6222 -7.9400 -2.1692 0.8472
-43.2937 -20.0920 -2.5014 0.8260
-37.2327 -29.8624 -2.5014 0.8260
-31.3345 -32.0529 -2.3492 0.8357
-11.3212 -19.2084 -1.1685 0.9146
-8.3493 -19.1138 -1.0931 0.9198
-1.3497 -27.1792 -1.4262 0.8967
9.1014 -46.8529 -2.5014 0.8260
14.6785 -45.4156 -2.5014 0.8260
20.0418 -43.3170 -2.5014 0.8260
22.7084 -36.7008 -2.2618 0.8412
28.0048 -34.9991 -2.3492 0.8357
30.8349 -30.2138 -2.2624 0.8412
31.5107 -24.1782 -2.0815 0.8529
38.5899 -22.8049 -2.3492 0.8357
47.0284 -8.1462 -2.5014 0.8260
47.6672 -2.4224 -2.5014 0.8260
47.6120 3.3367 -2.5014 0.8260
44.0119 8.4967 -2.3492 0.8357
25.9306 8.3478 -1.4276 0.8966
27.1654 12.5307 -1.5678 0.8871
10.7970 8.6187 -0.7240 0.9462
8.4786 8.6329 -0.6341 0.9527
6.6486 8.6442 -0.5715 0.9573
2.5967 8.5944 -0.4705 0.9647
1.4915 8.5516 -0.4549 0.9658
0.4513 8.6823 -0.4556 0.9658
-0.5988 8.6887 -0.4564 0.9657
-2.7903 8.7022 -0.4789 0.9641
-6.8379 8.5866 -0.5753 0.9570
-11.3553 8.7548 -0.7514 0.9442
-14.7720 8.7758 -0.9005 0.9335
-19.8177 8.7390 -1.1351 0.9169
-44.7107 7.8514 -2.3790 0.8337
-45.0706 2.3951 -2.3654 0.8346
-44.8656 -3.0398 -2.3567 0.8352
-40.7784 -7.7746 -2.1756 0.8468
-37.3706 -29.6896 -2.5014 0.8260
-31.4827 -31.9074 -2.3492 0.8357
-15.4866 -20.0388 -1.3273 0.9035
-11.5064 -19.3175 -1.1784 0.9139
-6.1958 -20.3363 -1.1141 0.9184
-1.4428 -26.5685 -1.3944 0.8989
8.8843 -46.8946 -2.5014 0.8260
14.4680 -45.4831 -2.5014 0.8260
19.8410 -43.4093 -2.5014 0.8260
23.4085 -38.2268 -2.3492 0.8357
27.8424 -35.1289 -2.3492 0.8357
30.7859 -30.4465 -2.2692 0.8408
38.4839 -22.9834 -2.3492 0.8357
47.6269 3.1160 -2.5014 0.8260
26.4029 8.3650 -1.4515 0.8950
27.4953 12.5287 -1.5835 0.8860
26.4502 16.1549 -1.6243 0.8833
10.8994 8.6180 -0.7282 0.9459
8.5567 8.6321 -0.6370 0.9525
6.7123 8.6438 -0.5735 0.9571
3.8352 8.6161 -0.4943 0.9629
2.6408 8.5965 -0.4713 0.9646
1.5323 8.5513 -0.4553 0.9658
-0.5584 8.6885 -0.4563 0.9657
-1.6264 8.6950 -0.4636 0.9652
-3.9384 8.6698 -0.4990 0.9626
-5.2633 8.6401 -0.5302 0.9603
-6.7731 8.5865 -0.5731 0.9571
-19.6008 8.7520 -1.1250 0.9176
-44.6814 8.0598 -2.3794 0.8337
-44.8897 -2.8326 -2.3572 0.8351
-40.9356 -7.6081 -2.1821 0.8464
-43.1427 -13.5586 -2.3700 0.8343
-40.7898 -24.7835 -2.5014 0.8260
-31.6302 -31.7612 -2.3492 0.8357
-15.6467 -20.0532 -1.3330 0.9031
-8.5283 -19.0407 -1.0934 0.9198
-6.3095 -20.3705 -1.1176 0.9181
14.2571 -45.5496 -2.5014 0.8260
19.6396 -43.5008 -2.5014 0.8260
23.2311 -38.3348 -2.3492 0.8357
27.6793 -35.2576 -2.3492 0.8357
31.2140 -24.4133 -2.0768 0.8532
37.8598 -22.8492 -2.3175 0.8377
40.8874 -18.3703 -2.3492 0.8357
47.6427 -2.8639 -2.5014 0.8260
27.8316 12.5266 -1.5995 0.8849
11.0029 8.6174 -0.7324 0.9456
8.5963 8.5920 -0.6370 0.9525
5.2359 8.6529 -0.5300 0.9603
3.8842 8.6184 -0.4954 0.9628
-0.5179 8.6882 -0.4561 0.9657
-1.5847 8.6948 -0.4632 0.9652
-2.7015 8.7016 -0.4775 0.9642
-6.7087 8.5863 -0.5711 0.9573
-8.7140 8.7386 -0.6468 0.9518
-14.4619 8.7739 -0.8865 0.9345
-19.3875 8.7647 -1.1151 0.9183
-42.9007 -13.2643 -2.3533 0.8354
-43.5688 -19.4883 -2.5014 0.8260
-8.7312 -19.2541 -1.1080 0.9188
-6.3752 -20.2503 -1.1126 0.9185
2.7298 -47.6506 -2.5014 0.8260
8.4494 -46.9749 -2.5014 0.8260
14.0459 -45.6152 -2.5014 0.8260
19.4379 -43.5913 -2.5014 0.8260
23.0533 -38.4420 -2.3492 0.8357
31.1710 -31.4041 -2.3189 0.8376
38.2693 -23.3390 -2.3492 0.8357
38.5033 -12.1707 -2.1163 0.8507
46.9107 -8.7990 -2.5014 0.8260
47.6537 2.6746 -2.5014 0.8260
26.3733 11.7235 -1.5126 0.8908
26.6857 15.9611 -1.6296 0.8829
11.1078 8.6168 -0.7368 0.9452
11.7788 11.6644 -0.8688 0.9358
6.8410 8.6430 -0.5777 0.9568
-1.5431 8.6945 -0.4628 0.9652
-2.6573 8.7014 -0.4768 0.9642
-5.1573 8.6453 -0.5276 0.9605
-6.6448 8.5862 -0.5690 0.9574
-8.6331 8.7381 -0.6438 0.9520
-30.7507 24.3974 -2.0572 0.8545
-18.7056 8.5610 -1.0781 0.9209
-25.4102 8.0969 -1.3977 0.8987
-44.6198 8.4765 -2.3802 0.8337
-37.7797 -29.1673 -2.5014 0.8260
-31.9232 -31.4667 -2.3492 0.8357
-12.0838 -19.6601 -1.2094 0.9117
8.2317 -47.0135 -2.5014 0.8260
27.3515 -35.5126 -2.3492 0.8357
31.1692 -31.6946 -2.3297 0.8369
40.7154 -18.7484 -2.3492 0.8357
47.6142 -3.3052 -2.5014 0.8260
47.6656 2.4539 -2.5014 0.8260
44.1618 7.6797 -2.3492 0.8357
28.2220 8.5116 -1.5449 0.8886
26.3709 11.5765 -1.5093 0.8910
11.2138 8.6161 -0.7411 0.9449
8.7673 8.6020 -0.6437 0.9520
6.9060 8.6426 -0.5798 0.9567
2.7741 8.6026 -0.4737 0.9644
1.6552 8.5507 -0.4564 0.9657
-0.4372 8.6877 -0.4559 0.9658
-1.5015 8.6943 -0.4624 0.9653
-6.5813 8.5861 -0.5670 0.9576
-10.8873 8.7204 -0.7310 0.9457
-14.1613 8.7721 -0.8730 0.9355
-18.5502 8.5941 -1.0714 0.9214
-45.0636 3.2333 -2.3677 0.8345
-44.9559 -2.2099 -2.3589 0.8350
-41.4128 -7.1028 -2.2020 0.8451
-41.1304 -24.2142 -2.5014 0.8260
-37.9144 -28.9919 -2.5014 0.8260
-16.1097 -20.0651 -1.3486 0.9021
-8.8513 -19.0476 -1.1008 0.9193
-6.5786 -20.2394 -1.1153 0.9183
-4.1719 -21.2876 -1.1369 0.9168
-1.8249 -25.0283 -1.3152 0.9044
8.0137 -47.0512 -2.5014 0.8260
13.6226 -45.7434 -2.5014 0.8260
36.0230 -22.4298 -2.2239 0.8437
40.6280 -18.9369 -2.3492 0.8357
47.5983 -3.5259 -2.5014 0.8260
8.8782 8.6305 -0.6489 0.9516
6.9715 8.6422 -0.5819 0.9565
2.8189 8.6047 -0.4745 0.9644
-5.0519 8.6498 -0.5250 0.9607
-10.8231 8.7516 -0.7294 0.9458
-45.0593 3.4427 -2.3683 0.8344
-44.2141 -7.3726 -2.3492 0.8357
-43.0042 -12.6444 -2.3492 0.8357
-43.8354 -18.8810 -2.5014 0.8260
-41.2421 -24.0234 -2.5014 0.8260
-16.5763 -20.4515 -1.3797 0.8999
-8.9061 -18.9355 -1.0967 0.9196
-6.6548 -20.1560 -1.1124 0.9185
-4.2961 -21.3958 -1.1437 0.9163
-1.9204 -24.7575 -1.3014 0.9053
1.9415 -44.7825 -2.3492 0.8357
18.8301 -43.8573 -2.5014 0.8260
31.2082 -25.3548 -2.1073 0.8512
35.7773 -22.5074 -2.2152 0.8443
40.5399 -19.1249 -2.3492 0.8357
38.1870 -12.6572 -2.1084 0.8512
47.5815 -3.7464 -2.5014 0.8260
47.6863 2.0120 -2.5014 0.8260
29.1780 8.5057 -1.5928 0.8854
26.3663 11.2842 -1.5030 0.8915
8.9604 8.6300 -0.6520 0.9514
7.0376 8.6418 -0.5841 0.9563
4.0824 8.6277 -0.5002 0.9625
2.8630 8.6045 -0.4752 0.9643
-0.3565 8.6872 -0.4557 0.9658
-2.5254 8.7006 -0.4748 0.9644
-4.9982 8.6496 -0.5235 0.9608
-6.4557 8.5859 -0.5630 0.9579
-8.3949 8.7366 -0.6350 0.9526
-18.1577 8.6175 -1.0533 0.9226
-44.9848 -1.7938 -2.3594 0.8350
-44.2478 -7.1677 -2.3492 0.8357
-41.3529 -23.8321 -2.5014 0.8260
-32.3573 -31.0201 -2.3492 0.8357
7.5775 -47.1234 -2.5014 0.8260
13.1983 -45.8676 -2.5014 0.8260
18.6268 -43.9440 -2.5014 0.8260
22.3370 -38.8626 -2.3492 0.8357
31.2067 -25.5944 -2.1152 0.8507
47.6951 1.7911 -2.5014 0.8260
29.6784 8.5026 -1.6180 0.8837
27.8320 15.9541 -1.6813 0.8794
7.1041 8.6414 -0.5863 0.9562
5.5126 8.6512 -0.5376 0.9597
2.9073 8.6042 -0.4760 0.9643
-2.4817 8.7003 -0.4741 0.9644
-3.6568 8.6830 -0.4938 0.9630
-4.9447 8.6493 -0.5221 0.9609
-6.3936 8.5858 -0.5610 0.9580
-8.3170 8.7361 -0.6321 0.9528
-17.9665 8.6289 -1.0445 0.9233
-26.0782 8.8453 -1.4432 0.8956
-44.4847 9.3080 -2.3818 0.8336
-45.0477 3.8620 -2.3695 0.8344
-44.2806 -6.9625 -2.3492 0.8357
-43.1196 -12.2453 -2.3492 0.8357
-44.0085 -18.4739 -2.5014 0.8260
-41.4630 -23.6402 -2.5014 0.8260
-16.9953 -20.5757 -1.3986 0.8986
-6.8564 -20.1376 -1.1149 0.9183
-4.1296 8.6608 -0.8394 0.9622
-5.4640 8.6064 -0.8919 0.9599
-7.1352 8.7087 -0.9850 0.9558
-9.1300 8.7411 -1.1058 0.9505
-11.6905 8.7569 -1.2779 0.9430
-25.5023 7.3520 -2.3220 0.8989
-24.2433 3.9108 -2.1484 0.9061
-26.8303 1.0521 -2.3492 0.8978
-28.4956 -2.3289 -2.5014 0.8915
-28.0076 -5.7442 -2.5014 0.8915
-24.1547 -15.2961 -2.5014 0.8915
-14.7404 -19.6312 -2.1478 0.9061
-11.0588 -19.1669 -1.9360 0.9150
-8.1268 -19.0845 -1.8148 0.9201
-5.8547 -20.2207 -1.8417 0.9189
-1.0832 -26.8291 -2.3492 0.8978
2.1562 -26.7642 -2.3492 0.8978
5.7118 -28.0143 -2.5014 0.8915
15.2681 -24.1725 -2.5014 0.8915
20.6058 -19.8198 -2.5014 0.8915
22.7927 -17.1557 -2.4958 0.8918
24.7477 -14.3170 -2.5014 0.8915
26.2919 -11.2320 -2.5014 0.8915
28.2151 -4.6185 -2.5014 0.8915
28.5009 2.2629 -2.5014 0.8915
26.3159 5.3338 -2.3492 0.8978
25.4818 8.4646 -2.3492 0.8978
24.3056 11.4859 -2.3519 0.8977
22.8499 14.3958 -2.3628 0.8972
10.5956 8.6199 -1.1950 0.9466
6.5226 8.6449 -0.9475 0.9574
3.6897 8.6092 -0.8195 0.9631
2.5027 8.5692 -0.7810 0.9648
0.3707 8.6827 -0.7603 0.9657
-1.7520 8.6958 -0.7761 0.9650
-2.8797 8.7027 -0.8020 0.9639
-6.9271 8.5351 -0.9617 0.9568
-9.0452 8.7406 -1.1005 0.9507
-11.5774 8.7562 -1.2700 0.9434
-15.0655 8.7623 -1.5248 0.9324
-25.5031 7.4803 -2.3252 0.8988
-26.4882 4.3989 -2.3492 0.8978
-26.8252 1.1764 -2.3492 0.8978
-28.5032 -2.1967 -2.5011 0.8916
-27.1536 -8.9502 -2.5014 0.8915
-25.8779 -12.1556 -2.5014 0.8915
-24.2254 -15.1841 -2.5014 0.8915
-8.2151 -19.0466 -1.8148 0.9201
-5.9426 -20.1740 -1.8400 0.9190
-1.1925 -26.4920 -2.3201 0.8990
2.0322 -26.7739 -2.3492 0.8978
8.9187 -27.1639 -2.5014 0.8915
12.1256 -25.8920 -2.5014 0.8915
15.1560 -24.2429 -2.5014 0.8915
17.9656 -22.2409 -2.5014 0.8915
20.5137 -19.9151 -2.5014 0.8915
27.4161 -8.1105 -2.5014 0.8915
28.1934 -4.7492 -2.5014 0.8915
28.5602 -1.3188 -2.5014 0.8915
28.5111 2.1308 -2.5014 0.8915
26.3403 5.2118 -2.3492 0.8978
25.5208 8.3465 -2.3492 0.8978
22.9124 14.2873 -2.3624 0.8973
3.7380 8.6115 -0.8213 0.9630
2.5464 8.5712 -0.7823 0.9647
-0.6393 8.6890 -0.7622 0.9656
-2.8350 8.7025 -0.8007 0.9639
-4.0336 8.6653 -0.8362 0.9623
-5.3562 8.6118 -0.8873 0.9601
-6.8623 8.5357 -0.9582 0.9570
-18.6781 8.1333 -1.7823 0.9215
-25.5038 7.6090 -2.3285 0.8986
-26.4675 4.5216 -2.3492 0.8978
-28.4916 -2.0630 -2.4992 0.8916
-28.0597 -5.4845 -2.5014 0.8915
-27.1948 -8.8243 -2.5014 0.8915
-25.9339 -12.0356 -2.5014 0.8915
-15.0575 -19.6712 -2.1673 0.9053
-11.3159 -19.1993 -1.9498 0.9144
-6.0304 -20.1275 -1.8383 0.9191
-3.6772 -21.3755 -1.8976 0.9166
-1.2984 -26.1468 -2.2904 0.9002
1.8366 -25.7793 -2.2611 0.9014
8.7927 -27.2050 -2.5014 0.8915
15.0435 -24.3129 -2.5014 0.8915
20.4212 -20.0099 -2.5014 0.8915
22.6337 -17.3669 -2.4959 0.8918
26.1867 -11.4751 -2.5014 0.8915
27.3783 -8.2374 -2.5014 0.8915
25.5592 8.2282 -2.3492 0.8978
22.9744 14.1786 -2.3620 0.8973
10.7970 8.6187 -1.2087 0.9460
8.4786 8.6329 -1.0586 0.9526
6.6486 8.6442 -0.9541 0.9572
5.1274 8.6535 -0.8800 0.9604
2.5903 8.5732 -0.7835 0.9647
-1.6682 8.6953 -0.7746 0.9651
-3.9859 8.6675 -0.8347 0.9624
-6.7999 8.5388 -0.9550 0.9571
-11.3553 8.7548 -1.2544 0.9441
-18.5408 8.1759 -1.7728 0.9219
-25.5046 7.7382 -2.3318 0.8985
-25.2714 1.3430 -2.2141 0.9034
-28.4792 -1.9296 -2.4973 0.8917
-24.3649 -14.9590 -2.5014 0.8915
-18.8589 -19.1133 -2.3492 0.8978
-15.2182 -19.6914 -2.1773 0.9049
-6.1180 -20.0810 -1.8366 0.9192
-3.7704 -21.3261 -1.8947 0.9167
-1.4016 -25.8105 -2.2614 0.9014
1.7121 -25.7115 -2.2544 0.9017
5.3219 -28.0909 -2.5014 0.8915
11.8852 -26.0032 -2.5014 0.8915
17.7588 -22.4064 -2.5014 0.8915
22.5536 -17.4720 -2.4960 0.8918
24.5463 -14.6596 -2.5014 0.8915
28.1482 -5.0102 -2.5014 0.8915
28.5467 -1.5834 -2.5014 0.8915
26.3875 4.9675 -2.3492 0.8978
25.5970 8.1097 -2.3492 0.8978
24.4496 11.1408 -2.3507 0.8977
10.8994 8.6180 -1.2156 0.9457
6.7123 8.6438 -0.9575 0.9570
3.8352 8.6161 -0.8251 0.9628
-1.6264 8.6950 -0.7739 0.9651
-2.7459 8.7019 -0.7983 0.9640
-5.2494 8.6172 -0.8828 0.9603
-6.7380 8.5420 -0.9518 0.9573
-14.6158 8.7749 -1.4915 0.9338
-18.4050 8.2181 -1.7635 0.9223
-28.4663 -1.7962 -2.4954 0.8918
-28.1093 -5.2243 -2.5014 0.8915
-26.0443 -11.7948 -2.5014 0.8915
-22.4680 -17.6808 -2.5014 0.8915
-18.9472 -19.0257 -2.3492 0.8978
-11.5767 -19.2322 -1.9639 0.9138
-8.4790 -18.9306 -1.8148 0.9201
-6.2055 -20.0346 -1.8350 0.9192
-1.5023 -25.4824 -2.2333 0.9026
8.5403 -27.2853 -2.5014 0.8915
11.7646 -26.0581 -2.5014 0.8915
17.6548 -22.4885 -2.5014 0.8915
20.2350 -20.1982 -2.5014 0.8915
22.4735 -17.5771 -2.4961 0.8918
24.4781 -14.7731 -2.5014 0.8915
