ply
format ascii 1.0
element vertex 1554
property float32 x
property float32 y
property float32 z
property float32 I
end_header
31.5194 -77.0232 4.3615 0.7165
39.3279 -42.1924 3.0228 0.7937
67.9905 -15.0218 3.6492 0.7566
69.6105 1.6561 3.6492 0.7566
54.6821 7.9514 2.8959 0.8015
31.2921 8.4927 1.6993 0.8782
47.1480 19.1400 2.6668 0.8156
11.8897 8.6120 0.7694 0.9429
7.3175 8.6401 0.5934 0.9557
5.6931 8.6500 0.5427 0.9594
4.3058 8.6586 0.5068 0.9620
1.9382 8.6575 0.4650 0.9651
-4.7998 8.7145 0.5214 0.9609
-6.2815 8.7236 0.5634 0.9579
-10.2708 8.7482 0.7071 0.9474
-13.2386 8.7664 0.8321 0.9384
-24.6932 8.8368 1.3745 0.9003
-21.0225 -31.5548 1.9871 0.8591
-11.7252 -23.2505 1.3647 0.9010
-3.5296 -33.4160 1.7610 0.8741
30.7958 -77.7279 4.3816 0.7154
38.4488 -42.1870 2.9914 0.7956
35.2875 -30.3988 2.4409 0.8298
55.0127 7.3711 2.9089 0.8007
48.6831 19.1305 2.7413 0.8110
15.9059 8.5873 0.9473 0.9302
12.1722 8.6102 0.7814 0.9420
9.5187 8.6265 0.6732 0.9498
4.4271 8.6578 0.5096 0.9618
3.1823 8.6624 0.4836 0.9637
0.9650 8.6712 0.4572 0.9657
-4.6729 8.7137 0.5182 0.9612
-6.1336 8.7227 0.5588 0.9582
-7.8704 8.7334 0.6161 0.9540
-10.0391 8.7467 0.6978 0.9481
-11.4405 -30.6104 1.7126 0.8773
-2.8582 -24.4358 1.2894 0.9062
0.2635 -63.0983 3.3069 0.7767
22.4784 -89.7502 4.8489 0.6903
30.6837 -80.0531 4.4930 0.7094
30.2204 -43.4928 2.7756 0.8089
26.1634 -29.3614 2.0610 0.8543
59.9591 -41.1700 3.8118 0.7473
54.9714 -20.7208 3.0788 0.7903
69.1357 -8.2832 3.6492 0.7566
69.6301 0.0958 3.6492 0.7566
59.9749 7.3529 3.1667 0.7850
50.3060 19.1205 2.8204 0.8061
16.3363 8.5846 0.9672 0.9287
12.4636 8.6084 0.7938 0.9411
9.7342 8.6252 0.6816 0.9492
7.6547 8.6380 0.6049 0.9548
5.9739 8.6483 0.5509 0.9588
4.5498 8.6571 0.5125 0.9616
3.2935 8.6638 0.4858 0.9636
2.1421 8.6540 0.4672 0.9649
1.0634 8.6700 0.4578 0.9656
0.0124 8.6794 0.4549 0.9658
-4.5475 8.7130 0.5151 0.9614
-5.9881 8.7218 0.5545 0.9585
-7.6939 8.7323 0.6099 0.9545
-12.6095 8.7625 0.8047 0.9403
-23.0247 8.8265 1.2923 0.9060
-18.2382 2.2888 0.9633 0.9290
-22.0547 -31.5485 2.0173 0.8571
-11.8321 -30.6080 1.7198 0.8768
-8.4629 -33.3858 1.8050 0.8711
-0.5918 -84.2313 4.4145 0.7136
31.6572 -85.4448 4.7754 0.6942
26.5101 -51.4940 3.0353 0.7930
27.9088 -41.1423 2.6055 0.8194
45.4143 -40.9308 3.2041 0.7828
38.9539 -15.1839 2.1914 0.8458
69.0386 -9.0571 3.6492 0.7566
69.6268 -0.6845 3.6492 0.7566
69.2033 7.6981 3.6492 0.7566
12.7643 8.6066 0.8068 0.9402
7.8282 8.6369 0.6109 0.9544
4.6739 8.6563 0.5156 0.9614
-0.9412 8.6824 0.4577 0.9656
-4.4236 8.7122 0.5121 0.9616
-7.5209 8.7312 0.6039 0.9549
-16.1605 8.7843 0.9640 0.9290
-22.2628 8.8219 1.2550 0.9085
-20.1436 2.7575 1.0656 0.9218
-46.1788 -23.2849 2.7104 0.8129
-22.5828 -31.5453 2.0332 0.8561
-12.2270 -30.6056 1.7272 0.8763
-8.9033 -33.5404 1.8187 0.8702
-0.6744 -36.9846 1.9386 0.8623
30.0919 -84.1013 4.6812 0.6992
67.2492 -18.0529 3.6492 0.7566
68.9328 -9.8302 3.6492 0.7566
53.8521 19.0987 2.9945 0.7954
39.5927 19.6865 2.3173 0.8377
13.0568 8.5925 0.8192 0.9393
-4.6380 -31.2341 0.5512 0.8813
5.5244 -58.7123 1.0293 0.7898
32.7467 -94.0529 1.7384 0.6714
42.8555 -87.4502 1.6999 0.6773
31.6489 -48.7011 1.0138 0.7927
32.7841 -39.1692 0.8916 0.8152
35.5704 -33.3566 0.8512 0.8228
63.0102 13.5376 1.1249 0.7727
56.7504 19.5809 1.0479 0.7865
13.3200 8.6032 0.2768 0.9385
10.3593 8.6214 0.2352 0.9475
8.1268 8.6177 0.2068 0.9537
4.2264 5.7303 0.1243 0.9719
1.3382 8.6768 0.1532 0.9655
-0.7666 8.6682 0.1519 0.9658
-2.9757 8.7033 0.1605 0.9639
-5.5972 8.7194 0.1809 0.9594
-9.2178 8.7417 0.2217 0.9504
-21.0204 8.8142 0.3979 0.9128
-72.0900 -6.1724 1.2629 0.7487
-61.9031 -29.6934 1.1984 0.7598
-19.2011 -33.4994 0.6740 0.8569
-14.9454 -35.3642 0.6701 0.8576
-9.3273 -32.5306 0.5907 0.8734
-1.5397 -40.4945 0.7073 0.8503
41.6724 -87.5039 1.6917 0.6786
27.6548 -43.6171 0.9015 0.8133
31.9882 -39.1001 0.8818 0.8170
35.5658 -34.1091 0.8602 0.8211
85.3744 -24.7380 1.5515 0.7008
42.6555 20.1676 0.8236 0.8280
13.6501 8.6011 0.2816 0.9375
10.5968 8.6199 0.2384 0.9468
8.3102 8.6167 0.2090 0.9532
4.3068 5.7044 0.1248 0.9718
5.0132 8.6339 0.1743 0.9608
3.7181 8.6622 0.1645 0.9630
2.5384 8.6694 0.1577 0.9645
1.4378 8.6762 0.1535 0.9654
0.3779 8.6616 0.1513 0.9659
-0.6688 8.6681 0.1518 0.9658
-4.0884 8.7102 0.1680 0.9622
-9.0121 8.7404 0.2191 0.9510
-15.0005 8.7662 0.3033 0.9329
-56.3593 -18.3919 1.0348 0.7889
-63.2685 -29.4810 1.2184 0.7564
-23.8127 -31.1760 0.6848 0.8548
-19.7013 -33.4964 0.6783 0.8560
-5.3552 -31.2297 0.5531 0.8809
-1.9942 -40.4917 0.7076 0.8503
31.4358 -50.8310 1.0432 0.7873
35.5611 -34.8779 0.8694 0.8193
35.6043 -27.3533 0.7837 0.8356
41.1229 -24.3422 0.8341 0.8260
55.6240 -24.4313 1.0604 0.7842
81.8570 -24.7164 1.4925 0.7103
52.2411 10.0047 0.9284 0.8083
61.0791 19.5543 1.1194 0.7737
10.8409 8.6184 0.2417 0.9461
6.6506 8.6067 0.1899 0.9574
35.9519 60.3497 1.2262 0.7550
3.8333 8.6615 0.1653 0.9628
2.6440 8.6688 0.1582 0.9644
1.5377 8.6756 0.1538 0.9654
-1.6320 8.6528 0.1537 0.9654
-8.5276 26.8960 0.4925 0.8933
-5.3241 8.7178 0.1783 0.9600
-19.7487 8.8064 0.3774 0.9171
-15.8860 -35.3585 0.6766 0.8563
-5.7157 -31.2275 0.5541 0.8807
-2.4013 -39.6998 0.6942 0.8529
37.6358 -83.8159 1.6037 0.6924
31.4280 -52.1148 1.0623 0.7839
35.5562 -35.6635 0.8790 0.8175
35.5938 -27.9850 0.7903 0.8343
53.9506 -24.4210 1.0337 0.7891
78.5969 -24.6963 1.4380 0.7192
31.8209 5.7252 0.5644 0.8787
61.3227 18.8773 1.1200 0.7736
45.2173 20.1519 0.8641 0.8203
14.3463 8.5969 0.2919 0.9353
11.0918 8.6169 0.2452 0.9454
3.9496 8.6608 0.1662 0.9626
1.8628 5.8711 0.1075 0.9757
0.5726 8.6604 0.1515 0.9659
-1.5317 8.6521 0.1534 0.9655
-5.1904 8.7169 0.1771 0.9602
-17.1384 22.1890 0.4894 0.8939
-8.6146 8.7380 0.2142 0.9521
-55.8880 -16.8621 1.0190 0.7917
-55.7734 -42.8297 1.2275 0.7548
-19.3066 -31.2036 0.6405 0.8635
-16.1718 -34.9417 0.6721 0.8572
-10.2262 -31.6140 0.5800 0.8755
-6.0776 -31.2253 0.5553 0.8805
38.1101 -87.4826 1.6656 0.6827
38.2352 -39.2200 0.9561 0.8032
39.0522 -24.3143 0.8030 0.8319
52.3594 -24.4112 1.0084 0.7936
51.4178 8.6575 0.9101 0.8117
14.7140 8.5946 0.2974 0.9341
8.8969 8.6251 0.2163 0.9516
5.3959 8.6128 0.1774 0.9602
1.7388 8.6743 0.1544 0.9652
-0.3763 8.6662 0.1514 0.9659
-1.4318 8.6515 0.1531 0.9655
-5.0585 8.7161 0.1759 0.9605
-6.5694 8.7053 0.1904 0.9573
-8.4225 8.7368 0.2118 0.9526
-10.7489 8.7474 0.2419 0.9461
-13.8732 8.7458 0.2863 0.9365
-79.1424 -12.8700 1.3996 0.7256
-55.9188 -16.1900 1.0161 0.7922
-72.3312 -30.7892 1.3722 0.7302
-16.4280 -34.4766 0.6666 0.8583
-6.4411 -31.2231 0.5565 0.8803
-2.7874 -33.5779 0.5881 0.8739
36.9479 -87.4787 1.6575 0.6839
31.4113 -54.8289 1.1030 0.7766
31.4888 -42.2165 0.9193 0.8100
37.3797 -39.2120 0.9456 0.8051
50.8438 -24.4019 0.9844 0.7980
51.7293 8.1150 0.9140 0.8110
7.1386 8.6230 0.1954 0.9562
4.1858 8.6593 0.1679 0.9623
2.9653 8.6668 0.1599 0.9640
0.7679 8.6621 0.1518 0.9658
-0.2790 8.6656 0.1513 0.9659
-2.4281 8.6581 0.1570 0.9647
-3.6203 8.7073 0.1646 0.9630
-4.9283 8.7153 0.1748 0.9607
-10.5020 8.7440 0.2385 0.9468
-25.5670 8.8276 0.4721 0.8974
-54.4364 -15.1018 0.9861 0.7977
-72.6887 -29.9839 1.3725 0.7301
-63.4273 -59.4545 1.5175 0.7062
-20.2834 -31.1976 0.6495 0.8617
-16.4220 -33.4924 0.6511 0.8614
-2.9466 -31.2445 0.5478 0.8820
35.7951 -87.4716 1.6497 0.6852
31.4025 -56.2660 1.1247 0.7728
31.4829 -43.2104 0.9332 0.8074
35.5852 -29.9672 0.8120 0.8302
52.1036 -18.3173 0.9640 0.8018
91.4811 -20.2118 1.6353 0.6874
52.0708 7.5717 0.9185 0.8102
49.5746 20.1251 0.9339 0.8073
5.6677 8.6114 0.1799 0.9596
4.3058 8.6586 0.1688 0.9621
1.9417 8.6731 0.1551 0.9651
0.8663 8.6667 0.1520 0.9658
-2.3236 8.6574 0.1565 0.9648
-3.5061 8.7066 0.1638 0.9631
-4.7998 8.7145 0.1737 0.9610
-6.2815 8.7236 0.1876 0.9579
-8.0506 8.7345 0.2073 0.9536
-13.1992 8.7404 0.2763 0.9386
-17.5241 8.7758 0.3421 0.9246
-24.6703 8.8286 0.4574 0.9005
-54.4017 -14.4379 0.9825 0.7984
-60.7907 -33.2611 1.2095 0.7579
-20.7824 -31.1945 0.6543 0.8607
-12.7722 -35.3775 0.6565 0.8603
-3.3000 -31.2423 0.5484 0.8819
33.1873 -83.7640 1.5727 0.6974
31.6332 -44.4546 0.9524 0.8039
35.7233 -39.1966 0.9257 0.8088
35.2808 -30.3930 0.8128 0.8300
51.7978 -18.8646 0.9622 0.8021
16.5660 8.9437 0.3286 0.9275
9.5187 8.6265 0.2242 0.9499
4.4271 8.6578 0.1697 0.9618
2.0439 8.6725 0.1555 0.9650
-1.1344 8.6508 0.1523 0.9657
-3.3930 8.7059 0.1631 0.9633
-4.6729 8.7137 0.1726 0.9612
-6.1336 8.7227 0.1861 0.9582
-7.8704 8.7334 0.2052 0.9541
-10.0390 8.7467 0.2324 0.9481
-17.0365 8.7718 0.3345 0.9262
-23.8331 8.8315 0.4436 0.9033
-20.5301 2.3431 0.3607 0.9207
-54.3672 -13.7784 0.9790 0.7990
-13.2211 -35.3748 0.6592 0.8598
0.2783 -66.6399 1.1632 0.7660
33.5218 -87.4577 1.6349 0.6875
31.4701 -45.2915 0.9627 0.8020
26.1599 -29.3575 0.6864 0.8544
35.5827 -31.3544 0.8278 0.8272
35.6251 -24.4614 0.7543 0.8412
51.4449 -19.3915 0.9596 0.8026
52.8951 20.1046 0.9877 0.7974
12.4636 8.6084 0.2644 0.9412
5.9475 8.6101 0.1827 0.9590
3.2939 8.6648 0.1618 0.9636
1.0641 8.6760 0.1526 0.9656
0.0124 8.6638 0.1512 0.9659
-2.1165 8.6560 0.1555 0.9650
-3.2808 8.7052 0.1624 0.9635
-5.9881 8.7218 0.1847 0.9586
-7.6939 8.7323 0.2031 0.9545
-16.5884 8.7776 0.3276 0.9277
-23.0247 8.8265 0.4304 0.9061
-18.2341 2.2883 0.3208 0.9291
-54.3328 -13.1238 0.9757 0.7996
-61.5681 -31.9148 1.2105 0.7577
-58.3157 -65.0689 1.5252 0.7050
-21.8029 -31.1883 0.6642 0.8588
-4.0092 -31.2380 0.5497 0.8816
43.1592 -83.8338 1.6458 0.6858
35.5784 -32.0659 0.8360 0.8256
35.6215 -25.0509 0.7601 0.8401
38.9457 -15.1807 0.7296 0.8460
54.7040 20.0935 1.0172 0.7920
16.7844 8.5816 0.3290 0.9274
9.9552 8.6239 0.2299 0.9487
6.0907 8.6094 0.1841 0.9587
4.6739 8.6563 0.1717 0.9614
3.4052 8.6641 0.1625 0.9634
0.1094 8.6632 0.1512 0.9659
-0.9388 8.6601 0.1520 0.9658
-2.0138 8.6553 0.1551 0.9651
-3.1697 8.7045 0.1617 0.9636
-4.4236 8.7122 0.1706 0.9617
-5.8448 8.7210 0.1832 0.9589
-7.5209 8.7312 0.2011 0.9549
-9.5931 8.7440 0.2266 0.9494
-20.1481 2.7581 0.3549 0.9219
-63.4674 -69.2406 1.6395 0.6868
-17.2785 -31.5759 0.6283 0.8659
-14.1301 -35.3692 0.6648 0.8587
-0.7385 -40.4994 0.7070 0.8504
32.7620 -91.5635 1.6975 0.6777
27.1020 -54.1258 1.0566 0.7849
33.3634 -39.1746 0.8982 0.8139
35.5739 -32.7918 0.8445 0.8240
35.6178 -25.6494 0.7661 0.8390
44.2249 -24.3612 0.8813 0.8171
52.1331 -20.9970 0.9810 0.7986
91.6616 9.1581 1.6079 0.6918
61.2909 13.7184 1.0963 0.7778
13.0568 8.5925 0.2728 0.9394
2.3406 -24.8761 -0.4361 0.9049
32.1460 -92.3277 -1.7065 0.6763
30.6843 -47.2169 -0.9829 0.7983
32.6036 -38.9535 -0.8867 0.8161
35.6149 -26.1136 -0.7709 0.8380
61.1516 -25.2400 -1.1547 0.7675
98.7630 9.0138 -1.7311 0.6725
65.0465 13.9751 -1.1613 0.7663
56.7505 19.5809 -1.0479 0.7865
13.3200 8.6032 -0.2768 0.9385
10.3593 8.6214 -0.2352 0.9475
3.6040 8.6629 -0.1638 0.9632
0.2801 8.6420 -0.1509 0.9660
-0.7649 8.6480 -0.1515 0.9659
-1.8252 8.6126 -0.1537 0.9654
-4.2085 8.7109 -0.1689 0.9620
-7.2236 8.7294 -0.1978 0.9557
-11.7392 8.7089 -0.2551 0.9432
-15.3584 8.7461 -0.3085 0.9317
-21.0204 8.8142 -0.3979 0.9128
-52.0832 8.1818 -0.9203 0.8098
-85.9172 3.0258 -1.5006 0.7090
-71.9226 -6.1581 -1.2600 0.7492
-71.9456 -24.3735 -1.3259 0.7379
-62.3554 -29.9104 -1.2072 0.7583
-58.7756 -37.4972 -1.2169 0.7566
-11.6500 -20.3253 -0.4089 0.9105
-5.5679 -19.4189 -0.3526 0.9224
-3.2149 -20.0980 -0.3553 0.9218
31.3805 -93.4896 -1.7213 0.6740
41.6743 -87.5078 -1.6918 0.6786
27.6901 -43.6727 -0.9026 0.8131
31.8015 -38.8719 -0.8766 0.8180
35.5658 -34.1092 -0.8602 0.8211
35.6111 -26.7295 -0.7772 0.8368
57.3865 -24.4421 -1.0888 0.7792
85.3745 -24.7380 -1.5515 0.7008
90.2748 -14.7001 -1.5965 0.6936
66.5430 13.5183 -1.1852 0.7621
10.5968 8.6199 -0.2384 0.9468
8.2909 8.5966 -0.2085 0.9533
4.3067 5.7044 -0.1248 0.9718
5.0132 8.6339 -0.1743 0.9608
1.4378 8.6762 -0.1535 0.9654
0.3772 8.6437 -0.1510 0.9660
-9.0121 8.7404 -0.2191 0.9510
-20.3678 8.8102 -0.3874 0.9150
-85.9111 3.9898 -1.5012 0.7089
-71.8874 -5.3444 -1.2583 0.7495
-71.9751 -33.5380 -1.3860 0.7278
-12.1756 -20.7011 -0.4192 0.9084
-8.6867 -19.9290 -0.3795 0.9167
-1.0432 -21.1823 -0.3702 0.9187
1.6341 -22.8469 -0.3998 0.9124
40.4743 -87.5004 -1.6828 0.6800
26.6642 -33.3480 -0.7453 0.8430
55.6240 -24.4313 -1.0604 0.7842
83.9864 -25.3594 -1.5314 0.7040
99.4972 6.8368 -1.7408 0.6710
51.1767 9.8009 -0.9095 0.8118
61.0791 19.5543 -1.1194 0.7737
43.6908 20.0613 -0.8392 0.8250
13.9919 8.5990 -0.2867 0.9364
10.8409 8.6184 -0.2417 0.9461
8.4880 8.6059 -0.2110 0.9528
27.8247 46.7072 -0.9490 0.8045
2.6440 8.6688 -0.1582 0.9644
1.5377 8.6756 -0.1538 0.9654
-1.6242 8.6114 -0.1530 0.9655
-8.5276 26.8960 -0.4925 0.8933
-3.9696 8.7094 -0.1671 0.9624
-5.3241 8.7178 -0.1783 0.9600
-6.8984 8.7274 -0.1942 0.9565
-11.2261 8.7250 -0.2482 0.9447
-26.5148 15.8965 -0.5396 0.8837
-19.7487 8.8064 -0.3774 0.9171
-52.0755 9.3808 -0.9236 0.8092
-53.3214 3.0755 -0.9323 0.8076
-56.2574 -17.6636 -1.0292 0.7899
-71.9608 -32.5549 -1.3786 0.7291
-19.0250 -24.3377 -0.5392 0.8837
-12.6034 -20.8894 -0.4258 0.9070
-6.1421 -33.5573 -0.5955 0.8724
-1.2735 -21.0553 -0.3682 0.9191
1.3547 -22.4758 -0.3930 0.9139
35.5562 -35.6635 -0.8790 0.8175
35.6034 -27.9926 -0.7905 0.8343
40.0806 -24.3358 -0.8185 0.8290
53.9506 -24.4210 -1.0337 0.7891
72.3878 4.1597 -1.2656 0.7482
61.4229 18.9082 -1.1218 0.7733
41.7807 18.6203 -0.7984 0.8328
8.6899 8.6154 -0.2136 0.9522
5.2690 8.6235 -0.1764 0.9604
3.9496 8.6608 -0.1662 0.9626
1.8625 5.8701 -0.1075 0.9757
0.5721 8.6529 -0.1514 0.9659
-1.5246 8.6119 -0.1527 0.9656
-15.2405 19.7318 -0.4352 0.9051
-53.2925 10.2178 -0.9472 0.8049
-53.5383 3.6903 -0.9367 0.8068
-85.9643 -4.4567 -1.5025 0.7087
-55.7686 -16.8261 -1.0168 0.7921
-9.2743 -20.0386 -0.3854 0.9155
-3.8502 -19.7813 -0.3518 0.9225
0.7922 -16.1565 -0.2824 0.9373
38.1115 -87.4859 -1.6657 0.6827
31.4198 -53.4463 -1.0822 0.7803
27.0723 -35.4591 -0.7787 0.8365
35.5994 -28.6407 -0.7975 0.8329
39.0767 -24.3296 -0.8035 0.8318
52.3594 -24.4112 -1.0084 0.7936
53.1842 8.9549 -0.9414 0.8059
28.3425 8.3784 -0.5159 0.8885
14.7140 8.5946 -0.2974 0.9341
11.3500 8.6153 -0.2487 0.9446
6.9496 8.5887 -0.1928 0.9568
4.0671 8.6600 -0.1670 0.9624
2.8574 8.6675 -0.1593 0.9641
0.6699 8.6575 -0.1516 0.9659
-0.3754 8.6460 -0.1511 0.9660
-2.5209 8.6164 -0.1567 0.9647
-5.0585 8.7161 -0.1759 0.9605
-8.4225 8.7368 -0.2118 0.9526
-10.7489 8.7474 -0.2419 0.9461
-18.3636 8.6871 -0.3546 0.9219
-26.4814 8.8125 -0.4872 0.8944
-85.9582 -3.4912 -1.5016 0.7088
-71.7448 -11.6670 -1.2688 0.7477
-55.7904 -16.1529 -1.0138 0.7927
-71.9535 -30.6284 -1.3650 0.7314
-9.5153 -19.9694 -0.3861 0.9153
-4.0622 -19.6914 -0.3509 0.9227
30.7030 -41.1629 -0.8964 0.8143
37.1739 -38.9961 -0.9404 0.8061
38.1087 -24.3236 -0.7891 0.8345
53.1804 8.3426 -0.9396 0.8063
29.7305 8.4276 -0.5394 0.8837
15.0958 8.5922 -0.3032 0.9329
11.6159 8.6136 -0.2524 0.9438
5.5002 8.5643 -0.1777 0.9601
-2.4163 8.6158 -0.1562 0.9648
-3.6203 8.7073 -0.1646 0.9630
-4.9283 8.7153 -0.1748 0.9607
-13.4189 8.6711 -0.2789 0.9381
-17.8391 8.6850 -0.3463 0.9237
-25.6100 8.8424 -0.4729 0.8973
-53.5309 4.8972 -0.9383 0.8065
-85.9522 -2.5267 -1.5009 0.7089
-71.9354 -10.8722 -1.2699 0.7475
-55.0357 -15.2681 -0.9969 0.7957
-71.9225 -29.6678 -1.3580 0.7325
-60.0440 -44.0060 -1.2994 0.7424
-9.8990 -20.1889 -0.3925 0.9140
-6.8421 -19.6382 -0.3630 0.9202
-4.2687 -19.5810 -0.3498 0.9230
0.5818 -21.8783 -0.3820 0.9162
26.7082 -36.6571 -0.7917 0.8341
36.3414 -38.9883 -0.9303 0.8080
35.5912 -29.9722 -0.8122 0.8301
37.1745 -24.3179 -0.7754 0.8372
52.3637 -18.4088 -0.9689 0.8009
51.0364 7.4212 -0.9002 0.8136
31.1866 8.4641 -0.5641 0.8787
44.6346 18.1196 -0.8408 0.8247
7.2801 8.5959 -0.1966 0.9559
4.3058 8.6586 -0.1688 0.9621
3.0740 8.6661 -0.1605 0.9639
0.8663 8.6667 -0.1520 0.9658
-0.1814 8.6449 -0.1509 0.9660
-1.2297 8.6259 -0.1521 0.9657
-2.3123 8.6153 -0.1557 0.9649
-4.7998 8.7145 -0.1737 0.9610
-6.2815 8.7236 -0.1876 0.9579
-8.0506 8.7345 -0.2073 0.9536
-17.3664 8.6968 -0.3390 0.9252
-22.8367 8.1724 -0.4234 0.9075
-53.2811 12.0854 -0.9536 0.8037
-85.9461 -1.5628 -1.5004 0.7090
-54.1294 -14.3656 -0.9775 0.7993
-14.3046 -21.4713 -0.4503 0.9019
-10.2304 -20.2865 -0.3966 0.9131
-7.0972 -19.6585 -0.3648 0.9198
33.1873 -83.7640 -1.5727 0.6974
47.5451 -87.4791 -1.7379 0.6714
35.5267 -38.9807 -0.9206 0.8098
35.2692 -30.3831 -0.8126 0.8301
36.2724 -24.3124 -0.7622 0.8397
47.9946 -24.3723 -0.9396 0.8063
32.7058 8.4840 -0.5898 0.8736
16.5660 8.9437 -0.3286 0.9275
9.5187 8.6265 -0.2242 0.9499
5.7739 8.5623 -0.1803 0.9595
4.4271 8.6578 -0.1697 0.9618
2.0439 8.6725 -0.1555 0.9650
-0.0845 8.6443 -0.1509 0.9660
-2.2090 8.6147 -0.1552 0.9650
-3.3930 8.7059 -0.1631 0.9633
-6.1336 8.7227 -0.1861 0.9582
-7.8704 8.7334 -0.2052 0.9541
-12.8236 8.6999 -0.2705 0.9399
-16.9318 8.7179 -0.3324 0.9266
-23.8331 8.8315 -0.4436 0.9033
-85.8074 20.4765 -1.5398 0.7026
-20.4790 2.3373 -0.3598 0.9208
-85.9400 -0.5998 -1.5001 0.7091
-71.8722 -9.2205 -1.2648 0.7483
-54.0888 -13.7079 -0.9740 0.7999
-59.5712 -41.6400 -1.2687 0.7477
-56.9932 -51.0729 -1.3358 0.7363
-15.1805 -22.2416 -0.4700 0.8979
-8.1045 -33.5453 -0.6024 0.8710
35.5827 -31.3544 -0.8278 0.8272
46.6989 -24.3764 -0.9195 0.8100
51.5007 -12.5952 -0.9254 0.8089
47.2635 17.9641 -0.8826 0.8169
12.4636 8.6084 -0.2644 0.9412
9.7342 8.6252 -0.2270 0.9493
7.6153 8.5936 -0.2004 0.9551
5.9138 8.5612 -0.1816 0.9592
2.1466 8.6718 -0.1559 0.9649
-2.1062 8.6141 -0.1548 0.9651
-3.2808 8.7052 -0.1624 0.9635
-7.6939 8.7323 -0.2031 0.9545
-12.5384 8.7131 -0.2665 0.9407
-16.5050 8.7335 -0.3259 0.9280
-23.0247 8.8265 -0.4304 0.9061
-18.2302 2.2878 -0.3207 0.9291
-85.9340 0.3633 -1.5000 0.7091
-59.3688 -40.5162 -1.2546 0.7501
-4.8936 -19.3051 -0.3476 0.9234
-0.1521 -21.6578 -0.3780 0.9170
3.2041 -28.0868 -0.4934 0.8931
41.1137 -79.8606 -1.5678 0.6981
33.9465 -38.9660 -0.9021 0.8132
45.4359 -24.3687 -0.8999 0.8136
50.9119 -13.0575 -0.9174 0.8104
54.1406 19.8866 -1.0068 0.7939
16.7844 8.5816 -0.3290 0.9274
12.7643 8.6066 -0.2687 0.9403
9.9552 8.6239 -0.2299 0.9487
6.0558 8.5602 -0.1830 0.9589
3.4052 8.6641 -0.1625 0.9634
2.2498 8.6712 -0.1564 0.9648
8.5556 63.8280 -1.1241 0.7729
-0.9366 8.6399 -0.1517 0.9658
-5.8448 8.7210 -0.1832 0.9589
-7.5209 8.7312 -0.2011 0.9549
-9.5931 8.7440 -0.2266 0.9494
-16.0628 8.7312 -0.3191 0.9295
-22.2628 8.8219 -0.4180 0.9086
-50.2551 13.1894 -0.9069 0.8123
-20.1526 2.7587 -0.3550 0.9218
-85.9279 1.3263 -1.5000 0.7091
-85.9934 -9.0787 -1.5094 0.7076
-46.1670 -23.2790 -0.9029 0.8131
-59.2717 -39.4837 -1.2431 0.7521
-16.4181 -22.9339 -0.4923 0.8933
-11.2330 -20.5280 -0.4085 0.9106
-7.8577 -19.6689 -0.3697 0.9188
-5.1749 -19.4951 -0.3521 0.9225
-0.3905 -21.4140 -0.3738 0.9179
32.4142 -90.5917 -1.6794 0.6805
35.6178 -25.6494 -0.7661 0.8390
51.7574 -20.8457 -0.9739 0.7999
50.9596 -13.6800 -0.9210 0.8097
98.7682 9.8681 -1.7326 0.6723
39.5927 19.6865 -0.7718 0.8379
-2.9609 -19.9395 -1.0564 0.9224
-0.5635 -21.0235 -1.1022 0.9192
2.2820 -24.2527 -1.2766 0.9070
15.6944 -45.0764 -2.5014 0.8260
21.0041 -42.8605 -2.5014 0.8260
28.7711 -34.3747 -2.3492 0.8356
32.6982 -30.6634 -2.3492 0.8356
35.5105 -26.0371 -2.3077 0.8383
39.0767 -21.9637 -2.3492 0.8356
41.4356 -17.1023 -2.3492 0.8356
45.9906 -12.7694 -2.5014 0.8260
47.1930 -7.1429 -2.5014 0.8260
47.7095 -1.4126 -2.5014 0.8260
47.4503 4.3306 -2.4971 0.8263
10.3593 8.6214 -0.7063 0.9474
4.2263 5.7302 -0.3732 0.9719
2.4334 8.6701 -0.4719 0.9646
0.2800 8.6392 -0.4530 0.9660
-0.7631 8.6279 -0.4539 0.9659
-1.8177 8.5775 -0.4595 0.9655
-5.5972 8.7194 -0.5430 0.9593
-7.2236 8.7294 -0.5938 0.9556
-11.7290 8.7014 -0.7654 0.9432
-21.0204 8.8142 -1.1946 0.9127
-44.9003 7.0535 -2.3820 0.8336
-33.2982 1.1727 -1.7462 0.8751
-36.5932 -7.6478 -1.9592 0.8609
-43.0355 -20.6431 -2.5014 0.8260
-40.2390 -25.6714 -2.5014 0.8260
-32.9411 -34.5410 -2.5014 0.8260
-8.2565 -19.5368 -1.1116 0.9186
-5.4907 -19.1499 -1.0440 0.9233
20.5225 -43.0932 -2.5014 0.8260
28.3842 -34.6949 -2.3492 0.8356
32.3526 -31.0278 -2.3492 0.8356
35.5068 -26.6511 -2.3267 0.8371
38.5436 -22.2360 -2.3320 0.8367
41.2413 -17.5656 -2.3492 0.8356
45.8447 -13.2839 -2.5014 0.8260
47.6907 -1.9471 -2.5014 0.8260
47.5785 3.8053 -2.5014 0.8260
43.9290 8.9243 -2.3492 0.8356
30.7533 10.2268 -1.6985 0.8783
30.8192 14.5714 -1.7866 0.8724
10.5968 8.6199 -0.7159 0.9468
8.2909 8.5966 -0.6259 0.9533
4.3067 5.7043 -0.3746 0.9718
5.0132 8.6339 -0.5232 0.9608
2.5384 8.6694 -0.4734 0.9645
-0.6657 8.6276 -0.4535 0.9659
-1.7185 8.5823 -0.4587 0.9655
-2.8547 8.6655 -0.4781 0.9641
-5.4597 8.7186 -0.5391 0.9596
-9.0121 8.7404 -0.6579 0.9510
-14.9951 8.7631 -0.9102 0.9328
-24.1600 7.1476 -1.3204 0.9040
-45.2868 2.1032 -2.3759 0.8339
-42.6146 -13.9066 -2.3492 0.8356
-43.2210 -20.1395 -2.4990 0.8261
-40.5241 -25.2189 -2.5014 0.8260
-37.1954 -29.9116 -2.5014 0.8260
-33.3260 -34.1697 -2.5014 0.8260
-17.8392 -23.3555 -1.5402 0.8889
-11.9297 -20.2830 -1.2332 0.9101
-8.5596 -19.6374 -1.1227 0.9178
-1.0413 -21.1445 -1.1095 0.9187
9.1091 -46.8532 -2.5014 0.8260
25.0826 -40.5579 -2.4992 0.8261
27.9936 -35.0107 -2.3492 0.8356
32.0029 -31.3880 -2.3492 0.8356
35.5029 -27.2755 -2.3463 0.8358
28.2787 -16.7392 -1.7222 0.8767
45.6929 -13.7968 -2.5014 0.8260
30.7481 9.8439 -1.6920 0.8787
8.4880 8.6059 -0.6335 0.9527
3.8333 8.6615 -0.4964 0.9628
2.6440 8.6688 -0.4750 0.9643
1.5377 8.6756 -0.4618 0.9653
0.4745 8.6483 -0.4539 0.9659
-0.5685 8.6271 -0.4531 0.9660
-1.6196 8.5870 -0.4580 0.9656
-8.4323 26.5954 -1.4622 0.8943
-3.9696 8.7094 -0.5016 0.9624
-6.8984 8.7274 -0.5830 0.9564
-11.2261 8.7250 -0.7451 0.9446
-14.3315 8.5922 -0.8757 0.9353
-18.3881 8.1997 -1.0551 0.9225
-44.7510 8.0614 -2.3830 0.8335
-45.2734 2.6113 -2.3766 0.8339
-45.1443 -2.8479 -2.3706 0.8343
-41.1547 -7.6428 -2.1937 0.8456
-42.7678 -13.4282 -2.3492 0.8356
-18.7353 -23.9671 -1.5943 0.8853
-12.4026 -20.5566 -1.2582 0.9083
-5.9550 -19.1394 -1.0505 0.9229
-1.2564 -20.7719 -1.0906 0.9200
8.5835 -46.9523 -2.5014 0.8260
14.1706 -45.5784 -2.5014 0.8260
24.6488 -40.8734 -2.5014 0.8260
27.5996 -35.3222 -2.3492 0.8356
31.6492 -31.7447 -2.3492 0.8356
38.3165 -23.2646 -2.3492 0.8356
40.8374 -18.4852 -2.3492 0.8356
45.4280 -14.2741 -2.4955 0.8264
47.6351 -3.0152 -2.5014 0.8260
47.6518 2.7383 -2.5014 0.8260
30.8056 13.7290 -1.7675 0.8736
6.7648 8.5547 -0.5716 0.9573
5.2690 8.6235 -0.5296 0.9603
3.9496 8.6608 -0.4989 0.9626
1.8622 5.8691 -0.3227 0.9756
0.5721 8.6529 -0.4545 0.9659
-0.4715 8.6265 -0.4528 0.9660
-1.5210 8.5917 -0.4573 0.9657
-5.1904 8.7169 -0.5317 0.9602
-14.7136 19.0496 -1.2615 0.9081
-13.9947 8.6049 -0.8610 0.9363
-18.3659 8.4377 -1.0592 0.9222
-23.5859 7.5565 -1.2980 0.9056
-44.6673 8.5641 -2.3836 0.8335
-42.9155 -12.9481 -2.3492 0.8356
-42.6778 -18.7342 -2.4427 0.8297
-34.0834 -33.4144 -2.5014 0.8260
-20.0779 -25.0999 -1.6845 0.8792
-9.2211 -19.9238 -1.1506 0.9158
-6.1754 -19.0910 -1.0516 0.9228
0.7922 -16.1564 -0.8477 0.9373
8.0569 -47.0455 -2.5014 0.8260
13.6590 -45.7343 -2.5014 0.8260
19.0626 -43.7586 -2.5014 0.8260
24.1893 -41.1470 -2.5014 0.8260
27.1180 -35.5190 -2.3420 0.8361
31.2915 -32.0974 -2.3492 0.8356
34.9262 -28.0991 -2.3492 0.8356
38.0534 -23.6925 -2.3492 0.8356
40.6277 -18.9416 -2.3492 0.8356
44.0564 -14.3875 -2.4289 0.8306
46.8255 -9.2502 -2.5014 0.8260
31.1339 9.2035 -1.7015 0.8781
8.8969 8.6251 -0.6494 0.9516
6.9280 8.5620 -0.5772 0.9568
5.3368 8.5183 -0.5268 0.9605
2.8574 8.6675 -0.4783 0.9641
1.7388 8.6743 -0.4636 0.9652
-1.4227 8.5964 -0.4566 0.9657
-2.5086 8.5744 -0.4682 0.9648
-3.7356 8.7080 -0.4966 0.9628
-5.0585 8.7161 -0.5281 0.9604
-13.6750 8.6209 -0.8472 0.9373
-18.1837 8.6021 -1.0542 0.9226
-44.8682 3.5982 -2.3590 0.8350
-42.1605 -17.9464 -2.4014 0.8323
-22.8474 -27.9151 -1.8905 0.8655
-13.0778 -20.6166 -1.2795 0.9068
-9.3906 -19.7075 -1.1441 0.9163
-3.9674 -19.2322 -1.0291 0.9244
0.8181 -21.6385 -1.1348 0.9169
7.5293 -47.1329 -2.5014 0.8260
26.8012 -35.9318 -2.3492 0.8356
37.7856 -24.1174 -2.3492 0.8356
40.4129 -19.3957 -2.3492 0.8356
42.4942 -14.4062 -2.3515 0.8355
46.7189 -9.7743 -2.5014 0.8260
47.5556 -4.0820 -2.5014 0.8260
47.7012 1.6697 -2.5014 0.8260
29.0156 8.2250 -1.5806 0.8862
30.7926 12.9042 -1.7497 0.8748
33.6216 31.8713 -2.4279 0.8306
7.0944 8.5695 -0.5830 0.9564
5.4698 8.5170 -0.5305 0.9603
2.9653 8.6668 -0.4801 0.9640
0.7679 8.6621 -0.4557 0.9658
-0.2777 8.6253 -0.4523 0.9660
-44.8243 4.1007 -2.3590 0.8350
-45.2196 -1.3293 -2.3709 0.8343
-39.9124 -6.0323 -2.1155 0.8507
-43.1949 -11.9832 -2.3492 0.8356
-41.6134 -23.3778 -2.5014 0.8260
-38.4981 -28.2151 -2.5014 0.8260
-34.8235 -32.6423 -2.5014 0.8260
-9.6987 -19.7805 -1.1546 0.9155
-6.7521 -19.3798 -1.0755 0.9211
-4.1911 -19.2251 -1.0312 0.9242
0.5738 -21.5784 -1.1313 0.9172
12.6307 -46.0289 -2.5014 0.8260
23.2612 -41.6787 -2.5014 0.8260
30.5643 -32.7905 -2.3492 0.8356
34.2878 -28.8746 -2.3492 0.8356
37.0127 -24.2120 -2.3179 0.8376
40.1931 -19.8472 -2.3492 0.8356
46.6065 -10.2972 -2.5014 0.8260
47.5069 -4.6144 -2.5014 0.8260
44.3598 6.4504 -2.3492 0.8356
30.5051 8.2791 -1.6565 0.8811
15.4928 8.5898 -0.9284 0.9315
9.3083 8.6278 -0.6652 0.9504
4.3058 8.6586 -0.5068 0.9620
3.0740 8.6661 -0.4819 0.9638
1.9417 8.6731 -0.4658 0.9650
-1.2268 8.6058 -0.4556 0.9658
-2.3011 8.5735 -0.4652 0.9651
-8.0506 8.7345 -0.6225 0.9535
-10.2708 8.7482 -0.7071 0.9474
-13.0652 8.6516 -0.8212 0.9392
-17.2842 8.6557 -1.0131 0.9255
-21.1337 7.5630 -1.1764 0.9140
-44.4235 10.0764 -2.3873 0.8332
-32.5385 3.3447 -1.7143 0.8772
-39.2369 -5.4812 -2.0763 0.8533
-37.0077 -9.8217 -2.0066 0.8578
-41.6282 -16.6281 -2.3492 0.8356
-35.1871 -32.2500 -2.5014 0.8260
-2.1473 -20.3296 -1.0714 0.9214
6.0774 -44.4124 -2.3492 0.8356
12.1141 -46.1676 -2.5014 0.8260
17.5812 -44.3745 -2.5014 0.8260
22.7927 -41.9367 -2.5014 0.8260
30.1951 -33.1308 -2.3492 0.8356
46.4882 -10.8186 -2.5014 0.8260
32.7058 8.4840 -1.7708 0.8734
16.5660 8.9437 -0.9866 0.9274
12.1722 8.6102 -0.7814 0.9420
5.7415 8.5143 -0.5382 0.9597
4.4271 8.6578 -0.5096 0.9618
3.1834 8.6655 -0.4838 0.9637
2.0439 8.6725 -0.4670 0.9649
-0.0843 8.6242 -0.4520 0.9660
-1.1292 8.6105 -0.4551 0.9658
-2.1983 8.5731 -0.4638 0.9652
-4.6729 8.7137 -0.5182 0.9612
-6.1336 8.7227 -0.5588 0.9582
-7.8704 8.7334 -0.6161 0.9540
-10.0391 8.7467 -0.6978 0.9481
-12.7741 8.6662 -0.8090 0.9400
-16.8532 8.6774 -0.9934 0.9269
-21.1320 7.8306 -1.1811 0.9137
-45.2878 -0.3161 -2.3735 0.8341
-39.1208 -27.3452 -2.5014 0.8260
-35.5462 -31.8538 -2.5014 0.8260
-10.2400 -19.7520 -1.1660 0.9147
-2.3575 -20.1557 -1.0635 0.9219
0.0891 -21.3424 -1.1185 0.9181
22.3215 -42.1894 -2.5014 0.8260
25.5785 -36.8122 -2.3492 0.8356
35.5207 -24.3898 -2.2581 0.8415
41.9454 -15.8108 -2.3492 0.8356
47.3915 -5.6780 -2.5014 0.8260
44.4932 5.4548 -2.3492 0.8356
22.5393 8.5668 -1.2637 0.9079
7.5918 8.5671 -0.5999 0.9552
5.8817 8.5147 -0.5423 0.9594
1.0641 8.6760 -0.4581 0.9656
0.0123 8.6266 -0.4521 0.9660
-3.2808 8.7052 -0.4875 0.9634
-7.6939 8.7323 -0.6099 0.9545
-9.8133 8.7454 -0.6889 0.9487
-12.4870 8.6774 -0.7969 0.9409
-16.4334 8.6956 -0.9744 0.9282
-21.1304 8.1004 -1.1860 0.9133
-44.2386 11.0822 -2.3901 0.8330
-18.2270 2.2874 -0.9627 0.9291
-39.1120 -4.5727 -2.0637 0.8541
-39.4246 -26.9053 -2.5014 0.8260
-35.9009 -31.4534 -2.5014 0.8260
-31.8556 -35.5446 -2.5014 0.8260
-10.5634 -19.8288 -1.1774 0.9139
-7.4689 -19.3212 -1.0856 0.9204
-4.7982 -18.9290 -1.0234 0.9248
3.1450 -27.5688 -1.4542 0.8948
25.4479 -37.5146 -2.3757 0.8340
35.5171 -24.9775 -2.2756 0.8404
47.3250 -6.2085 -2.5014 0.8260
47.7281 -0.4692 -2.5014 0.8260
23.3161 8.5643 -1.3018 0.9053
16.7844 8.5816 -0.9879 0.9273
12.7643 8.6066 -0.8068 0.9402
9.9552 8.6239 -0.6903 0.9486
6.0284 8.5214 -0.5470 0.9591
4.6739 8.6563 -0.5156 0.9614
3.4052 8.6641 -0.4879 0.9634
-3.1696 8.7045 -0.4855 0.9636
-4.4236 8.7122 -0.5121 0.9616
-5.8448 8.7210 -0.5502 0.9588
-7.5209 8.7312 -0.6039 0.9549
-9.5931 8.7440 -0.6803 0.9493
-12.1962 8.6795 -0.7845 0.9418
-21.1287 8.3725 -1.1911 0.9130
-20.1571 2.7594 -1.0662 0.9217
-45.2928 0.6991 -2.3740 0.8341
-34.1666 -7.8486 -1.8372 0.8690
-42.1635 -15.2196 -2.3492 0.8356
-39.7237 -26.4618 -2.5014 0.8260
-36.2512 -31.0491 -2.5014 0.8260
-32.2518 -35.1855 -2.5014 0.8260
-10.9737 -20.0542 -1.1981 0.9125
-0.3870 -21.2258 -1.1126 0.9185
2.6310 -25.6082 -1.3491 0.9020
16.0799 -44.9403 -2.5014 0.8260
21.3703 -42.6791 -2.5014 0.8260
25.4328 -38.4116 -2.4143 0.8315
29.0645 -34.1270 -2.3492 0.8356
32.9596 -30.3820 -2.3492 0.8356
39.2634 -21.6282 -2.3492 0.8356
47.2524 -6.7384 -2.5014 0.8260
24.1351 8.5595 -1.3421 0.9025
10.1819 8.6225 -0.6992 0.9480
9.4013 -27.0018 -2.5014 0.8915
12.5819 -25.6744 -2.5014 0.8915
15.5797 -23.9740 -2.5014 0.8915
18.3512 -21.9253 -2.5014 0.8915
23.0577 -16.9063 -2.5014 0.8915
24.9244 -14.0092 -2.5014 0.8915
26.4289 -10.9084 -2.5014 0.8915
28.2697 -4.2788 -2.5014 0.8915
28.5791 -0.8462 -2.5014 0.8915
17.9120 8.7158 -1.7428 0.9231
8.0967 8.5857 -1.0325 0.9537
4.2262 5.7302 -0.6229 0.9718
4.8966 8.6549 -0.8700 0.9609
3.6040 8.6629 -0.8209 0.9630
2.4334 8.6701 -0.7878 0.9645
1.3382 8.6768 -0.7681 0.9654
0.2800 8.6392 -0.7562 0.9659
-0.7613 8.6078 -0.7560 0.9659
-1.8135 8.5573 -0.7653 0.9655
-4.2085 8.7109 -0.8464 0.9619
-5.5972 8.7194 -0.9065 0.9592
-7.2236 8.7294 -0.9913 0.9555
-9.2178 8.7417 -1.1114 0.9503
-19.4261 8.1457 -1.8429 0.9189
-25.6199 7.2683 -2.3299 0.8986
-26.5312 4.1679 -2.3496 0.8978
-26.7541 -2.2907 -2.3492 0.8978
-27.9870 -5.8491 -2.5014 0.8915
-24.1041 -15.3777 -2.5014 0.8915
-16.0591 -21.5206 -2.3492 0.8978
-11.4492 -19.9750 -2.0143 0.9117
-8.1879 -19.3744 -1.8402 0.9190
-5.4861 -19.1339 -1.7415 0.9232
-3.1660 -19.7919 -1.7536 0.9227
-0.7882 -20.7288 -1.8148 0.9201
9.0981 -27.1054 -2.5014 0.8915
15.3101 -24.1471 -2.5014 0.8915
18.1043 -22.1295 -2.5014 0.8915
20.6355 -19.7904 -2.5014 0.8915
24.7658 -14.2876 -2.5014 0.8915
26.3050 -11.2039 -2.5014 0.8915
28.2199 -4.5953 -2.5014 0.8915
28.5678 -1.1664 -2.5014 0.8915
28.5006 2.2795 -2.5014 0.8915
25.4801 8.4732 -2.3492 0.8978
24.3055 11.4917 -2.3522 0.8977
8.2865 8.5921 -1.0443 0.9532
4.3066 5.7042 -0.6253 0.9717
5.0132 8.6339 -0.8735 0.9607
3.7181 8.6622 -0.8247 0.9629
2.5384 8.6694 -0.7903 0.9644
1.4378 8.6762 -0.7694 0.9653
0.3772 8.6437 -0.7569 0.9659
-1.7144 8.5621 -0.7640 0.9655
-2.8547 8.6655 -0.7982 0.9640
-4.0884 8.7102 -0.8418 0.9621
-7.0595 8.7284 -0.9821 0.9559
-11.4063 8.6618 -1.2530 0.9441
-19.0148 8.2250 -1.8125 0.9202
-23.6596 6.9995 -2.1586 0.9057
-26.4924 4.4665 -2.3505 0.8977
-26.8231 1.2457 -2.3492 0.8978
-26.7781 -1.9908 -2.3492 0.8978
-28.0508 -5.5351 -2.5014 0.8915
-27.1810 -8.8700 -2.5014 0.8915
-25.9162 -12.0761 -2.5014 0.8915
-16.2992 -21.3392 -2.3492 0.8978
-8.4599 -19.4087 -1.8523 0.9185
-3.3844 -19.7370 -1.7520 0.9227
-1.0204 -20.7187 -1.8148 0.9201
12.0034 -25.9499 -2.5014 0.8915
17.8552 -22.3310 -2.5014 0.8915
20.4125 -20.0203 -2.5014 0.8915
26.1779 -11.4979 -2.5014 0.8915
27.3711 -8.2646 -2.5014 0.8915
28.1667 -4.9112 -2.5014 0.8915
11.9910 2.2964 -1.0681 0.9522
25.5734 8.1872 -2.3492 0.8978
24.4220 11.2137 -2.3511 0.8977
10.8409 8.6184 -1.2117 0.9459
10.6107 17.8114 -1.8139 0.9201
2.6440 8.6688 -0.7929 0.9643
0.4745 8.6483 -0.7578 0.9658
-0.5672 8.6069 -0.7546 0.9660
-3.9696 8.7094 -0.8374 0.9623
-8.8111 8.7392 -1.0857 0.9514
-11.1648 8.6774 -1.2371 0.9448
-18.3288 8.1732 -1.7558 0.9226
-26.4501 4.7647 -2.3513 0.8977
-26.8074 1.5462 -2.3492 0.8978
-28.1110 -5.2205 -2.5014 0.8915
-26.0499 -11.7849 -2.5014 0.8915
-22.4802 -17.6670 -2.5014 0.8915
-20.1912 -20.2435 -2.5014 0.8915
-16.5373 -21.1553 -2.3492 0.8978
-5.9533 -19.1340 -1.7532 0.9227
-3.5645 -19.4746 -1.7321 0.9236
-1.2599 -20.8303 -1.8257 0.9196
4.8289 -26.4142 -2.3492 0.8978
8.4885 -27.3025 -2.5014 0.8915
14.7652 -24.4841 -2.5014 0.8915
17.6039 -22.5296 -2.5014 0.8915
20.1869 -20.2478 -2.5014 0.8915
22.4765 -17.6718 -2.5014 0.8915
28.5446 1.6403 -2.5014 0.8915
24.5353 10.9346 -2.3501 0.8978
11.0918 8.6169 -1.2288 0.9452
1.8619 5.8681 -0.5386 0.9756
1.6381 8.6750 -0.7724 0.9652
-0.4704 8.6064 -0.7541 0.9660
-1.5174 8.5716 -0.7616 0.9657
-3.8520 8.7087 -0.8331 0.9625
-8.6146 8.7380 -1.0735 0.9519
-13.8003 8.4854 -1.4173 0.9370
-22.4238 7.1842 -2.0601 0.9098
-26.4043 5.0625 -2.3522 0.8977
-26.7884 1.8465 -2.3492 0.8978
-26.8160 -1.3903 -2.3492 0.8978
-28.1678 -4.9052 -2.5014 0.8915
-27.3729 -8.2587 -2.5014 0.8915
-24.6073 -14.5589 -2.5014 0.8915
-22.6767 -17.4140 -2.5014 0.8915
-16.7733 -20.9687 -2.3492 0.8978
-12.7811 -20.6570 -2.1252 0.9071
4.5326 -26.4667 -2.3492 0.8978
8.1821 -27.3959 -2.5014 0.8915
11.4189 -26.2124 -2.5014 0.8915
14.4899 -24.6480 -2.5014 0.8915
19.9587 -20.4727 -2.5014 0.8915
22.2770 -17.9225 -2.5014 0.8915
25.9137 -12.0816 -2.5014 0.8915
28.0496 -5.5411 -2.5014 0.8915
11.6634 3.4478 -1.0641 0.9523
24.6475 10.6551 -2.3492 0.8978
11.3500 8.6153 -1.2467 0.9444
8.8833 8.6119 -1.0825 0.9515
6.9064 8.5354 -0.9606 0.9569
4.0671 8.6600 -0.8370 0.9623
1.7388 8.6743 -0.7740 0.9651
0.6699 8.6575 -0.7597 0.9657
-1.4193 8.5763 -0.7605 0.9657
-2.4964 8.5326 -0.7778 0.9649
-3.7356 8.7080 -0.8290 0.9627
-5.0585 8.7161 -0.8817 0.9603
-8.4225 8.7368 -1.0617 0.9524
-17.6935 8.3701 -1.7124 0.9244
-26.8299 -1.0897 -2.3492 0.8978
-28.2044 -4.5866 -2.5000 0.8916
-27.4637 -7.9515 -2.5014 0.8915
-17.0072 -20.7794 -2.3492 0.8978
-13.2586 -20.9015 -2.1655 0.9054
-9.2985 -19.5144 -1.8912 0.9169
-1.7069 -20.5612 -1.8051 0.9205
0.8129 -21.4994 -1.8823 0.9172
17.0946 -22.9184 -2.5014 0.8915
19.7281 -20.6951 -2.5014 0.8915
22.0748 -18.1709 -2.5014 0.8915
25.7766 -12.3712 -2.5014 0.8915
27.9857 -5.8550 -2.5014 0.8915
28.4869 -2.4452 -2.5014 0.8915
28.5741 1.0002 -2.5014 0.8915
11.6167 3.2930 -1.0564 0.9527
11.6159 8.6136 -1.2652 0.9436
7.0721 8.5426 -0.9703 0.9564
2.9653 8.6668 -0.8014 0.9639
1.8401 8.6737 -0.7757 0.9650
0.7679 8.6621 -0.7608 0.9657
-0.2773 8.6130 -0.7539 0.9660
-1.3215 8.5810 -0.7596 0.9657
-2.3928 8.5323 -0.7753 0.9650
-3.6203 8.7073 -0.8250 0.9628
-4.9283 8.7153 -0.8760 0.9606
-13.2215 8.5436 -1.3772 0.9387
-21.1353 7.2974 -1.9562 0.9141
-26.3030 5.6570 -2.3538 0.8976
-27.5511 -7.6433 -2.5014 0.8915
-20.8601 -19.5535 -2.5014 0.8915
-17.2390 -20.5875 -2.3492 0.8978
-9.5860 -19.5507 -1.9050 0.9163
-6.7769 -19.4508 -1.8020 0.9206
-4.1747 -19.1501 -1.7148 0.9243
-1.9256 -20.4186 -1.7943 0.9209
0.5682 -21.3696 -1.8703 0.9177
3.9384 -26.5616 -2.3492 0.8978
7.5661 -27.5724 -2.5014 0.8915
16.8368 -23.1085 -2.5014 0.8915
21.8699 -18.4171 -2.5014 0.8915
23.9269 -15.6519 -2.5014 0.8915
27.9183 -6.1683 -2.5014 0.8915
26.7461 3.8892 -2.3646 0.8972
11.5823 3.1434 -1.0500 0.9530
24.8800 10.1002 -2.3492 0.8978
15.4928 8.5898 -1.5498 0.9313
9.3083 8.6278 -1.1104 0.9503
0.8663 8.6667 -0.7620 0.9656
-1.2239 8.5857 -0.7587 0.9658
-2.2905 8.5342 -0.7731 0.9651
-3.5061 8.7066 -0.8212 0.9630
-6.2815 8.7236 -0.9405 0.9578
-10.2708 8.7482 -1.1804 0.9473
-12.9308 8.5626 -1.3568 0.9396
-16.9987 8.5127 -1.6633 0.9265
-26.2484 5.9538 -2.3548 0.8976
-26.8475 -0.4882 -2.3492 0.8978
-27.8152 -3.8856 -2.4571 0.8934
-27.6350 -7.3341 -2.5014 0.8915
-21.0779 -19.3185 -2.5014 0.8915
-17.4685 -20.3931 -2.3492 0.8978
-14.2701 -21.4195 -2.2518 0.9018
-3.4805 -15.1479 -1.3598 0.9395
-2.1558 -20.4096 -1.7955 0.9209
0.3268 -21.2416 -1.8586 0.9182
3.6405 -26.6040 -2.3492 0.8978
7.2566 -27.6554 -2.5014 0.8915
13.6533 -25.1211 -2.5014 0.8915
16.5769 -23.2957 -2.5014 0.8915
19.2594 -21.1319 -2.5014 0.8915
23.7501 -15.9190 -2.5014 0.8915
25.4930 -12.9457 -2.5014 0.8915
26.8654 -9.7843 -2.5014 0.8915
27.8475 -6.4806 -2.5014 0.8915
28.4250 -3.0829 -2.5014 0.8915
28.5894 0.3596 -2.5014 0.8915
11.5872 3.0058 -1.0473 0.9531
24.9916 9.8208 -2.3492 0.8978
16.5660 8.9437 -1.6471 0.9272
4.4271 8.6578 -0.8507 0.9617
2.0439 8.6725 -0.7795 0.9649
0.9650 8.6713 -0.7633 0.9656
-0.0843 8.6221 -0.7544 0.9660
-1.1265 8.5904 -0.7580 0.9658
-2.1896 8.5391 -0.7712 0.9652
-6.1336 8.7227 -0.9329 0.9581
-7.8704 8.7334 -1.0286 0.9539
-10.0390 8.7467 -1.1649 0.9479
-12.6486 8.5811 -1.3372 0.9405
-16.5868 8.5402 -1.6322 0.9278
-26.8513 -0.1874 -2.3492 0.8978
-27.7154 -7.0240 -2.5014 0.8915
-25.2349 -13.4418 -2.5014 0.8915
-21.2930 -19.0812 -2.5014 0.8915
-17.6960 -20.1961 -2.3492 0.8978
-14.8070 -21.6944 -2.2980 0.8999
-10.1741 -19.6248 -1.9340 0.9151
-2.3599 -20.1754 -1.7772 0.9217
3.3421 -26.6432 -2.3492 0.8978
19.0214 -21.3464 -2.5014 0.8915
23.5702 -16.1842 -2.5014 0.8915
27.7731 -6.7923 -2.5014 0.8915
28.3886 -3.4012 -2.5014 0.8915
28.5916 0.0394 -2.5014 0.8915
28.3792 3.4793 -2.5014 0.8915
11.5980 2.8703 -1.0453 0.9532
9.7342 8.6252 -1.1379 0.9491
7.5888 8.5637 -1.0011 0.9551
5.8645 8.4898 -0.9027 0.9594
4.5498 8.6571 -0.8556 0.9615
2.1466 8.6718 -0.7816 0.9648
1.0641 8.6760 -0.7647 0.9655
0.0123 8.6266 -0.7547 0.9660
-1.0293 8.5950 -0.7573 0.9658
-3.2808 8.7052 -0.8139 0.9633
-4.5475 8.7130 -0.8599 0.9613
-9.8133 8.7454 -1.1500 0.9486
-16.1898 8.5667 -1.6025 0.9291
-20.7332 7.9481 -1.9426 0.9147
-26.1269 6.5451 -2.3564 0.8975
-18.2237 2.2870 -1.6069 0.9289
-26.6703 -3.1182 -2.3492 0.8978
-25.3839 -13.1582 -2.5014 0.8915
-18.0244 -20.1117 -2.3628 0.8972
-7.4795 -19.3485 -1.8148 0.9201
-4.8638 -19.1879 -1.7318 0.9236
-0.1475 -20.9901 -1.8364 0.9192
6.1626 -25.8304 -2.3233 0.8989
9.9333 -26.8107 -2.5014 0.8915
13.0870 -25.4207 -2.5014 0.8915
18.7811 -21.5581 -2.5014 0.8915
21.2385 -19.1418 -2.5014 0.8915
27.6953 -7.1031 -2.5014 0.8915
28.3487 -3.7190 -2.5014 0.8915
28.5903 -0.2811 -2.5014 0.8915
11.6182 2.7375 -1.0443 0.9532
25.2054 9.2583 -2.3492 0.8978
12.7643 8.6066 -1.3469 0.9401
3.4052 8.6641 -0.8145 0.9633
2.2498 8.6712 -0.7838 0.9647
3.6616 27.3171 -2.4113 0.8952
-4.4236 8.7122 -0.8548 0.9615
-7.5209 8.7312 -1.0082 0.9548
-12.1075 8.6163 -1.3001 0.9421
-15.8070 8.5922 -1.5740 0.9303
-20.6813 8.1952 -1.9463 0.9145
-26.8488 0.4144 -2.3492 0.8978
-26.8932 -9.7076 -2.5014 0.8915
-25.5298 -12.8730 -2.5014 0.8915
-23.7954 -15.8512 -2.5014 0.8915
-21.7153 -18.5991 -2.5014 0.8915
-19.1397 -20.8807 -2.4782 0.8925
-15.6306 -21.8338 -2.3492 0.8978
-7.7163 -19.3149 -1.8197 0.9199
-5.0963 -19.1991 -1.7379 0.9233
-0.3805 -20.8665 -1.8259 0.9196
2.5284 -24.6100 -2.1644 0.9054
5.8337 -25.7253 -2.3078 0.8995
12.8013 -25.5658 -2.5014 0.8915
15.7846 -23.8397 -2.5014 0.8915
23.2017 -16.7082 -2.5014 0.8915
27.6140 -7.4129 -2.5014 0.8915
28.3053 -4.0365 -2.5014 0.8915
28.5853 -0.6014 -2.5014 0.8915
28.4500 2.8425 -2.5014 0.8915
17.5704 8.7364 -1.7167 0.9242
13.0568 8.5925 -1.3675 0.9392
-2.8103 -18.9255 -2.3492 0.9258
-0.5127 -19.1262 -2.3492 0.9258
1.7923 -19.0489 -2.3492 0.9258
8.9651 -18.2940 -2.5014 0.9212
11.1012 -17.0824 -2.5014 0.9212
13.0759 -15.6226 -2.5014 0.9212
17.7596 -9.9821 -2.5014 0.9212
19.6300 -5.4503 -2.5014 0.9212
20.3637 -0.6029 -2.5014 0.9212
10.6762 2.2938 -1.3408 0.9569
18.0867 6.2406 -2.3492 0.9258
17.2045 8.3715 -2.3492 0.9258
13.3200 8.6032 -1.9470 0.9381
10.3593 8.6214 -1.6548 0.9471
1.3382 8.6768 -1.0780 0.9652
-1.8070 8.5269 -1.0702 0.9655
-2.9757 8.7033 -1.1294 0.9636
-5.5972 8.7194 -1.2722 0.9591
-7.2236 8.7294 -1.3912 0.9554
-9.2178 8.7417 -1.5598 0.9501
-11.5722 8.5851 -1.7692 0.9436
-18.9013 2.9692 -2.3492 0.9258
-19.1968 0.6761 -2.3585 0.9255
-19.9418 -4.1677 -2.5014 0.9212
-18.3687 -8.8110 -2.5014 0.9212
-14.0601 -14.7430 -2.5014 0.9212
-12.1841 -16.3277 -2.5014 0.9212
-9.5146 -16.5996 -2.3492 0.9258
-0.7269 -19.1193 -2.3492 0.9258
3.8616 -18.7393 -2.3492 0.9258
8.7595 -18.3933 -2.5014 0.9212
10.9091 -17.2057 -2.5014 0.9212
12.9000 -15.7681 -2.5014 0.9212
16.2935 -12.2298 -2.5014 0.9212
17.6466 -10.1804 -2.5014 0.9212
19.5677 -5.6699 -2.5014 0.9212
20.1078 -3.2743 -2.5014 0.9212
20.3557 -0.8311 -2.5014 0.9212
10.8769 2.2097 -1.3628 0.9563
10.5583 3.5111 -1.3662 0.9561
17.2972 8.1782 -2.3492 0.9258
13.6501 8.6011 -1.9810 0.9370
8.1879 8.4898 -1.4482 0.9536
4.3065 5.7042 -0.8776 0.9716
5.0132 8.6339 -1.2259 0.9606
3.7181 8.6622 -1.1574 0.9627
1.4378 8.6762 -1.0798 0.9652
0.3768 8.6352 -1.0613 0.9658
-1.7084 8.5321 -1.0684 0.9655
-2.8547 8.6655 -1.1202 0.9639
-7.0595 8.7284 -1.3784 0.9558
-9.0121 8.7404 -1.5415 0.9507
-13.8893 8.1169 -1.9752 0.9372
-17.5606 7.5960 -2.3492 0.9258
-18.3470 5.4278 -2.3492 0.9258
-18.8668 3.1808 -2.3492 0.9258
-19.1125 0.8876 -2.3492 0.9258
-19.9872 -3.9440 -2.5014 0.9212
-18.4663 -8.6047 -2.5014 0.9212
-17.2968 -10.7641 -2.5014 0.9212
-9.7000 -16.4920 -2.3492 0.9258
-7.6451 -17.5393 -2.3492 0.9258
-5.4792 -18.3317 -2.3492 0.9258
-3.2337 -18.8578 -2.3492 0.9258
3.6514 -18.7814 -2.3492 0.9258
12.7225 -15.9116 -2.5014 0.9212
14.5447 -14.2652 -2.5014 0.9212
17.5314 -10.3775 -2.5014 0.9212
18.6527 -8.1927 -2.5014 0.9212
20.0698 -3.4994 -2.5014 0.9212
20.3247 1.3966 -2.5014 0.9212
11.1369 2.1328 -1.3923 0.9553
8.4030 8.5197 -1.4693 0.9529
6.5235 8.4422 -1.3100 0.9579
-0.5661 8.5904 -1.0571 0.9659
-1.6102 8.5373 -1.0667 0.9656
-5.8564 18.4709 -2.3792 0.9249
-3.9696 8.7094 -1.1752 0.9622
-5.3241 8.7178 -1.2542 0.9597
-8.8111 8.7392 -1.5238 0.9512
-11.1474 8.6639 -1.7335 0.9447
-13.6609 8.1901 -1.9557 0.9378
-17.4724 7.7914 -2.3490 0.9258
-19.1013 1.1017 -2.3492 0.9258
-20.3322 -1.2827 -2.5014 0.9212
-20.0302 -3.7198 -2.5014 0.9212
-19.4371 -6.1028 -2.5014 0.9212
-17.4163 -10.5696 -2.5014 0.9212
-16.0180 -12.5884 -2.5014 0.9212
-14.3870 -14.4243 -2.5014 0.9212
-9.8841 -16.3823 -2.3492 0.9258
-7.8411 -17.4525 -2.3492 0.9258
-5.6843 -18.2692 -2.3492 0.9258
-3.4448 -18.8204 -2.3492 0.9258
-1.1552 -19.0982 -2.3492 0.9258
0.9684 -16.0674 -1.9764 0.9372
3.4407 -18.8211 -2.3492 0.9258
6.0484 -19.4541 -2.5014 0.9212
10.5208 -17.4458 -2.5014 0.9212
14.3839 -14.4273 -2.5014 0.9212
17.4141 -10.5733 -2.5014 0.9212
20.0294 -3.7241 -2.5014 0.9212
11.5739 2.0824 -1.4439 0.9537
10.4461 3.2157 -1.3420 0.9569
17.4761 7.7885 -2.3492 0.9258
6.6796 8.4469 -1.3222 0.9575
5.2690 8.6235 -1.2408 0.9601
3.9496 8.6608 -1.1688 0.9624
1.8616 5.8671 -0.7558 0.9755
1.6381 8.6750 -1.0840 0.9650
-0.4698 8.5951 -1.0569 0.9659
-1.5123 8.5424 -1.0652 0.9656
-2.5798 8.4645 -1.0865 0.9650
-5.1904 8.7169 -1.2457 0.9599
-11.7999 15.2773 -2.3702 0.9252
-8.6146 8.7380 -1.5066 0.9518
-10.9414 8.7021 -1.7165 0.9452
-13.4368 8.2618 -1.9367 0.9384
-19.0878 1.3157 -2.3492 0.9258
-19.5042 -5.8846 -2.5014 0.9212
-18.6545 -8.1887 -2.5014 0.9212
-17.5336 -10.3738 -2.5014 0.9212
-14.5477 -14.2622 -2.5014 0.9212
-10.0671 -16.2705 -2.3492 0.9258
-8.0362 -17.3636 -2.3492 0.9258
-5.8886 -18.2044 -2.3492 0.9258
8.1364 -18.6773 -2.5014 0.9212
12.3628 -16.1928 -2.5014 0.9212
14.2213 -14.5876 -2.5014 0.9212
15.8733 -12.7704 -2.5014 0.9212
17.2945 -10.7678 -2.5014 0.9212
19.9864 -3.9482 -2.5014 0.9212
20.3163 -1.5147 -2.5014 0.9212
20.3509 0.9408 -2.5014 0.9212
14.7140 8.5946 -2.0923 0.9336
11.3500 8.6153 -1.7496 0.9442
-0.3734 8.5998 -1.0569 0.9659
-1.4146 8.5475 -1.0638 0.9657
-3.7356 8.7080 -1.1634 0.9625
-5.0585 8.7161 -1.2374 0.9602
-8.4225 8.7368 -1.4900 0.9523
-10.7393 8.7396 -1.7001 0.9457
-13.2168 8.3321 -1.9184 0.9390
-18.7492 3.8131 -2.3492 0.9258
-19.0718 1.5295 -2.3492 0.9258
-20.1085 -3.2700 -2.5014 0.9212
-19.5689 -5.6658 -2.5014 0.9212
-18.7450 -7.9792 -2.5014 0.9212
-16.2961 -12.2263 -2.5014 0.9212
-14.7066 -14.0983 -2.5014 0.9212
-12.9034 -15.7654 -2.5014 0.9212
-8.2303 -17.2724 -2.3492 0.9258
-6.0922 -18.1372 -2.3492 0.9258
-3.8656 -18.7385 -2.3492 0.9258
3.0181 -18.8935 -2.3492 0.9258
7.9266 -18.7673 -2.5014 0.9212
10.1272 -17.6772 -2.5014 0.9212
14.0570 -14.7460 -2.5014 0.9212
19.2940 -6.5409 -2.5014 0.9212
20.3602 0.7127 -2.5014 0.9212
10.4361 2.9583 -1.3319 0.9572
5.3625 8.3500 -1.2185 0.9608
2.9653 8.6668 -1.1247 0.9638
1.8401 8.6737 -1.0887 0.9649
-0.2771 8.6045 -1.0570 0.9659
-1.3171 8.5525 -1.0625 0.9657
-3.6203 8.7073 -1.1578 0.9627
-4.9283 8.7153 -1.2293 0.9605
-6.4318 8.7246 -1.3309 0.9573
-8.2345 8.7356 -1.4740 0.9528
-10.5020 8.7440 -1.6779 0.9464
-19.0535 1.7431 -2.3492 0.9258
-19.6312 -5.4461 -2.5014 0.9212
-14.8636 -13.9326 -2.5014 0.9212
-10.6087 -16.3171 -2.3897 0.9246
-6.2951 -18.0678 -2.3492 0.9258
2.8063 -18.9261 -2.3492 0.9258
7.7158 -18.8550 -2.5014 0.9212
15.5831 -13.1229 -2.5014 0.9212
17.0489 -11.1526 -2.5014 0.9212
19.2195 -6.7567 -2.5014 0.9212
20.2772 -1.9696 -2.5014 0.9212
10.4506 2.8363 -1.3296 0.9573
15.4929 8.5898 -2.1751 0.9311
9.3083 8.6278 -1.5584 0.9501
7.1659 8.4611 -1.3614 0.9563
4.3058 8.6586 -1.1873 0.9618
1.9417 8.6731 -1.0913 0.9648
-0.1807 8.6091 -1.0573 0.9659
-2.2817 8.5012 -1.0808 0.9651
-8.0506 8.7345 -1.4585 0.9533
-17.1225 8.5747 -2.3513 0.9257
-18.0143 6.4467 -2.3492 0.9258
-18.6591 4.2323 -2.3492 0.9258
-19.0328 1.9564 -2.3492 0.9258
-20.3693 -0.3704 -2.5014 0.9212
-19.6910 -5.2258 -2.5014 0.9212
-17.8724 -9.7787 -2.5014 0.9212
-13.2534 -15.4723 -2.5014 0.9212
-10.9446 -16.4279 -2.4237 0.9235
0.2943 -19.1308 -2.3492 0.9258
2.5940 -18.9564 -2.3492 0.9258
4.8578 -18.5135 -2.3501 0.9258
13.7231 -15.0573 -2.5014 0.9212
15.4351 -13.2967 -2.5014 0.9212
19.1426 -6.9717 -2.5014 0.9212
20.2539 -2.1967 -2.5014 0.9212
20.1922 2.7056 -2.5014 0.9212
16.5576 8.9391 -2.3104 0.9270
12.1722 8.6102 -1.8307 0.9417
2.0439 8.6725 -1.0940 0.9647
-0.0842 8.6137 -1.0577 0.9659
-1.1229 8.5625 -1.0603 0.9658
-3.3930 8.7059 -1.1473 0.9630
-7.8704 8.7334 -1.4435 0.9537
-10.0390 8.7467 -1.6349 0.9478
-17.9409 6.6481 -2.3492 0.9258
-20.3480 -0.1420 -2.4985 0.9213
-20.2070 -2.5924 -2.5014 0.9212
-19.7483 -5.0049 -2.5014 0.9212
-17.9808 -9.5778 -2.5014 0.9212
-15.1721 -13.5961 -2.5014 0.9212
-13.4260 -15.3228 -2.5014 0.9212
-8.8061 -16.9861 -2.3492 0.9258
-2.2228 -19.0035 -2.3492 0.9258
0.0799 -19.1329 -2.3492 0.9258
4.6484 -18.5598 -2.3492 0.9258
15.2852 -13.4688 -2.5014 0.9212
18.0602 -9.4273 -2.5014 0.9212
19.0633 -7.1857 -2.5014 0.9212
19.7894 -4.8398 -2.5014 0.9212
20.3726 0.0280 -2.5014 0.9212
12.4636 8.6084 -1.8599 0.9408
4.5498 8.6571 -1.2008 0.9614
3.2939 8.6648 -1.1382 0.9633
2.1466 8.6718 -1.0969 0.9646
-1.0260 8.5674 -1.0595 0.9658
-2.0813 8.5121 -1.0759 0.9653
-3.2808 8.7052 -1.1423 0.9632
-9.8133 8.7454 -1.6140 0.9484
-12.2096 8.4846 -1.8256 0.9418
-18.0820 2.2692 -2.2376 0.9292
-20.3211 0.0859 -2.4951 0.9214
-20.2348 -2.3657 -2.5014 0.9212
-18.0870 -9.3757 -2.5014 0.9212
-16.8275 -11.4839 -2.5014 0.9212
-15.3235 -13.4252 -2.5014 0.9212
-13.5968 -15.1714 -2.5014 0.9212
-11.6397 -16.6502 -2.4944 0.9214
-8.9959 -16.8863 -2.3492 0.9258
-6.8987 -17.8461 -2.3492 0.9258
-4.7013 -18.5465 -2.3492 0.9258
-2.4356 -18.9774 -2.3492 0.9258
-0.1344 -19.1326 -2.3492 0.9258
2.1686 -19.0098 -2.3492 0.9258
4.4401 -18.6107 -2.3492 0.9258
7.0779 -19.1036 -2.5014 0.9212
11.4367 -16.8596 -2.5014 0.9212
13.3822 -15.3610 -2.5014 0.9212
15.1333 -13.6392 -2.5014 0.9212
16.6644 -11.7193 -2.5014 0.9212
18.9816 -7.3989 -2.5014 0.9212
19.7339 -5.0612 -2.5014 0.9212
20.1996 -2.6499 -2.5014 0.9212
20.3717 -0.2003 -2.5014 0.9212
20.2477 2.2523 -2.5014 0.9212
17.9598 6.5969 -2.3492 0.9258
12.7643 8.6066 -1.8902 0.9398
9.9552 8.6239 -1.6172 0.9483
4.6739 8.6563 -1.2079 0.9611
2.2498 8.6712 -1.0999 0.9645
0.1089 8.6228 -1.0588 0.9658
-1.9817 8.5175 -1.0738 0.9654
-7.5209 8.7312 -1.4149 0.9546
-11.9620 8.5128 -1.8027 0.9425
-18.5063 4.8570 -2.3492 0.9258
-19.8555 -4.5611 -2.5014 0.9212
-19.1625 -6.9170 -2.5014 0.9212
-15.4730 -13.2526 -2.5014 0.9212
-13.7659 -15.0181 -2.5014 0.9212
-11.8398 -16.5387 -2.4974 0.9213
-9.1846 -16.7845 -2.3492 0.9258
-7.0982 -17.7677 -2.3492 0.9258
-2.6480 -18.9489 -2.3492 0.9258
1.9554 -19.0329 -2.3492 0.9258
11.2471 -16.9867 -2.5014 0.9212
14.9795 -13.8080 -2.5014 0.9212
16.5321 -11.9052 -2.5014 0.9212
18.8975 -7.6111 -2.5014 0.9212
19.6760 -5.2820 -2.5014 0.9212
20.1686 -2.8761 -2.5014 0.9212
10.6187 2.3767 -1.3361 0.9571
18.0326 6.3953 -2.3492 0.9258
13.0568 8.5925 -1.9192 0.9390
10.1819 8.6225 -1.6382 0.9476
-4.0258 -14.6586 -2.4077 0.9403
-2.1786 -14.6717 -2.3492 0.9417
-0.4012 -14.9659 -2.3712 0.9412
3.3607 -15.4318 -2.5014 0.9380
6.9500 -14.1821 -2.5014 0.9380
8.6060 -13.2428 -2.5014 0.9380
13.7678 -7.7384 -2.5014 0.9380
14.5988 -6.0256 -2.5014 0.9380
15.7866 -0.4674 -2.5014 0.9380
10.3059 3.5559 -1.7267 0.9568
13.3374 6.4898 -2.3492 0.9417
4.8966 8.6549 -1.5750 0.9605
2.4334 8.6701 -1.4263 0.9642
1.3382 8.6768 -1.3905 0.9651
0.2774 8.5592 -1.3564 0.9659
-1.7919 8.4555 -1.3690 0.9656
-2.9757 8.7033 -1.4568 0.9634
-7.2236 8.7294 -1.7946 0.9551
-13.6787 5.7357 -2.3492 0.9417
-14.2694 4.0482 -2.3492 0.9417
-15.7837 0.5559 -2.5014 0.9380
-15.7359 -1.3473 -2.5014 0.9380
-15.4595 -3.2309 -2.5014 0.9380
-14.9584 -5.0676 -2.5014 0.9380
-10.8999 -11.4292 -2.5014 0.9380
-9.4455 -12.6577 -2.5014 0.9380
-7.8538 -13.7022 -2.5014 0.9380
-2.3429 -14.6463 -2.3492 0.9417
-0.5674 -14.9239 -2.3654 0.9413
1.2888 -15.5651 -2.4737 0.9387
3.1876 -15.4685 -2.5014 0.9380
6.7907 -14.2591 -2.5014 0.9380
10.0005 -12.2239 -2.5014 0.9380
