ply
format ascii 1.0
element vertex 1555
property float32 x
property float32 y
property float32 z
property float32 I
end_header
-21.4139 -31.5524 1.9985 0.8584
-7.9686 -33.3888 1.7990 0.8715
-3.8306 -33.5715 1.7708 0.8734
0.4427 -62.7788 3.2902 0.7777
22.2062 -87.5575 4.7340 0.6964
26.8712 -50.4135 2.9939 0.7955
29.3314 -41.9333 2.6819 0.8147
67.6922 -16.3098 3.6491 0.7566
69.0613 -8.0310 3.6437 0.7569
58.6000 7.3968 3.0955 0.7893
33.7321 8.4777 1.8228 0.8700
49.7642 19.1239 2.7940 0.8077
37.1550 19.7015 2.2040 0.8450
12.3644 8.6090 0.7896 0.9414
7.5769 8.6173 0.6014 0.9551
5.9242 8.6486 0.5494 0.9589
4.5062 8.6573 0.5115 0.9617
3.2535 8.6633 0.4850 0.9636
2.1049 8.6546 0.4668 0.9650
1.0272 8.6704 0.4576 0.9656
-0.0238 8.6796 0.4549 0.9658
-4.5962 8.7133 0.5163 0.9613
-7.7638 8.7327 0.6124 0.9543
-16.7957 8.7882 0.9934 0.9269
-21.5695 2.6025 1.1386 0.9167
-21.8116 -31.5500 2.0101 0.8576
-12.0154 -31.5804 1.7708 0.8734
-0.0981 -62.7139 3.2867 0.7779
29.2926 -77.7211 4.3529 0.7170
27.7670 -40.4340 2.5706 0.8216
46.9922 -41.8606 3.2982 0.7772
60.0650 -31.7591 3.5608 0.7617
53.2797 -20.4030 2.9900 0.7957
68.9554 8.1010 3.6386 0.7572
59.8968 14.5061 3.2298 0.7813
9.8281 8.6246 0.6853 0.9490
7.7261 8.6358 0.6073 0.9546
6.0339 8.6479 0.5526 0.9586
4.6011 8.6568 0.5138 0.9615
3.3394 8.6645 0.4866 0.9635
2.1837 8.6532 0.4677 0.9649
0.0510 8.6791 0.4549 0.9658
-1.0011 8.6824 0.4580 0.9656
-4.5004 8.7127 0.5139 0.9615
-5.9341 8.7215 0.5528 0.9586
-7.6294 8.7319 0.6077 0.9546
-9.7321 8.7448 0.6857 0.9489
-21.5385 2.7873 1.1382 0.9167
65.6674 13.5237 1.1703 0.7647
58.3211 19.5712 1.0738 0.7818
10.5352 8.6203 0.2376 0.9470
4.9674 8.6149 0.1736 0.9610
-0.6974 8.6682 0.1518 0.9658
-1.7671 8.6750 0.1545 0.9652
-2.8858 8.6612 0.1594 0.9641
-12.0422 25.4287 0.4911 0.8935
-5.5021 8.7188 0.1800 0.9596
-9.0772 8.7408 0.2200 0.9508
-11.6181 8.7564 0.2539 0.9435
-73.5142 -5.7555 1.2871 0.7445
-18.3845 -31.5691 0.6377 0.8640
-5.2116 -31.2306 0.5527 0.8810
-1.8792 -42.0244 0.7343 0.8451
40.9764 -87.4997 1.6865 0.6794
31.6242 -39.1628 0.8786 0.8176
34.2165 -26.0205 0.7503 0.8420
83.4146 -24.7260 1.5186 0.7061
50.8035 10.0071 0.9038 0.8129
59.9278 19.5375 1.1002 0.7771
10.7210 8.6191 0.2401 0.9465
28.2652 64.8568 1.2349 0.7535
0.4257 8.6824 0.1517 0.9658
-0.6225 8.6711 0.1517 0.9658
-1.6893 8.6745 0.1543 0.9653
-4.0144 8.6692 0.1668 0.9625
-6.9860 8.7280 0.1951 0.9563
-8.9211 8.7399 0.2180 0.9513
-11.4105 8.7552 0.2510 0.9441
-14.8102 8.7535 0.3003 0.9335
-20.0627 8.7949 0.3824 0.9161
-34.2408 1.7529 0.5985 0.8718
-63.9818 -29.4604 1.2295 0.7544
-18.7493 -31.5668 0.6409 0.8634
-15.5919 -35.3603 0.6746 0.8568
-9.4695 -31.2045 0.5692 0.8777
40.0585 -87.4943 1.6797 0.6805
34.1689 -33.7646 0.8385 0.8252
34.2137 -26.4867 0.7552 0.8411
40.7793 -24.3400 0.8290 0.8270
80.7988 -24.7099 1.4748 0.7132
26.9170 8.5196 0.4928 0.8932
6.7071 8.6253 0.1907 0.9572
5.1666 8.6139 0.1753 0.9606
2.6715 8.6686 0.1583 0.9644
1.5632 8.6754 0.1539 0.9653
-1.6118 8.6740 0.1540 0.9653
-3.9237 8.6685 0.1661 0.9626
-5.2935 8.7176 0.1780 0.9600
-11.2077 8.7539 0.2482 0.9447
-14.5191 8.7511 0.2959 0.9344
-57.2301 -17.8432 1.0464 0.7868
-65.4652 -29.4624 1.2531 0.7504
-24.4557 -31.1720 0.6916 0.8534
-15.9562 -35.3580 0.6771 0.8563
-9.7633 -31.2027 0.5707 0.8774
-5.7658 -31.2272 0.5543 0.8807
-2.5102 -40.4885 0.7081 0.8502
39.1477 -87.4888 1.6730 0.6815
34.1654 -34.3478 0.8456 0.8238
53.8042 -24.4201 1.0314 0.7895
27.7295 8.5146 0.5063 0.8904
44.6426 19.8604 0.8529 0.8224
15.1052 9.0391 0.3073 0.9320
8.7150 8.6315 0.2141 0.9521
2.7533 8.6681 0.1588 0.9643
1.6404 8.6750 0.1541 0.9653
-2.6386 8.6595 0.1580 0.9644
-5.1909 8.7169 0.1771 0.9602
-14.2364 8.7488 0.2917 0.9353
-19.1455 8.7892 0.3677 0.9192
-57.2546 -17.3110 1.0441 0.7872
-24.8904 -31.1694 0.6962 0.8525
-20.6806 -33.4903 0.6870 0.8543
-16.3232 -35.3558 0.6797 0.8557
26.5780 -88.5928 1.6145 0.6907
38.2442 -87.4834 1.6666 0.6825
34.2078 -27.4377 0.7654 0.8391
75.8376 -24.6294 1.3918 0.7269
50.0620 8.5234 0.8864 0.8161
46.3530 20.1449 0.8822 0.8169
11.3027 8.6156 0.2481 0.9447
8.8656 8.6305 0.2160 0.9517
6.9478 8.6240 0.1933 0.9567
4.0247 8.6197 0.1660 0.9627
1.7179 8.6745 0.1544 0.9652
0.4416 5.8892 0.1031 0.9767
-0.3981 8.6816 0.1517 0.9658
-1.4574 8.6730 0.1535 0.9654
-2.5571 8.6590 0.1576 0.9645
-5.0893 8.7163 0.1762 0.9604
-10.8151 8.7515 0.2428 0.9459
-18.7108 8.7856 0.3608 0.9206
-26.8564 8.8501 0.4936 0.8930
-57.1085 -43.1437 1.2493 0.7510
-21.0797 -33.4879 0.6907 0.8536
-16.6932 -35.3535 0.6824 0.8552
-10.7250 -32.3116 0.5943 0.8727
-3.2111 -40.4842 0.7089 0.8500
34.0762 -79.8158 1.5148 0.7067
30.0300 -51.9445 1.0473 0.7866
31.6974 -42.1456 0.9205 0.8098
34.1580 -35.5449 0.8605 0.8210
38.4394 -24.3124 0.7939 0.8336
51.3995 -24.4053 0.9932 0.7964
50.3204 8.1219 0.8897 0.8155
29.4959 8.5037 0.5358 0.8844
47.2501 20.0526 0.8960 0.8144
15.2821 8.7910 0.3077 0.9319
11.4816 8.5966 0.2504 0.9442
9.0188 8.6296 0.2179 0.9513
7.0706 8.6233 0.1946 0.9564
5.4772 8.6186 0.1782 0.9600
0.4919 5.8801 0.1030 0.9767
-0.3231 8.6814 0.1516 0.9658
-2.4772 8.6624 0.1573 0.9646
-3.6560 8.6666 0.1642 0.9631
-4.9887 8.7157 0.1753 0.9606
-13.7143 8.7571 0.2840 0.9370
-57.3030 -16.2534 1.0397 0.7880
-20.0166 -31.1992 0.6470 0.8622
-17.0662 -35.3512 0.6852 0.8547
-6.6035 -31.2220 0.5570 0.8801
36.4316 -87.4108 1.6530 0.6846
31.5536 -42.7158 0.9270 0.8086
34.1542 -36.1595 0.8682 0.8196
34.2018 -28.4150 0.7761 0.8370
37.7255 -24.3184 0.7835 0.8356
50.2625 -24.3983 0.9752 0.7997
53.6232 -18.4422 0.9898 0.7970
90.0880 -19.2568 1.6080 0.6917
50.5631 7.7147 0.8928 0.8150
48.5955 20.1311 0.9181 0.8102
15.3649 8.6632 0.3079 0.9319
7.1952 8.6227 0.1960 0.9561
2.8122 5.7617 0.1119 0.9747
3.0015 8.6666 0.1601 0.9640
-1.3041 8.6720 0.1531 0.9655
-2.3977 8.6661 0.1569 0.9647
-4.8892 8.7151 0.1744 0.9608
-10.4392 8.7492 0.2377 0.9470
-80.2879 7.5879 1.4077 0.7242
-57.0929 -15.6637 1.0334 0.7891
-3.7977 -39.2811 0.6888 0.8540
35.5751 -87.4703 1.6482 0.6854
36.3990 -39.2073 0.9338 0.8073
90.0831 -20.0688 1.6109 0.6913
50.7892 7.3020 0.8956 0.8144
31.4820 8.4916 0.5692 0.8777
49.6033 20.0496 0.9339 0.8073
9.3336 8.6277 0.2219 0.9504
7.3245 8.6255 0.1975 0.9557
5.6949 8.6291 0.1805 0.9595
3.0852 8.6661 0.1606 0.9639
0.8769 8.6796 0.1523 0.9657
-1.2994 65.0387 1.1355 0.7709
-1.2277 8.6716 0.1529 0.9656
-2.3185 8.6699 0.1566 0.9647
-4.7906 8.7145 0.1736 0.9610
-6.2714 8.7236 0.1875 0.9579
-47.8870 52.0293 1.2343 0.7536
-10.2570 8.7481 0.2353 0.9475
-17.5164 8.7843 0.3420 0.9246
-24.6316 8.8289 0.4567 0.9006
-55.8082 -14.7954 1.0078 0.7938
-70.3658 -50.3563 1.5103 0.7074
-20.7807 -31.1945 0.6543 0.8607
-7.1669 -31.2186 0.5591 0.8797
-3.7766 -35.8367 0.6290 0.8657
30.2181 -55.5345 1.1036 0.7765
35.7697 -39.2014 0.9263 0.8087
34.1890 -29.4148 0.7872 0.8349
36.3265 -24.3127 0.7630 0.8396
90.0717 -20.8825 1.6139 0.6908
32.5707 8.4848 0.5875 0.8740
36.4025 19.7061 0.7225 0.8474
12.1420 8.6104 0.2598 0.9422
3.1694 8.6655 0.1611 0.9638
2.0303 8.6725 0.1555 0.9650
-0.0983 8.6510 0.1510 0.9660
-6.1576 8.7229 0.1864 0.9582
-24.0025 8.8376 0.4465 0.9027
-55.7809 -14.2749 1.0050 0.7943
-65.8942 -59.3503 1.5479 0.7013
-21.1694 -31.1921 0.6580 0.8600
-17.8278 -34.6145 0.6796 0.8558
35.1504 -39.1957 0.9190 0.8101
34.1802 -29.9235 0.7929 0.8338
35.6519 -24.3085 0.7532 0.8415
50.3954 -18.8022 0.9389 0.8064
33.7320 8.4777 0.6071 0.8701
9.6601 8.6257 0.2261 0.9495
5.9112 8.6297 0.1826 0.9590
4.4853 8.6173 0.1696 0.9619
3.2541 8.6650 0.1616 0.9636
1.0282 8.6787 0.1525 0.9656
-1.0755 8.6706 0.1525 0.9657
-6.0452 8.7222 0.1852 0.9584
-7.7638 8.7327 0.2040 0.9543
-9.9036 8.7459 0.2306 0.9485
-12.7150 8.7499 0.2694 0.9401
-16.7780 8.7790 0.3305 0.9270
-55.7538 -13.7573 1.0024 0.7947
-7.7347 -31.2151 0.5613 0.8793
-4.1237 -33.5697 0.5904 0.8734
45.6898 -87.5278 1.7234 0.6737
30.0803 -43.8027 0.9275 0.8085
34.9943 -24.3045 0.7437 0.8433
46.0954 -24.3727 0.9101 0.8117
59.8968 14.5061 1.0757 0.7815
9.8281 8.6246 0.2282 0.9490
4.5799 8.6168 0.1703 0.9617
2.1884 8.6716 0.1561 0.9649
-2.0817 8.6770 0.1558 0.9649
-4.5004 8.7127 0.1712 0.9615
-5.9341 8.7215 0.1841 0.9587
-22.7510 8.8249 0.4259 0.9070
-21.5433 2.7879 0.3792 0.9168
66.7163 13.7398 -1.1890 0.7615
58.3211 19.5712 -1.0738 0.7818
34.4784 16.4188 -0.6666 0.8583
13.5657 8.6017 -0.2804 0.9378
10.5352 8.6203 -0.2376 0.9470
8.2784 8.6342 -0.2088 0.9533
6.4539 8.6016 -0.1877 0.9579
4.9414 8.5698 -0.1727 0.9612
2.5090 8.6696 -0.1575 0.9645
1.4095 8.6764 -0.1534 0.9654
-1.7629 8.6544 -0.1542 0.9653
-12.0422 25.4287 -0.4911 0.8935
-5.5021 8.7188 -0.1800 0.9596
-11.6181 8.7564 -0.2539 0.9435
-27.9542 8.1554 -0.5083 0.8900
-87.2986 3.7154 -1.5252 0.7050
-73.3483 -5.7425 -1.2842 0.7450
-16.7516 -22.1268 -0.4844 0.8949
-11.6095 -19.9354 -0.4027 0.9118
-8.4688 -19.6634 -0.3737 0.9179
-3.4538 -20.6969 -0.3663 0.9195
-0.9731 -21.7607 -0.3802 0.9165
40.9782 -87.5035 -1.6866 0.6794
31.4501 -38.9472 -0.8738 0.8185
83.7931 -24.8381 -1.5255 0.7049
49.7994 9.8094 -0.8859 0.8162
59.9278 19.5375 -1.1002 0.7771
13.8251 8.6001 -0.2842 0.9369
8.4216 8.6333 -0.2105 0.9529
6.5699 8.6008 -0.1889 0.9576
2.5900 8.6691 -0.1579 0.9645
1.4862 8.6759 -0.1536 0.9654
-0.6225 8.6711 -0.1517 0.9658
-3.9936 8.6242 -0.1659 0.9627
-5.3972 8.7182 -0.1790 0.9598
-8.9211 8.7399 -0.2180 0.9513
-11.4105 8.7552 -0.2510 0.9441
-14.6931 8.6843 -0.2979 0.9340
-19.8302 8.6930 -0.3779 0.9170
-34.2408 1.7529 -0.5985 0.8718
-47.1963 -9.0856 -0.8389 0.8251
-64.1347 -29.5308 -1.2324 0.7539
-5.9196 -19.5067 -0.3558 0.9217
-3.6135 -20.5609 -0.3644 0.9199
1.8991 -28.1497 -0.4925 0.8933
29.9546 -93.9353 -1.7210 0.6741
30.8271 -38.8558 -0.8658 0.8200
82.5732 -25.2525 -1.5072 0.7079
30.4226 5.7208 -0.5403 0.8835
60.0245 18.9986 -1.0990 0.7773
40.4346 18.4074 -0.7755 0.8372
14.0918 8.5984 -0.2881 0.9361
8.5671 8.6324 -0.2123 0.9525
3.8491 8.6284 -0.1649 0.9629
2.6715 8.6686 -0.1583 0.9644
1.5632 8.6754 -0.1539 0.9653
0.5007 8.6820 -0.1518 0.9658
-1.6079 8.6534 -0.1536 0.9654
-2.7111 8.6302 -0.1579 0.9645
-5.2935 8.7176 -0.1780 0.9600
-8.7677 8.7389 -0.2161 0.9517
-19.3703 8.6912 -0.3706 0.9186
-54.6930 9.9768 -0.9704 0.8006
-48.0274 -8.8171 -0.8523 0.8225
-62.2382 -48.7258 -1.3797 0.7289
-12.2217 -20.1789 -0.4118 0.9099
-15.9562 -35.3580 -0.6771 0.8563
-1.3525 -21.8143 -0.3815 0.9163
1.6447 -27.9645 -0.4890 0.8940
39.1492 -87.4922 -1.6731 0.6815
26.2522 -43.6562 -0.8892 0.8156
30.3266 -38.9089 -0.8611 0.8209
34.2108 -26.9589 -0.7603 0.8401
53.8042 -24.4201 -1.0314 0.7895
78.7954 -24.8415 -1.4421 0.7185
51.7872 9.2770 -0.9183 0.8102
27.3282 8.3914 -0.4990 0.8919
15.1052 9.0391 -0.3073 0.9320
11.1045 8.6168 -0.2453 0.9453
8.7150 8.6315 -0.2141 0.9521
5.2499 8.5842 -0.1756 0.9605
2.7533 8.6681 -0.1588 0.9643
0.5758 8.6815 -0.1519 0.9658
-0.4729 8.6781 -0.1517 0.9658
-1.5308 8.6530 -0.1534 0.9655
-2.6308 8.6341 -0.1575 0.9645
-5.1909 8.7169 -0.1771 0.9602
-6.7414 8.7265 -0.1925 0.9568
-8.6170 8.7380 -0.2142 0.9521
-11.0092 8.7527 -0.2455 0.9453
-27.6714 8.8551 -0.5071 0.8903
-87.2302 16.6899 -1.5502 0.7010
-54.7312 3.7485 -0.9576 0.8029
-73.1948 -12.7867 -1.2970 0.7429
-57.4813 -17.3796 -1.0482 0.7864
-73.4810 -32.3116 -1.4011 0.7253
-73.3670 -43.4757 -1.4886 0.7109
-61.9956 -47.6803 -1.3652 0.7313
-18.2914 -22.9057 -0.5117 0.8893
-12.6404 -20.4700 -0.4199 0.9082
-1.5286 -21.6363 -0.3786 0.9169
1.3579 -27.0668 -0.4730 0.8973
26.4644 -88.2142 -1.6076 0.6918
25.8587 -43.8528 -0.8886 0.8157
25.5282 -33.3411 -0.7330 0.8454
34.2078 -27.4377 -0.7654 0.8391
39.2117 -24.3304 -0.8055 0.8314
77.0958 -25.0380 -1.4149 0.7230
70.9770 3.4077 -1.2403 0.7526
51.7844 8.8167 -0.9169 0.8105
28.3505 8.4387 -0.5163 0.8884
15.1936 8.9152 -0.3075 0.9320
11.3027 8.6156 -0.2481 0.9447
6.9342 8.6072 -0.1929 0.9567
4.0039 8.5752 -0.1652 0.9628
2.8356 8.6676 -0.1592 0.9642
1.7179 8.6745 -0.1544 0.9652
-2.5509 8.6379 -0.1572 0.9646
-3.7254 8.6229 -0.1640 0.9631
-5.0893 8.7163 -0.1762 0.9604
-6.6216 8.7257 -0.1912 0.9571
-24.7808 8.1661 -0.4554 0.9009
-87.2253 17.4693 -1.5527 0.7006
-54.9339 4.2381 -0.9617 0.8022
-73.2292 -42.5458 -1.4783 0.7126
-57.0007 -43.0623 -1.2471 0.7514
-18.9731 -23.3441 -0.5251 0.8866
-12.8282 -20.3793 -0.4203 0.9082
-6.7952 -33.5533 -0.5976 0.8720
-1.6953 -21.3735 -0.3742 0.9178
25.0734 -33.3383 -0.7281 0.8463
34.1580 -35.5449 -0.8605 0.8210
34.2048 -27.9229 -0.7707 0.8381
38.4606 -24.3258 -0.7943 0.8336
73.9510 -24.7230 -1.3610 0.7320
76.6765 3.0195 -1.3394 0.7357
29.3104 8.4503 -0.5324 0.8851
42.9314 18.2197 -0.8141 0.8298
15.2821 8.7910 -0.3077 0.9319
2.9183 8.6671 -0.1596 0.9641
0.4918 5.8791 -0.1030 0.9767
-1.3773 8.6521 -0.1529 0.9656
-2.4713 8.6417 -0.1569 0.9647
-3.6374 8.6224 -0.1633 0.9633
-6.5033 8.7250 -0.1899 0.9574
-24.0876 8.1684 -0.4440 0.9033
-87.2204 18.2513 -1.5554 0.7001
-87.3545 -3.0632 -1.5257 0.7049
-19.9117 -24.0720 -0.5453 0.8825
-13.0411 -20.3267 -0.4215 0.9079
30.0237 -52.9818 -1.0630 0.7838
25.6776 -34.7610 -0.7543 0.8412
34.1542 -36.1595 -0.8682 0.8196
72.4849 -24.9292 -1.3380 0.7359
60.3142 -12.8925 -1.0766 0.7813
43.8514 18.1658 -0.8285 0.8271
15.3649 8.6632 -0.3079 0.9319
7.1924 8.6193 -0.1960 0.9561
2.8122 5.7617 -0.1119 0.9747
1.8735 8.6735 -0.1549 0.9651
-0.2484 8.6838 -0.1516 0.9658
-2.3920 8.6455 -0.1566 0.9647
-3.5500 8.6219 -0.1628 0.9634
-6.3866 8.7243 -0.1887 0.9577
-13.3965 8.7175 -0.2790 0.9381
-17.8097 8.7402 -0.3463 0.9237
-25.3502 8.8408 -0.4686 0.8982
-54.9280 5.1912 -0.9630 0.8019
-73.3287 -10.8652 -1.2939 0.7434
-73.2397 -29.9712 -1.3813 0.7286
-61.6612 -44.9353 -1.3318 0.7369
-21.2461 -25.2395 -0.5759 0.8764
-9.7464 -19.7525 -0.3845 0.9157
-6.8442 -19.4903 -0.3606 0.9207
-4.4809 -20.3198 -0.3632 0.9201
-2.0520 -21.2249 -0.3722 0.9182
0.5860 -24.1284 -0.4213 0.9080
30.0171 -54.0506 -1.0792 0.7809
25.6737 -35.3898 -0.7632 0.8395
37.0189 -24.3169 -0.7731 0.8376
49.1517 -24.3846 -0.9577 0.8029
69.6906 -24.6416 -1.2902 0.7440
60.3003 -13.4338 -1.0783 0.7810
51.6924 7.4319 -0.9116 0.8115
31.4820 8.4916 -0.5692 0.8777
44.8041 18.1098 -0.8435 0.8242
9.3336 8.6277 -0.2219 0.9504
7.3245 8.6255 -0.1975 0.9557
2.8537 5.7211 -0.1116 0.9747
1.9518 8.6730 -0.1552 0.9651
0.8769 8.6796 -0.1523 0.9657
-1.2934 64.7386 -1.1302 0.7718
-1.2248 8.6512 -0.1525 0.9656
-2.3130 8.6492 -0.1563 0.9648
-3.4632 8.6215 -0.1622 0.9635
-4.7906 8.7145 -0.1736 0.9610
-6.2714 8.7236 -0.1875 0.9579
-16.6182 18.0557 -0.4283 0.9065
-10.2570 8.7481 -0.2353 0.9475
-17.4245 8.7382 -0.3402 0.9250
-24.6528 8.8365 -0.4571 0.9005
-54.7195 5.6476 -0.9602 0.8025
-73.2327 -10.2069 -1.2906 0.7439
-55.5767 -14.7340 -1.0036 0.7945
-73.2284 -29.2325 -1.3763 0.7295
-63.0250 -34.4699 -1.2539 0.7502
-22.3238 -26.0606 -0.5990 0.8717
-13.7254 -20.6037 -0.4321 0.9057
-7.0916 -19.6516 -0.3647 0.9198
-2.2396 -21.2518 -0.3730 0.9181
0.3631 -23.1765 -0.4046 0.9114
34.6619 -87.3747 -1.6407 0.6866
28.9714 -53.2433 -1.0578 0.7847
29.3292 -41.1704 -0.8823 0.8169
35.5728 -38.9856 -0.9212 0.8097
36.3265 -24.3127 -0.7630 0.8396
48.1070 -24.3851 -0.9414 0.8059
51.6151 -18.7522 -0.9586 0.8028
32.5707 8.4848 -0.5875 0.8740
45.7915 18.0515 -0.8592 0.8213
36.4025 19.7061 -0.7225 0.8474
12.1420 8.6104 -0.2598 0.9422
9.4953 8.6267 -0.2239 0.9500
5.7868 8.6062 -0.1810 0.9594
3.1694 8.6655 -0.1611 0.9638
2.0303 8.6725 -0.1555 0.9650
0.9525 8.6792 -0.1524 0.9657
-0.0983 8.6510 -0.1510 0.9660
-3.3771 8.6210 -0.1616 0.9636
-4.6929 8.7139 -0.1728 0.9612
-10.0785 8.7470 -0.2329 0.9480
-12.9086 8.7203 -0.2719 0.9396
-17.0605 8.7404 -0.3346 0.9262
-54.6749 12.9244 -0.9807 0.7987
-87.3403 -0.8039 -1.5246 0.7051
-73.3603 -28.5549 -1.3741 0.7298
-10.3303 -20.0573 -0.3938 0.9137
-11.7140 -31.6048 -0.5883 0.8739
-4.8265 -20.2234 -0.3629 0.9202
-2.4314 -21.3088 -0.3744 0.9178
0.1613 -22.8741 -0.3993 0.9125
33.7915 -87.3694 -1.6351 0.6875
25.6165 -36.6223 -0.7801 0.8363
34.1925 -29.9342 -0.7932 0.8338
47.0842 -24.3788 -0.9255 0.8089
49.4785 -18.4601 -0.9218 0.8096
33.7320 8.4777 -0.6071 0.8701
51.8562 19.9278 -0.9697 0.8007
37.1551 19.7015 -0.7341 0.8451
7.5769 8.6173 -0.2003 0.9551
2.1092 8.6721 -0.1558 0.9649
1.0282 8.6787 -0.1525 0.9656
-0.0238 8.6852 -0.1516 0.9659
-1.0730 8.6502 -0.1521 0.9657
-3.2915 8.6206 -0.1611 0.9638
-16.7336 8.7558 -0.3297 0.9272
-23.3555 8.8286 -0.4358 0.9049
-73.2369 -8.9240 -1.2878 0.7444
-73.1897 -27.7648 -1.3664 0.7311
-61.3470 -42.3233 -1.3009 0.7422
-57.7986 -51.1636 -1.3474 0.7343
-14.4398 -20.8869 -0.4432 0.9034
-10.4771 -19.9188 -0.3928 0.9139
-0.0352 -22.4630 -0.3921 0.9141
31.6157 -83.8848 -1.5647 0.6986
46.0954 -24.3727 -0.9101 0.8117
51.6089 -19.7631 -0.9646 0.8016
50.3698 -12.5962 -0.9063 0.8124
59.8968 14.5061 -1.0757 0.7815
53.1585 19.9043 -0.9908 0.7969
37.9317 19.6967 -0.7460 0.8428
9.8281 8.6246 -0.2282 0.9490
2.1884 8.6716 -0.1561 0.9649
1.1040 8.6783 -0.1527 0.9656
0.0510 8.6847 -0.1516 0.9659
-0.9977 8.6534 -0.1520 0.9658
-2.0767 8.6562 -0.1554 0.9650
-5.9341 8.7215 -0.1841 0.9587
-7.6294 8.7319 -0.2024 0.9547
-12.4703 8.7409 -0.2658 0.9409
-51.7514 13.1789 -0.9321 0.8076
-87.3308 0.7011 -1.5244 0.7051
47.6964 -1.8241 -2.5015 0.8260
47.5692 3.9304 -2.5015 0.8260
43.9057 9.0421 -2.3493 0.8356
10.5352 8.6203 -0.7134 0.9469
8.2784 8.6342 -0.6269 0.9532
2.5090 8.6696 -0.4730 0.9645
0.3508 8.6829 -0.4554 0.9658
-0.6974 8.6675 -0.4557 0.9658
-2.8659 8.6017 -0.4752 0.9643
-5.5021 8.7188 -0.5403 0.9595
-9.0772 8.7408 -0.6604 0.9508
-14.8998 8.6341 -0.9025 0.9333
-19.7849 8.4707 -1.1279 0.9174
-24.4645 7.1373 -1.3356 0.9030
-45.2236 1.9247 -2.3722 0.8342
-45.0042 -3.5234 -2.3658 0.8346
-43.1824 -20.3360 -2.5015 0.8260
-40.4205 -25.3861 -2.5015 0.8260
-37.0708 -30.0670 -2.5015 0.8260
-11.5483 -19.8303 -1.2026 0.9122
-8.3058 -19.2850 -1.1004 0.9193
-5.6364 -19.1662 -1.0470 0.9231
-3.4014 -20.3829 -1.0830 0.9206
-0.9664 -21.6115 -1.1337 0.9170
9.3256 -46.8114 -2.5015 0.8260
24.0402 -38.4612 -2.3770 0.8339
28.1626 -34.8761 -2.3493 0.8356
31.4699 -30.5662 -2.2992 0.8388
38.6571 -22.6239 -2.3474 0.8358
41.1326 -17.8206 -2.3493 0.8356
41.3380 -12.2535 -2.2596 0.8414
47.6013 3.5205 -2.5015 0.8260
43.9820 8.6635 -2.3493 0.8356
10.7210 8.6191 -0.7209 0.9464
11.1271 25.5321 -1.4596 0.8944
2.5900 8.6691 -0.4742 0.9644
1.4862 8.6759 -0.4613 0.9654
-1.6813 8.6334 -0.4610 0.9654
-2.7851 8.6056 -0.4740 0.9644
-5.3972 8.7182 -0.5374 0.9598
-14.6311 8.6476 -0.8907 0.9342
-19.6029 8.5934 -1.1217 0.9178
-34.2408 1.7529 -1.7968 0.8717
-40.6377 -25.0370 -2.5015 0.8260
-33.4764 -34.0236 -2.5015 0.8260
-11.8789 -19.9997 -1.2191 0.9110
-1.1416 -21.3967 -1.1230 0.9178
8.9220 -46.8900 -2.5015 0.8260
14.5013 -45.4752 -2.5015 0.8260
31.8857 -31.5083 -2.3493 0.8356
34.1093 -26.4059 -2.2607 0.8413
38.4920 -22.9748 -2.3493 0.8356
40.9776 -18.1743 -2.3493 0.8356
47.6579 -2.6457 -2.5015 0.8260
47.6298 3.1102 -2.5015 0.8260
30.4171 5.7197 -1.6220 0.8834
29.3188 9.2798 -1.6117 0.8841
29.3704 13.3705 -1.6912 0.8787
8.5671 8.6324 -0.6374 0.9525
6.6839 8.5955 -0.5706 0.9573
5.1315 8.5554 -0.5228 0.9608
3.8491 8.6284 -0.4952 0.9629
2.6715 8.6686 -0.4754 0.9643
1.5632 8.6754 -0.4620 0.9653
0.5007 8.6820 -0.4558 0.9658
-2.7046 8.6095 -0.4729 0.9645
-3.8834 8.5794 -0.4935 0.9630
-5.2935 8.7176 -0.5345 0.9600
-14.3693 8.6608 -0.8793 0.9350
-42.7954 -13.3427 -2.3493 0.8356
-43.5264 -19.5889 -2.5015 0.8260
-37.5835 -29.4238 -2.5015 0.8260
-8.6979 -19.2743 -1.1082 0.9188
-5.9704 -19.0809 -1.0478 0.9230
4.6914 -25.8678 -1.3778 0.9001
14.1090 -45.5984 -2.5015 0.8260
19.4951 -43.5685 -2.5015 0.8260
24.0150 -39.9358 -2.4422 0.8297
38.2926 -23.3055 -2.3493 0.8356
41.0163 -12.9310 -2.2539 0.8418
46.9191 -8.7677 -2.5015 0.8260
29.9959 9.2105 -1.6445 0.8819
29.3655 13.0640 -1.6844 0.8792
15.1052 9.0391 -0.9225 0.9319
11.1045 8.6168 -0.7366 0.9453
6.8081 8.6013 -0.5749 0.9570
5.2351 8.5601 -0.5259 0.9606
2.7533 8.6681 -0.4766 0.9642
1.6404 8.6750 -0.4627 0.9653
-0.4729 8.6781 -0.4555 0.9658
-2.6245 8.6134 -0.4719 0.9646
-5.1909 8.7169 -0.5317 0.9602
-11.0092 8.7527 -0.7371 0.9452
-22.5547 7.2177 -1.2411 0.9095
-44.6592 8.5447 -2.3829 0.8335
-45.1885 3.0949 -2.3738 0.8341
-43.6935 -19.2133 -2.5015 0.8260
-37.8355 -29.0990 -2.5015 0.8260
-34.0577 -33.4417 -2.5015 0.8260
-18.2539 -22.8587 -1.5331 0.8894
-4.8813 -15.1411 -0.8337 0.9383
-1.5080 -21.3446 -1.1214 0.9179
1.3015 -25.9402 -1.3612 0.9012
8.1126 -47.0368 -2.5015 0.8260
26.9176 -16.7021 -1.6602 0.8808
47.6052 -3.4665 -2.5015 0.8260
47.6764 2.2891 -2.5015 0.8260
27.7324 8.2547 -1.5164 0.8906
29.3607 12.7600 -1.6778 0.8797
6.9342 8.6072 -0.5793 0.9567
2.8356 8.6676 -0.4779 0.9641
-0.3981 8.6816 -0.4555 0.9658
-1.4506 8.6322 -0.4587 0.9655
-2.5448 8.6172 -0.4709 0.9647
-6.6216 8.7257 -0.5741 0.9571
-8.4689 8.7371 -0.6377 0.9524
-10.8151 8.7515 -0.7291 0.9458
-13.8582 8.6818 -0.8570 0.9366
-22.5051 7.4162 -1.2418 0.9095
-44.6043 8.9334 -2.3840 0.8334
-45.1698 3.4848 -2.3743 0.8340
-43.0189 -12.6034 -2.3493 0.8356
-43.8031 -18.8127 -2.4984 0.8262
-34.3446 -33.1470 -2.5015 0.8260
-18.7827 -23.1098 -1.5607 0.8876
-12.6113 -20.0347 -1.2407 0.9095
-9.1784 -19.4386 -1.1266 0.9175
-6.2857 -18.9373 -1.0457 0.9232
-4.0692 -20.0927 -1.0744 0.9212
13.3213 -45.8347 -2.5015 0.8260
26.9442 -35.8257 -2.3493 0.8356
31.0607 -32.3219 -2.3493 0.8356
34.1005 -27.8378 -2.3070 0.8383
40.4942 -19.2273 -2.3493 0.8356
41.3085 -13.8101 -2.2827 0.8399
44.2544 7.1429 -2.3493 0.8356
28.7620 8.2922 -1.5687 0.8870
9.0188 8.6296 -0.6542 0.9512
4.0729 8.5303 -0.4954 0.9628
2.9183 8.6671 -0.4793 0.9640
1.7956 8.6740 -0.4642 0.9651
-0.3231 8.6814 -0.4553 0.9658
-2.4654 8.6210 -0.4699 0.9647
-3.6189 8.5786 -0.4879 0.9634
-6.5033 8.7250 -0.5703 0.9573
-8.3232 8.7362 -0.6324 0.9528
-13.6055 8.6876 -0.8460 0.9374
-18.0877 8.6840 -1.0515 0.9228
-45.1405 -1.5829 -2.3672 0.8345
-41.7376 -6.5523 -2.2142 0.8443
-43.8362 -18.3811 -2.4911 0.8266
-41.4763 -23.6218 -2.5015 0.8260
-38.3313 -28.4426 -2.5015 0.8260
-19.2234 -23.2399 -1.5806 0.8862
-9.4079 -19.4878 -1.1341 0.9170
-6.5276 -19.1139 -1.0585 0.9223
-4.2154 -19.9310 -1.0676 0.9216
-1.8501 -21.0264 -1.1062 0.9189
7.3010 -47.1696 -2.5015 0.8260
12.9259 -45.9478 -2.5015 0.8260
18.3627 -44.0578 -2.5015 0.8260
23.5325 -41.5271 -2.5015 0.8260
30.7811 -32.5883 -2.3493 0.8356
34.0975 -28.3284 -2.3232 0.8373
35.4467 -22.8495 -2.2102 0.8446
42.3902 -14.5789 -2.3493 0.8356
46.6768 -9.9774 -2.5015 0.8260
44.3143 6.7613 -2.3493 0.8356
30.3336 8.4628 -1.6504 0.8815
15.3649 8.6632 -0.9244 0.9318
7.1924 8.6193 -0.5883 0.9560
5.5534 8.5746 -0.5354 0.9599
3.0015 8.6666 -0.4807 0.9639
0.8015 8.6801 -0.4568 0.9657
-0.2484 8.6838 -0.4553 0.9658
-1.2991 8.6393 -0.4579 0.9656
-3.5320 8.5783 -0.4862 0.9635
-17.7379 8.7049 -1.0355 0.9239
-22.5308 7.8576 -1.2505 0.9088
-34.0889 7.4404 -1.8286 0.8696
-45.1715 -1.1944 -2.3682 0.8344
-41.3981 -6.1340 -2.1933 0.8457
-43.2297 -11.8602 -2.3493 0.8356
-41.6783 -23.2636 -2.5015 0.8260
-38.5750 -28.1113 -2.5015 0.8260
-9.6350 -19.5268 -1.1411 0.9165
-6.6460 -18.9259 -1.0512 0.9228
-4.4167 -20.0284 -1.0749 0.9211
-2.0380 -21.0803 -1.1099 0.9187
12.5295 -46.0574 -2.5015 0.8260
17.9824 -44.2143 -2.5015 0.8260
26.3229 -36.2846 -2.3493 0.8356
30.4992 -32.8523 -2.3493 0.8356
34.0944 -28.8259 -2.3399 0.8362
36.8578 -24.2111 -2.3111 0.8381
40.1569 -19.9222 -2.3493 0.8356
47.4997 -4.6957 -2.5015 0.8260
44.3709 6.3793 -2.3493 0.8356
31.4820 8.4916 -1.7089 0.8776
21.2053 8.5712 -1.1987 0.9125
11.9248 8.6117 -0.7709 0.9428
9.3336 8.6277 -0.6661 0.9504
7.3245 8.6255 -0.5930 0.9557
5.6622 8.5795 -0.5387 0.9597
2.8537 5.7210 -0.3351 0.9747
3.0852 8.6661 -0.4821 0.9638
-0.9477 47.4371 -2.4866 0.8269
-4.7906 8.7145 -0.5212 0.9610
-10.2570 8.7481 -0.7065 0.9474
-22.5295 8.0755 -1.2543 0.9086
-34.0632 7.7428 -1.8307 0.8694
-45.0924 4.6540 -2.3757 0.8340
-43.0198 -17.1733 -2.4276 0.8307
-35.1897 -32.2484 -2.5015 0.8260
-13.5185 -20.2930 -1.2779 0.9069
-9.8910 -19.6177 -1.1514 0.9158
-4.6011 -20.0421 -1.0777 0.9209
0.3514 -22.4279 -1.1755 0.9141
22.8135 -41.9264 -2.5015 0.8260
26.0093 -36.5101 -2.3493 0.8356
30.2150 -33.1138 -2.3493 0.8356
36.1684 -24.2069 -2.2809 0.8400
42.1327 -15.3072 -2.3493 0.8356
46.4980 -10.7802 -2.5015 0.8260
47.4575 -5.1048 -2.5015 0.8260
47.7269 0.6449 -2.5015 0.8260
32.5707 8.4848 -1.7639 0.8739
21.7382 8.5694 -1.2246 0.9107
16.1634 8.7499 -0.9632 0.9290
12.1420 8.6104 -0.7801 0.9421
9.4953 8.6267 -0.6723 0.9499
7.4588 8.6318 -0.5979 0.9553
2.9117 5.7137 -0.3361 0.9746
2.0303 8.6725 -0.4668 0.9650
-1.1482 8.6464 -0.4571 0.9657
-3.3601 8.5778 -0.4828 0.9638
-7.9004 8.7336 -0.6172 0.9539
-10.0785 8.7470 -0.6994 0.9480
-12.9086 8.7203 -0.8164 0.9395
-21.6151 2.4193 -1.1399 0.9166
-45.2063 -0.4161 -2.3693 0.8344
-40.5229 -5.2925 -2.1417 0.8490
-38.4293 -9.8345 -2.0789 0.8531
-42.5998 -16.5816 -2.3957 0.8327
-29.4549 -33.7917 -2.3493 0.8356
-10.1838 -19.7728 -1.1656 0.9148
-7.1089 -19.1803 -1.0720 0.9213
-4.7111 -19.7399 -1.0636 0.9219
6.0795 -47.3425 -2.5015 0.8260
17.2179 -44.5176 -2.5015 0.8260
22.4514 -42.1214 -2.5015 0.8260
35.4967 -24.2027 -2.2516 0.8419
39.8077 -20.6112 -2.3493 0.8356
41.9992 -15.6696 -2.3493 0.8356
47.4118 -5.5134 -2.5015 0.8260
47.7307 0.2337 -2.5015 0.8260
44.4742 5.6138 -2.3493 0.8356
22.2947 8.5676 -1.2517 0.9088
16.4478 8.7215 -0.9757 0.9281
12.3644 8.6090 -0.7896 0.9414
7.5769 8.6173 -0.6014 0.9551
4.4383 8.5269 -0.5038 0.9622
3.2541 8.6650 -0.4851 0.9636
1.0282 8.6787 -0.4580 0.9656
-0.0238 8.6852 -0.4552 0.9658
-2.1507 8.6359 -0.4664 0.9650
-4.5962 8.7133 -0.5163 0.9613
-9.9036 8.7459 -0.6924 0.9485
-16.7336 8.7558 -0.9898 0.9271
-23.3555 8.8286 -1.3085 0.9048
-40.3545 -4.9172 -2.1305 0.8497
-42.1815 -16.0017 -2.3644 0.8347
-42.2656 -22.1787 -2.5015 0.8260
-39.2885 -27.1052 -2.5015 0.8260
-35.7401 -31.6373 -2.5015 0.8260
-29.7450 -33.5367 -2.3493 0.8356
-14.2817 -20.6581 -1.3162 0.9043
-4.8867 -19.7214 -1.0648 0.9218
-2.5403 -20.6795 -1.0919 0.9199
5.6714 -47.3931 -2.5015 0.8260
11.3350 -46.3658 -2.5015 0.8260
29.6399 -33.6295 -2.3493 0.8356
34.8420 -24.1987 -2.2232 0.8437
41.8626 -16.0309 -2.3493 0.8356
47.3625 -5.9217 -2.5015 0.8260
43.5676 10.5514 -2.3493 0.8356
30.6903 15.9365 -1.8123 0.8706
12.5924 8.6076 -0.7994 0.9407
9.8281 8.6246 -0.6853 0.9490
7.7261 8.6358 -0.6073 0.9546
4.5327 8.5281 -0.5061 0.9621
-4.5004 8.7127 -0.5139 0.9615
-5.9341 8.7215 -0.5528 0.9586
-7.6294 8.7319 -0.6077 0.9546
-12.4703 8.7409 -0.7981 0.9408
-33.9961 8.6574 -1.8385 0.8689
28.4950 2.3544 -2.5015 0.8915
24.2762 11.5605 -2.3524 0.8977
10.5352 8.6203 -1.1909 0.9468
8.2784 8.6342 -1.0465 0.9531
6.4407 8.5840 -0.9389 0.9578
0.3508 8.6829 -0.7603 0.9657
-0.6974 8.6675 -0.7608 0.9657
-5.5021 8.7188 -0.9020 0.9594
-7.1108 8.7287 -0.9850 0.9558
-9.0772 8.7408 -1.1025 0.9507
-11.6181 8.7564 -1.2728 0.9433
-14.7055 8.5215 -1.4870 0.9340
-24.6723 7.1980 -2.2485 0.9020
-21.1849 3.4884 -1.8784 0.9174
-26.8282 1.1418 -2.3493 0.8978
-26.7706 -2.0959 -2.3493 0.8978
-27.1455 -8.9795 -2.5015 0.8915
-24.2128 -15.2069 -2.5015 0.8915
-19.4248 -20.0856 -2.4446 0.8939
-16.2082 -21.4091 -2.3493 0.8978
-11.4118 -19.5959 -1.9839 0.9130
-8.2691 -19.1996 -1.8289 0.9195
-3.3954 -20.3471 -1.8048 0.9205
-0.9523 -21.2965 -1.8651 0.9180
5.5833 -28.0262 -2.5002 0.8916
15.1547 -24.2455 -2.5015 0.8915
22.7589 -17.3074 -2.5015 0.8915
24.6767 -14.4420 -2.5015 0.8915
26.2357 -11.3666 -2.5015 0.8915
27.4131 -8.1259 -2.5015 0.8915
28.5143 2.1088 -2.5015 0.8915
26.3462 5.1896 -2.3493 0.8978
25.5300 8.3232 -2.3493 0.8978
10.7209 8.6191 -1.2035 0.9463
8.4216 8.6333 -1.0552 0.9527
8.4360 19.3572 -1.8474 0.9187
2.5900 8.6691 -0.7916 0.9643
1.4862 8.6759 -0.7701 0.9653
-1.6790 8.6215 -0.7684 0.9653
-5.3972 8.7182 -0.8971 0.9597
-6.9860 8.7280 -0.9781 0.9561
-11.4105 8.7552 -1.2583 0.9439
-19.0144 8.3354 -1.8164 0.9200
-26.8174 1.3729 -2.3493 0.8978
-26.7876 -1.8651 -2.3493 0.8978
-28.0766 -5.4049 -2.5015 0.8915
-27.2219 -8.7453 -2.5015 0.8915
-25.9712 -11.9584 -2.5015 0.8915
-22.3607 -17.8188 -2.5015 0.8915
-20.0092 -20.3362 -2.4960 0.8918
-16.3921 -21.2687 -2.3493 0.8978
-8.4775 -19.2259 -1.8383 0.9191
-5.7700 -19.0139 -1.7384 0.9233
-3.5661 -20.2910 -1.8024 0.9206
-1.1312 -21.2017 -1.8575 0.9183
11.9025 -25.9969 -2.5015 0.8915
17.7707 -22.3990 -2.5015 0.8915
24.5514 -14.6540 -2.5015 0.8915
26.1368 -11.5922 -2.5015 0.8915
28.1498 -5.0097 -2.5015 0.8915
28.5482 -1.5848 -2.5015 0.8915
26.3900 4.9625 -2.3493 0.8978
24.4553 11.1330 -2.3508 0.8977
8.5671 8.6324 -1.0640 0.9523
6.6839 8.5955 -0.9526 0.9572
3.8491 8.6284 -0.8266 0.9628
2.6715 8.6686 -0.7936 0.9642
-0.5477 8.6746 -0.7604 0.9657
-1.6027 8.6250 -0.7675 0.9654
-2.6981 8.5888 -0.7876 0.9645
-5.2935 8.7176 -0.8923 0.9599
-11.2077 8.7539 -1.2442 0.9445
-14.1943 8.5553 -1.4500 0.9356
-18.7561 8.4156 -1.7986 0.9208
-23.1490 7.1886 -2.1207 0.9073
-21.3355 3.8919 -1.8974 0.9166
-22.4623 1.3441 -1.9687 0.9136
-26.8027 -1.6343 -2.3493 0.8978
-27.2962 -8.5104 -2.5015 0.8915
-22.5134 -17.6255 -2.5015 0.8915
-20.2159 -20.1952 -2.5000 0.8916
-8.6881 -19.2524 -1.8479 0.9187
-5.9637 -19.0596 -1.7472 0.9229
-3.7620 -20.3747 -1.8127 0.9202
1.5221 -25.8814 -2.2682 0.9011
4.6694 -25.7466 -2.2893 0.9003
8.4516 -27.3145 -2.5015 0.8915
11.6780 -26.0985 -2.5015 0.8915
14.7347 -24.5031 -2.5015 0.8915
17.5770 -22.5512 -2.5015 0.8915
20.1638 -20.2715 -2.5015 0.8915
26.0359 -11.8169 -2.5015 0.8915
27.2691 -8.5970 -2.5015 0.8915
28.1056 -5.2521 -2.5015 0.8915
28.5335 -1.8308 -2.5015 0.8915
28.5464 1.6172 -2.5015 0.8915
26.4317 4.7349 -2.3493 0.8978
25.6696 7.8821 -2.3493 0.8978
8.7150 8.6315 -1.0731 0.9519
6.8081 8.6013 -0.9597 0.9569
-0.4729 8.6781 -0.7604 0.9657
-2.6182 8.5927 -0.7859 0.9646
-5.1909 8.7169 -0.8876 0.9601
-6.7414 8.7265 -0.9647 0.9567
-8.6170 8.7380 -1.0737 0.9519
-11.0092 8.7527 -1.2305 0.9451
-18.4907 8.4886 -1.7800 0.9216
-22.0221 1.5083 -1.9312 0.9152
-26.8158 -1.4033 -2.3493 0.8978
-28.1656 -4.9203 -2.5015 0.8915
-27.3685 -8.2749 -2.5015 0.8915
-26.1734 -11.5092 -2.5015 0.8915
-20.4013 -20.0324 -2.5015 0.8915
-16.7561 -20.9831 -2.3493 0.8978
-12.1588 -19.6901 -2.0246 0.9113
-8.9009 -19.2793 -1.8578 0.9183
-3.9158 -20.2300 -1.8027 0.9206
-1.4847 -21.0142 -1.8431 0.9189
14.5231 -24.6291 -2.5015 0.8915
19.9884 -20.4444 -2.5015 0.8915
22.3040 -17.8897 -2.5015 0.8915
24.2952 -15.0749 -2.5015 0.8915
25.9332 -12.0408 -2.5015 0.8915
27.1940 -8.8316 -2.5015 0.8915
28.0593 -5.4940 -2.5015 0.8915
28.5166 -2.0765 -2.5015 0.8915
28.5592 1.3712 -2.5015 0.8915
26.7511 4.5546 -2.3741 0.8968
25.7366 7.6606 -2.3493 0.8978
11.3027 8.6156 -1.2434 0.9445
8.8656 8.6305 -1.0825 0.9515
6.9342 8.6072 -0.9670 0.9566
3.9629 8.4873 -0.8195 0.9631
2.8356 8.6676 -0.7979 0.9640
1.7179 8.6745 -0.7737 0.9651
-0.3981 8.6816 -0.7603 0.9657
-2.5387 8.5966 -0.7842 0.9646
-6.6216 8.7257 -0.9583 0.9570
-8.4689 8.7371 -1.0646 0.9523
-10.8151 8.7515 -1.2172 0.9457
-13.7076 8.5874 -1.4152 0.9371
-18.1299 8.5129 -1.7523 0.9227
-26.3445 5.2762 -2.3506 0.8977
-26.8269 -1.1722 -2.3493 0.8978
-27.4388 -8.0389 -2.5015 0.8915
-26.2716 -11.2833 -2.5015 0.8915
-24.7224 -14.3636 -2.5015 0.8915
-22.8137 -17.2350 -2.5015 0.8915
-20.5732 -19.8558 -2.5015 0.8915
-12.4352 -19.7550 -2.0422 0.9105
-6.3225 -19.0483 -1.7559 0.9226
1.0050 -24.1956 -2.1187 0.9073
7.9797 -27.4560 -2.5015 0.8915
11.2266 -26.2958 -2.5015 0.8915
14.3103 -24.7533 -2.5015 0.8915
19.8115 -20.6159 -2.5015 0.8915
24.1644 -15.2836 -2.5015 0.8915
28.0109 -5.7356 -2.5015 0.8915
28.5700 1.1251 -2.5015 0.8915
24.7186 10.4904 -2.3493 0.8978
15.2821 8.7910 -1.5424 0.9317
11.4816 8.5966 -1.2549 0.9440
4.0519 8.4863 -0.8227 0.9629
0.4916 5.8771 -0.5160 0.9766
-1.3748 8.6357 -0.7650 0.9655
-2.4595 8.6004 -0.7826 0.9647
-4.9887 8.7157 -0.8786 0.9605
-17.7801 8.5363 -1.7255 0.9239
-22.5322 7.6409 -2.0816 0.9089
-26.8360 -0.9410 -2.3493 0.8978
-27.5070 -7.8021 -2.5015 0.8915
-26.3679 -11.0564 -2.5015 0.8915
-17.1152 -20.6912 -2.3493 0.8978
-12.7912 -19.9372 -2.0724 0.9093
-6.5295 -19.1194 -1.7676 0.9221
-1.8328 -20.8296 -1.8294 0.9195
14.0965 -24.8757 -2.5015 0.8915
21.9924 -18.2714 -2.5015 0.8915
25.7218 -12.4859 -2.5015 0.8915
27.0378 -9.2989 -2.5015 0.8915
27.9605 -5.9767 -2.5015 0.8915
28.4766 -2.5676 -2.5015 0.8915
28.5786 0.8789 -2.5015 0.8915
11.6741 8.5847 -1.2678 0.9435
7.1924 8.6193 -0.9822 0.9559
1.8735 8.6735 -0.7763 0.9650
-1.2991 8.6393 -0.7643 0.9655
-2.3806 8.6043 -0.7811 0.9648
-3.5197 8.5484 -0.8088 0.9636
-10.4392 8.7492 -1.1917 0.9468
-13.2434 8.6179 -1.3824 0.9385
-17.4407 8.5591 -1.6997 0.9250
-22.5308 7.8576 -2.0876 0.9086
-26.7334 2.5266 -2.3493 0.8978
-28.2833 -4.1908 -2.5015 0.8915
-23.1073 -16.8393 -2.5015 0.8915
-20.9123 -19.4984 -2.5015 0.8915
-13.1576 -20.1249 -2.1036 0.9080
-9.5534 -19.3616 -1.8889 0.9170
-6.7330 -19.1735 -1.7779 0.9216
-4.3949 -19.9296 -1.7855 0.9213
21.8342 -18.4602 -2.5015 0.8915
28.5851 0.6326 -2.5015 0.8915
25.9259 6.9929 -2.3493 0.8978
16.1462 8.9213 -1.6139 0.9286
11.9248 8.6117 -1.2869 0.9426
9.3336 8.6277 -1.1120 0.9502
7.3245 8.6255 -0.9900 0.9556
5.6459 8.5548 -0.8968 0.9597
3.0852 8.6661 -0.8048 0.9637
1.9518 8.6730 -0.7778 0.9649
-1.2236 8.6428 -0.7637 0.9656
-3.4355 8.5526 -0.8064 0.9637
-6.2714 8.7236 -0.9400 0.9578
-18.5059 20.1067 -2.3908 0.8961
-10.2570 8.7481 -1.1794 0.9473
-17.1416 8.5963 -1.6777 0.9259
-21.9486 2.2653 -1.9305 0.9152
-27.6374 -7.3270 -2.5015 0.8915
-26.5545 -10.6004 -2.5015 0.8915
-25.0854 -13.7198 -2.5015 0.8915
-23.2515 -16.6396 -2.5015 0.8915
-21.0794 -19.3176 -2.5015 0.8915
-17.4691 -20.3933 -2.3493 0.8978
-2.1759 -20.6476 -1.8164 0.9200
0.3454 -22.0454 -1.9290 0.9153
7.2675 -27.6531 -2.5015 0.8915
10.5433 -26.5772 -2.5015 0.8915
13.6658 -25.1148 -2.5015 0.8915
19.2721 -21.1210 -2.5015 0.8915
21.6743 -18.6476 -2.5015 0.8915
23.7614 -15.9031 -2.5015 0.8915
25.5029 -12.9272 -2.5015 0.8915
27.8534 -6.4576 -2.5015 0.8915
28.4282 -3.0579 -2.5015 0.8915
28.5895 0.3863 -2.5015 0.8915
25.9852 6.7693 -2.3493 0.8978
24.9815 9.8480 -2.3493 0.8978
9.4953 8.6267 -1.1224 0.9498
7.4588 8.6318 -0.9981 0.9552
5.7546 8.5582 -0.9023 0.9594
2.9117 5.7136 -0.5610 0.9746
2.0303 8.6725 -0.7793 0.9649
0.9525 8.6792 -0.7639 0.9655
-1.1482 8.6464 -0.7631 0.9656
-3.3519 8.5567 -0.8040 0.9638
-6.1576 8.7229 -0.9341 0.9580
-12.8000 8.6469 -1.3514 0.9399
-16.8756 8.6457 -1.6589 0.9267
-26.1761 6.1877 -2.3532 0.8976
-26.6448 -10.3713 -2.5015 0.8915
-23.3939 -16.4388 -2.5015 0.8915
-21.2451 -19.1352 -2.5015 0.8915
-17.6442 -20.2420 -2.3493 0.8978
-13.9250 -20.5178 -2.1694 0.9052
-2.3517 -20.6106 -1.8149 0.9201
0.1543 -21.8834 -1.9146 0.9159
19.0894 -21.2863 -2.5015 0.8915
23.6235 -16.1072 -2.5015 0.8915
28.5918 0.1400 -2.5015 0.8915
26.0426 6.5452 -2.3493 0.8978
16.4539 8.7247 -1.6294 0.9279
7.5769 8.6173 -1.0039 0.9550
4.4247 8.5008 -0.8384 0.9623
-0.0238 8.6852 -0.7599 0.9657
-2.1455 8.6152 -0.7767 0.9650
-6.0452 8.7222 -0.9285 0.9583
-7.7639 8.7327 -1.0223 0.9542
-9.9036 8.7459 -1.1560 0.9483
-12.5905 8.6643 -1.3371 0.9405
-26.1290 6.4147 -2.3539 0.8976
-26.8525 -0.0158 -2.3493 0.8978
-28.3183 -3.4506 -2.4959 0.8918
-27.7595 -6.8497 -2.5015 0.8915
-23.5347 -16.2366 -2.5015 0.8915
-17.8179 -20.0892 -2.3493 0.8978
-10.2287 -19.4467 -1.9224 0.9156
-7.2663 -19.0984 -1.7877 0.9212
-2.5292 -20.5895 -1.8149 0.9201
6.7899 -27.7742 -2.5015 0.8915
13.2310 -25.3466 -2.5015 0.8915
21.3498 -19.0183 -2.5015 0.8915
23.4838 -16.3101 -2.5015 0.8915
25.2763 -13.3647 -2.5015 0.8915
26.7013 -10.2250 -2.5015 0.8915
28.3712 -3.5473 -2.5015 0.8915
26.0980 6.3205 -2.3493 0.8978
7.7261 8.6358 -1.0138 0.9545
5.9740 8.5621 -0.9134 0.9589
3.3394 8.6645 -0.8124 0.9634
2.1884 8.6716 -0.7825 0.9647
0.0510 8.6847 -0.7598 0.9657
-2.0668 8.6148 -0.7751 0.9651
-3.1860 8.5649 -0.7995 0.9640
-4.5004 8.7127 -0.8579 0.9614
-5.9341 8.7215 -0.9229 0.9585
-9.7321 8.7448 -1.1447 0.9488
-12.4091 8.6979 -1.3258 0.9410
-15.5672 8.3171 -1.5442 0.9316
-26.0798 6.6414 -2.3545 0.8976
-26.8516 0.2156 -2.3493 0.8978
19.7324 4.0638 -2.4737 0.9220
18.1393 6.0871 -2.3493 0.9258
17.2747 8.2263 -2.3493 0.9258
8.2784 8.6342 -1.4687 0.9529
4.8813 8.4656 -1.1999 0.9614
7.5770 17.8034 -2.3757 0.9250
-3.9934 8.4327 -1.1456 0.9631
-7.1108 8.7287 -1.3824 0.9556
-14.3750 8.3300 -2.0400 0.9352
-17.5891 7.5306 -2.3493 0.9258
-18.8792 3.1087 -2.3493 0.9258
-19.9718 -4.0234 -2.5015 0.9212
-19.3422 -6.3982 -2.5015 0.9212
-15.8228 -12.8334 -2.5015 0.9212
-14.1630 -14.6447 -2.5015 0.9212
-9.6288 -16.5341 -2.3493 0.9258
3.7723 -18.9359 -2.3707 0.9251
6.3565 -19.3559 -2.5015 0.9212
8.6402 -18.4501 -2.5015 0.9212
12.7993 -15.8504 -2.5015 0.9212
14.6142 -14.1945 -2.5015 0.9212
17.5831 -10.2904 -2.5015 0.9212
19.5329 -5.7900 -2.5015 0.9212
20.0878 -3.3967 -2.5015 0.9212
20.3175 1.5026 -2.5015 0.9212
8.4216 8.6333 -1.4808 0.9526
6.5056 8.5166 -1.3159 0.9577
7.7293 17.7356 -2.3755 0.9250
1.4862 8.6759 -1.0808 0.9651
0.4257 8.6824 -1.0673 0.9656
-3.9150 8.4547 -1.1440 0.9631
-6.9860 8.7280 -1.3727 0.9559
-11.4105 8.7552 -1.7659 0.9437
-14.1927 8.3885 -2.0243 0.9357
-17.5236 7.6819 -2.3493 0.9258
-18.3209 5.5167 -2.3493 0.9258
-20.3238 -1.4151 -2.5015 0.9212
-20.0057 -3.8512 -2.5015 0.9212
-17.3453 -10.6865 -2.5015 0.9212
-14.2887 -14.5222 -2.5015 0.9212
-12.4238 -16.1198 -2.4989 0.9213
-9.7708 -16.4505 -2.3493 0.9258
-7.7196 -17.5070 -2.3493 0.9258
-1.0194 -19.1062 -2.3493 0.9258
1.2879 -19.0900 -2.3493 0.9258
3.5764 -18.7962 -2.3493 0.9258
6.1896 -19.4100 -2.5015 0.9212
16.1097 -12.4714 -2.5015 0.9212
19.4823 -5.9581 -2.5015 0.9212
19.9506 3.7516 -2.4926 0.9214
17.4139 7.9275 -2.3493 0.9258
10.9107 8.6180 -1.7072 0.9455
8.5671 8.6324 -1.4933 0.9522
6.6253 8.5201 -1.3252 0.9574
3.8491 8.6284 -1.1601 0.9626
-0.5471 8.6658 -1.0661 0.9656
-2.6870 8.5533 -1.1008 0.9645
-5.2935 8.7176 -1.2523 0.9597
-6.8628 8.7272 -1.3632 0.9562
-8.7677 8.7389 -1.5200 0.9513
-11.2077 8.7539 -1.7461 0.9443
-13.9885 8.4313 -2.0054 0.9363
-17.4568 7.8326 -2.3493 0.9258
-18.8228 3.4336 -2.3493 0.9258
-19.3853 1.1600 -2.3845 0.9247
-20.0381 -3.6787 -2.5015 0.9212
-18.5782 -8.3611 -2.5015 0.9212
-14.4132 -14.3985 -2.5015 0.9212
-12.5739 -16.0270 -2.5012 0.9212
-7.8701 -17.4398 -2.3493 0.9258
-1.1840 -19.0967 -2.3493 0.9258
1.1233 -19.1004 -2.3493 0.9258
8.3210 -18.5962 -2.5015 0.9212
12.5243 -16.0686 -2.5015 0.9212
16.0017 -12.6097 -2.5015 0.9212
17.4032 -10.5919 -2.5015 0.9212
18.5516 -8.4200 -2.5015 0.9212
19.4303 -6.1257 -2.5015 0.9212
20.0263 -3.7423 -2.5015 0.9212
20.0431 3.5905 -2.5002 0.9212
15.1052 9.0391 -2.1614 0.9315
11.1045 8.6168 -1.7258 0.9449
2.7533 8.6681 -1.1167 0.9640
1.6404 8.6750 -1.0840 0.9650
-0.4724 8.6694 -1.0660 0.9656
-1.5243 8.6163 -1.0744 0.9654
-2.6076 8.5578 -1.0985 0.9646
-3.7559 8.4918 -1.1401 0.9633
-8.6170 8.7380 -1.5068 0.9517
-13.7492 8.4494 -1.9815 0.9370
-18.2231 5.8315 -2.3493 0.9258
-18.7925 3.5956 -2.3493 0.9258
-20.3451 -1.0647 -2.5015 0.9212
-20.0691 -3.5059 -2.5015 0.9212
-19.5011 -5.8962 -2.5015 0.9212
-17.5268 -10.3860 -2.5015 0.9212
-16.1492 -12.4202 -2.5015 0.9212
-12.7129 -15.9199 -2.5015 0.9212
-8.0201 -17.3714 -2.3493 0.9258
-3.6361 -18.7848 -2.3493 0.9258
3.2520 -18.8550 -2.3493 0.9258
5.8542 -19.5138 -2.5015 0.9212
15.8924 -12.7471 -2.5015 0.9212
17.3113 -10.7414 -2.5015 0.9212
19.3768 -6.2929 -2.5015 0.9212
19.9933 -3.9147 -2.5015 0.9212
20.3192 -1.4796 -2.5015 0.9212
20.3496 0.9770 -2.5015 0.9212
20.0840 3.4194 -2.5015 0.9212
18.3383 5.4585 -2.3493 0.9258
7.8507 3.4119 -1.0510 0.9661
15.1936 8.9152 -2.1630 0.9315
11.3027 8.6156 -1.7450 0.9443
6.8699 8.5274 -1.3445 0.9568
5.2863 8.4788 -1.2268 0.9605
3.9207 8.3969 -1.1379 0.9633
2.8356 8.6676 -1.1198 0.9639
-0.3977 8.6731 -1.0660 0.9656
-1.4485 8.6202 -1.0733 0.9654
-2.5285 8.5621 -1.0962 0.9647
-3.6710 8.4968 -1.1365 0.9634
-6.6216 8.7257 -1.3449 0.9568
-8.4689 8.7371 -1.4940 0.9521
-13.5471 8.4868 -1.9628 0.9376
-18.1722 5.9883 -2.3493 0.9258
-18.7609 3.7574 -2.3493 0.9258
-18.7195 -8.0398 -2.5015 0.9212
-17.6157 -10.2346 -2.5015 0.9212
-14.6592 -14.1480 -2.5015 0.9212
-8.1695 -17.3017 -2.3493 0.9258
-1.5129 -19.0735 -2.3493 0.9258
0.7941 -19.1169 -2.3493 0.9258
5.6859 -19.5635 -2.5015 0.9212
7.9994 -18.7368 -2.5015 0.9212
10.1966 -17.6376 -2.5015 0.9212
17.2181 -10.8902 -2.5015 0.9212
19.3218 -6.4596 -2.5015 0.9212
19.9589 -4.0868 -2.5015 0.9212
20.3572 0.8017 -2.5015 0.9212
20.1127 3.2463 -2.5015 0.9212
18.3846 5.3003 -2.3493 0.9258
7.8064 3.3130 -1.0412 0.9664
9.0188 8.6296 -1.5326 0.9509
2.9183 8.6671 -1.1229 0.9638
-4.9887 8.7157 -1.2331 0.9603
-10.6251 8.7503 -1.6901 0.9460
-13.3488 8.5236 -1.9447 0.9382
-17.2459 8.2799 -2.3489 0.9258
-18.7278 3.9189 -2.3493 0.9258
-20.3605 -0.7140 -2.5015 0.9212
-20.1265 -3.1596 -2.5015 0.9212
-19.5998 -5.5593 -2.5015 0.9212
-18.7881 -7.8781 -2.5015 0.9212
-14.7806 -14.0212 -2.5015 0.9212
-10.3319 -16.1040 -2.3493 0.9258
-8.3183 -17.2306 -2.3493 0.9258
-6.1837 -18.1066 -2.3493 0.9258
-3.9592 -18.7193 -2.3493 0.9258
10.0443 -17.7249 -2.5015 0.9212
12.1048 -16.3869 -2.5015 0.9212
13.9894 -14.8107 -2.5015 0.9212
15.6704 -13.0191 -2.5015 0.9212
17.1236 -11.0381 -2.5015 0.9212
18.3278 -8.8967 -2.5015 0.9212
19.9229 -4.2586 -2.5015 0.9212
20.2907 -1.8295 -2.5015 0.9212
20.1399 3.0729 -2.5015 0.9212
11.6741 8.5847 -1.7792 0.9433
9.1748 8.6286 -1.5465 0.9505
2.8121 5.7615 -0.7872 0.9745
1.8735 8.6735 -1.0895 0.9649
-0.2484 8.6838 -1.0667 0.9656
-4.8892 8.7151 -1.2270 0.9605
-6.3866 8.7243 -1.3276 0.9574
-8.1683 8.7228 -1.4673 0.9530
-13.1541 8.5597 -1.9270 0.9387
-19.0485 1.8003 -2.3493 0.9258
-19.6470 -5.3902 -2.5015 0.9212
-18.8553 -7.7160 -2.5015 0.9212
-17.7894 -9.9295 -2.5015 0.9212
-16.4648 -11.9987 -2.5015 0.9212
-13.1200 -15.5860 -2.5015 0.9212
-10.4702 -16.0145 -2.3493 0.9258
-8.4664 -17.1583 -2.3493 0.9258
-6.3394 -18.0527 -2.3493 0.9258
-4.1203 -18.6845 -2.3493 0.9258
-1.8412 -19.0446 -2.3493 0.9258
0.4646 -19.1278 -2.3493 0.9258
2.7637 -18.9328 -2.3493 0.9258
7.6754 -18.8719 -2.5015 0.9212
13.8612 -14.9307 -2.5015 0.9212
18.2505 -9.0542 -2.5015 0.9212
19.8855 -4.4301 -2.5015 0.9212
20.2742 -2.0042 -2.5015 0.9212
20.1656 2.8992 -2.5015 0.9212
7.7973 3.1516 -1.0326 0.9667
11.9248 8.6117 -1.8061 0.9424
7.2864 8.5807 -1.3822 0.9556
1.9518 8.6730 -1.0915 0.9648
0.8769 8.6796 -1.0712 0.9655
-6.2714 8.7236 -1.3192 0.9576
-13.0505 14.1794 -2.3662 0.9253
-10.2570 8.7481 -1.6552 0.9471
-17.1072 8.5791 -2.3498 0.9258
-18.6575 4.2410 -2.3493 0.9258
-19.0323 1.9643 -2.3493 0.9258
-20.3698 -0.3630 -2.5015 0.9212
-20.1780 -2.8123 -2.5015 0.9212
-18.9211 -7.5532 -2.5015 0.9212
-16.5676 -11.8564 -2.5015 0.9212
-6.4947 -17.9974 -2.3493 0.9258
-2.0053 -19.0281 -2.3493 0.9258
0.2998 -19.1311 -2.3493 0.9258
2.6004 -18.9559 -2.3493 0.9258
5.1784 -19.7039 -2.5015 0.9212
9.7374 -17.8953 -2.5015 0.9212
11.8207 -16.5931 -2.5015 0.9212
13.7321 -15.0495 -2.5015 0.9212
16.9309 -11.3315 -2.5015 0.9212
18.1718 -9.2111 -2.5015 0.9212
19.1484 -6.9568 -2.5015 0.9212
19.8466 -4.6013 -2.5015 0.9212
20.2561 -2.1788 -2.5015 0.9212
16.1655 8.7511 -2.2571 0.9286
2.9117 5.7135 -0.7874 0.9745
-3.3361 8.5164 -1.1230 0.9638
-4.6929 8.7139 -1.2152 0.9609
-7.9004 8.7336 -1.4460 0.9536
-12.7750 8.6300 -1.8929 0.9398
-18.6203 4.4016 -2.3493 0.9258
-20.3721 -0.1875 -2.5015 0.9212
-17.9579 -9.6215 -2.5015 0.9212
-16.6691 -11.7133 -2.5015 0.9212
-10.7921 -15.9017 -2.3597 0.9255
-8.7608 -17.0099 -2.3493 0.9258
-4.4416 -18.6108 -2.3493 0.9258
2.4370 -18.9776 -2.3493 0.9258
7.3491 -19.0013 -2.5015 0.9212
11.6773 -16.6943 -2.5015 0.9212
15.3287 -13.4197 -2.5015 0.9212
18.0918 -9.3674 -2.5015 0.9212
19.0878 -7.1215 -2.5015 0.9212
19.8062 -4.7721 -2.5015 0.9212
20.2366 -2.3533 -2.5015 0.9212
20.3728 0.0997 -2.5015 0.9212
14.5481 1.8363 -1.8005 0.9426
18.5563 4.6637 -2.3493 0.9258
9.6601 8.6257 -1.5901 0.9491
7.5769 8.6173 -1.4089 0.9548
4.3979 8.4494 -1.1696 0.9623
-1.0716 8.6396 -1.0689 0.9655
-6.0452 8.7222 -1.3030 0.9581
-7.7638 8.7327 -1.4347 0.9540
-9.9036 8.7459 -1.6223 0.9481
-17.8974 6.7654 -2.3493 0.9258
-20.3730 -0.0120 -2.5015 0.9212
-19.7797 -4.8807 -2.5015 0.9212
-15.2548 -13.5036 -2.5015 0.9212
-8.9070 -16.9338 -2.3493 0.9258
-6.8039 -17.8828 -2.3493 0.9258
-4.6018 -18.5718 -2.3493 0.9258
-0.0299 -19.1334 -2.3493 0.9258
4.8381 -19.7902 -2.5015 0.9212
7.1851 -19.0639 -2.5015 0.9212
9.4276 -18.0604 -2.5015 0.9212
16.7331 -11.6216 -2.5015 0.9212
19.0257 -7.2857 -2.5015 0.9212
18.7654 4.5447 -2.3707 0.9251
7.8566 2.9418 -1.0301 0.9668
16.9806 8.8175 -2.3493 0.9258
7.7261 8.6358 -1.4228 0.9544
5.9300 8.4991 -1.2725 0.9591
3.3394 8.6645 -1.1401 0.9633
2.1884 8.6716 -1.0981 0.9646
0.0510 8.6847 -1.0664 0.9656
-0.9966 8.6434 -1.0683 0.9655
-4.5004 8.7127 -1.2041 0.9613
-16.8892 9.0234 -2.3511 0.9257
-17.8385 6.9193 -2.3493 0.9258
-18.9752 2.4556 -2.3493 0.9258
15.7822 -0.6036 -2.5015 0.9380
15.7401 1.3005 -2.5015 0.9380
15.4691 3.1858 -2.5015 0.9380
6.9590 2.3353 -1.1626 0.9707
6.6998 3.1905 -1.1753 0.9704
12.5268 7.9430 -2.3493 0.9417
8.2784 8.6342 -1.8945 0.9527
6.3196 8.4226 -1.6678 0.9583
5.8362 13.7131 -2.3605 0.9414
2.5090 8.6696 -1.4295 0.9641
1.4095 8.6764 -1.3922 0.9650
-3.9147 8.2665 -1.4487 0.9636
-5.5021 8.7188 -1.6329 0.9591
-7.1108 8.7287 -1.7832 0.9554
-9.0772 8.7408 -1.9959 0.9502
-12.8337 7.4369 -2.3493 0.9417
-13.6356 5.8380 -2.3493 0.9417
-15.2864 2.5171 -2.4537 0.9392
-15.7795 0.6716 -2.5015 0.9380
-15.7456 -1.2327 -2.5015 0.9380
-15.4827 -3.1191 -2.5015 0.9380
-14.9947 -4.9601 -2.5015 0.9380
-14.2886 -6.7290 -2.5015 0.9380
-13.3747 -8.4000 -2.5015 0.9380
-12.2663 -9.9488 -2.5015 0.9380
-7.9481 -13.6481 -2.5015 0.9380
-6.2393 -14.4868 -2.4982 0.9381
4.9278 -15.0053 -2.5015 0.9380
6.6982 -14.3030 -2.5015 0.9380
15.1425 -4.4886 -2.5015 0.9380
15.7764 -0.7395 -2.5015 0.9380
15.4960 3.0524 -2.5015 0.9380
7.0599 2.3017 -1.1761 0.9704
6.7061 3.1229 -1.1717 0.9705
12.5948 7.8347 -2.3493 0.9417
8.4216 8.6333 -1.9102 0.9523
6.4360 8.4255 -1.6793 0.9580
4.9320 8.3857 -1.5409 0.9614
0.4257 8.6824 -1.3768 0.9654
-1.6624 8.5364 -1.3774 0.9654
-2.7431 8.4757 -1.4110 0.9646
-5.3972 8.7182 -1.6240 0.9593
-6.9860 8.7280 -1.7707 0.9557
-11.7679 9.0293 -2.3493 0.9417
-13.5848 5.9552 -2.3493 0.9417
-14.2029 4.2767 -2.3493 0.9417
-15.0081 2.6043 -2.4126 0.9402
-15.7556 -1.0970 -2.5015 0.9380
-15.5090 -2.9856 -2.5015 0.9380
-15.0369 -4.8307 -2.5015 0.9380
-14.3460 -6.6056 -2.5015 0.9380
-13.4466 -8.2845 -2.5015 0.9380
-9.6413 -12.5095 -2.5015 0.9380
-8.0654 -13.5791 -2.5015 0.9380
-2.5967 -14.7756 -2.3761 0.9411
-0.8144 -15.2639 -2.4210 0.9400
2.9522 -15.5154 -2.5015 0.9380
6.5747 -14.3602 -2.5015 0.9380
9.8162 -12.3728 -2.5015 0.9380
11.2341 -11.1012 -2.5015 0.9380
12.4887 -9.6682 -2.5015 0.9380
13.5617 -8.0946 -2.5015 0.9380
15.5494 -2.7673 -2.5015 0.9380
7.1900 2.2757 -1.1945 0.9699
6.7125 3.0558 -1.1681 0.9706
12.6619 7.7259 -2.3493 0.9417
8.5671 8.6324 -1.9263 0.9519
5.0314 8.3885 -1.5493 0.9612
0.5007 8.6820 -1.3774 0.9654
-0.5454 8.6389 -1.3710 0.9656
-1.5869 8.5404 -1.3758 0.9654
-2.6641 8.4803 -1.4079 0.9646
-3.7614 8.3100 -1.4447 0.9637
-6.8628 8.7272 -1.7584 0.9560
-14.1655 4.3989 -2.3493 0.9417
-15.7645 -0.9612 -2.5015 0.9380
-12.4360 -9.7360 -2.5015 0.9380
-11.1736 -11.1622 -2.5015 0.9380
-9.7487 -12.4260 -2.5015 0.9380
-8.1821 -13.5091 -2.5015 0.9380
-6.4942 -14.3908 -2.5006 0.9381
-4.5673 -14.5968 -2.4224 0.9399
-2.7239 -14.7523 -2.3760 0.9411
-0.9435 -15.2189 -2.4151 0.9401
0.9264 -15.7524 -2.4992 0.9381
13.4915 -8.2112 -2.5015 0.9380
15.7685 0.8933 -2.5015 0.9380
7.3164 2.2466 -1.2122 0.9695
6.7187 2.9890 -1.1647 0.9707
12.7279 7.6166 -2.3493 0.9417
11.1045 8.6168 -2.2262 0.9447
8.7150 8.6315 -1.9427 0.9515
6.7067 8.4731 -1.7115 0.9572
5.1319 8.3914 -1.5579 0.9609
6.1871 13.5543 -2.3599 0.9414
1.6404 8.6750 -1.3983 0.9649
0.5758 8.6815 -1.3780 0.9654
-0.4715 8.6526 -1.3725 0.9655
-1.5116 8.5445 -1.3743 0.9655
-2.5854 8.4849 -1.4049 0.9647
-3.6851 8.3316 -1.4429 0.9638
-8.6170 8.7380 -1.9437 0.9515
-11.0092 8.7527 -2.2276 0.9446
-13.4802 6.1884 -2.3493 0.9417
-14.5685 2.7874 -2.3493 0.9417
-15.7569 1.0792 -2.5015 0.9380
-15.5581 -2.7179 -2.5015 0.9380
-15.1179 -4.5709 -2.5015 0.9380
-14.4577 -6.3574 -2.5015 0.9380
-13.5873 -8.0516 -2.5015 0.9380
-12.5194 -9.6285 -2.5015 0.9380
-4.7070 -14.6006 -2.4297 0.9398
-2.8510 -14.7291 -2.3762 0.9411
2.6844 -15.5640 -2.5015 0.9380
4.5383 -15.1277 -2.5015 0.9380
6.3263 -14.4714 -2.5015 0.9380
11.0412 -11.2931 -2.5015 0.9380
14.3250 -6.6511 -2.5015 0.9380
15.7756 0.7574 -2.5015 0.9380
12.7931 7.5066 -2.3493 0.9417
6.8472 8.4992 -1.7286 0.9568
5.2335 8.3942 -1.5667 0.9607
-0.3974 8.6664 -1.3741 0.9655
-1.4365 8.5485 -1.3729 0.9655
-2.5070 8.4894 -1.4020 0.9648
-12.5699 7.8747 -2.3493 0.9417
-14.0876 4.6423 -2.3493 0.9417
-14.5439 2.9128 -2.3493 0.9417
-15.7470 1.2149 -2.5015 0.9380
