ply
format ascii 1.0
element vertex 1550
property float32 x
property float32 y
property float32 z
property float32 I
end_header
-42.2879 -16.6239 -2.3813 0.8336
-38.9593 -27.5759 -2.5015 0.8260
-35.3556 -32.0662 -2.5015 0.8260
-13.9306 -20.6824 -1.3069 0.9049
-4.5609 -19.4215 -1.0455 0.9232
-2.2987 -20.8209 -1.0978 0.9195
0.2369 -22.0667 -1.1565 0.9154
11.9076 -46.2219 -2.5015 0.8260
17.3863 -44.4519 -2.5015 0.8260
25.8350 -36.6334 -2.3493 0.8356
33.8435 -29.3950 -2.3493 0.8356
35.8028 -24.2046 -2.2649 0.8410
39.8893 -20.4522 -2.3493 0.8356
47.7291 0.4304 -2.5015 0.8260
44.4503 5.7985 -2.3493 0.8356
33.1580 8.4812 -1.7937 0.8719
22.0189 8.5685 -1.2383 0.9097
5.8139 8.5680 -0.5426 0.9594
4.3907 8.5273 -0.5027 0.9623
3.2103 8.6653 -0.4843 0.9637
-2.1880 8.6160 -0.4659 0.9650
-3.3209 8.5775 -0.4820 0.9638
-4.6487 8.7136 -0.5176 0.9612
-6.1066 8.7226 -0.5580 0.9582
-7.8258 8.7186 -0.6140 0.9542
-16.8841 8.7304 -0.9962 0.9267
-22.1837 8.2620 -1.2406 0.9095
-19.2895 2.2305 -1.0177 0.9252
-45.2291 -0.2522 -2.3704 0.8343
-41.9541 -16.1601 -2.3562 0.8352
-42.1513 -22.3947 -2.5015 0.8260
-39.1482 -27.3071 -2.5015 0.8260
-35.5754 -31.8221 -2.5015 0.8260
-14.1113 -20.6426 -1.3104 0.9047
-4.7108 -19.4569 -1.0491 0.9229
0.0843 -21.8641 -1.1459 0.9161
5.9297 -47.3613 -2.5015 0.8260
11.5891 -46.3028 -2.5015 0.8260
35.2722 -24.2013 -2.2418 0.8425
41.9540 -15.7897 -2.3493 0.8356
47.3960 -5.6459 -2.5015 0.8260
47.7310 0.1019 -2.5015 0.8260
44.4892 5.4924 -2.3493 0.8356
22.4716 8.5670 -1.2604 0.9082
5.9032 8.5720 -0.5455 0.9592
4.4649 8.5267 -0.5044 0.9622
2.1312 8.6719 -0.4680 0.9649
-4.5717 8.7131 -0.5157 0.9614
-6.0172 8.7220 -0.5553 0.9584
-15.7670 17.8110 -1.2466 0.9091
-21.2389 2.6042 -1.1214 0.9179
-37.3515 -9.1441 -2.0153 0.8572
-41.9409 -15.8244 -2.3493 0.8356
-42.3045 -22.1040 -2.5015 0.8260
-14.5599 -20.9873 -1.3387 0.9027
-10.4053 -19.7059 -1.1679 0.9146
-7.2948 -19.0834 -1.0707 0.9214
4.5625 -38.5945 -2.0367 0.8558
11.2701 -46.3814 -2.5015 0.8260
25.3283 -36.9856 -2.3493 0.8356
33.4356 -29.8582 -2.3493 0.8356
39.6040 -20.9994 -2.3493 0.8356
46.2924 -11.6305 -2.5015 0.8260
47.7305 -0.2267 -2.5015 0.8260
44.5259 5.1860 -2.3493 0.8356
22.9408 8.5655 -1.2833 0.9066
9.8445 8.6245 -0.6859 0.9489
7.7300 8.6263 -0.6070 0.9547
5.9935 8.5761 -0.5483 0.9590
3.3463 8.6645 -0.4868 0.9635
1.1096 8.6782 -0.4585 0.9656
-0.9907 8.6355 -0.4555 0.9658
-3.1856 8.5770 -0.4795 0.9640
-5.9286 8.7215 -0.5527 0.9586
-9.7249 8.7448 -0.6854 0.9490
-12.4377 8.7241 -0.7962 0.9410
-16.3740 8.7544 -0.9731 0.9283
-22.7329 8.8247 -1.2780 0.9069
-33.7646 8.6067 -1.8261 0.8697
-21.2144 2.7495 -1.1211 0.9179
-36.9667 -8.7806 -1.9912 0.8588
-42.0488 -15.5353 -2.3493 0.8356
-36.0101 -31.3293 -2.5015 0.8260
-30.0304 -33.2810 -2.3493 0.8356
-14.9178 -21.1902 -1.3581 0.9014
-10.6093 -19.7615 -1.1755 0.9141
-7.5154 -19.2618 -1.0836 0.9205
-2.6883 -20.4654 -1.0818 0.9206
-0.2148 -21.6726 -1.1359 0.9168
4.9561 -44.5521 -2.3493 0.8356
21.7393 -42.4930 -2.5015 0.8260
24.6944 -36.5978 -2.3138 0.8379
33.2293 -30.0876 -2.3493 0.8356
39.4585 -21.2715 -2.3493 0.8356
41.7327 -16.3657 -2.3493 0.8356
46.2113 -11.9488 -2.5015 0.8260
47.3138 -6.2979 -2.5015 0.8260
47.7278 -0.5552 -2.5015 0.8260
44.5606 4.8794 -2.3493 0.8356
43.6489 10.2093 -2.3493 0.8356
23.4275 8.5639 -1.3072 0.9049
31.2762 15.9329 -1.8395 0.8688
12.8023 8.6063 -0.8085 0.9401
7.8426 8.6315 -0.6112 0.9544
6.0843 8.5796 -0.5512 0.9587
3.4149 8.6640 -0.4881 0.9634
0.7930 5.8800 -0.3109 0.9765
0.6336 47.4417 -2.4865 0.8269
-0.9308 8.6383 -0.4553 0.9658
-2.0017 8.6250 -0.4640 0.9652
-4.4193 8.7122 -0.5120 0.9616
-5.8409 8.7209 -0.5501 0.9588
-7.5174 8.7312 -0.6038 0.9549
-12.2685 8.7320 -0.7892 0.9415
-22.2701 8.8219 -1.2554 0.9085
-27.5139 7.2154 -1.4907 0.8923
-21.3393 2.9152 -1.1287 0.9173
-45.2425 0.6820 -2.3713 0.8342
-41.8548 -4.4373 -2.2058 0.8449
-35.2116 -8.1081 -1.8937 0.8653
-42.1548 -15.2455 -2.3493 0.8356
-42.6047 -21.5195 -2.5015 0.8260
-36.2249 -31.0807 -2.5015 0.8260
-30.2588 -33.0735 -2.3493 0.8356
-15.1851 -21.2575 -1.3691 0.9006
-7.6698 -19.2650 -1.0867 0.9203
-5.0558 -19.1447 -1.0377 0.9238
-2.8346 -20.4864 -1.0839 0.9205
-0.2712 -16.1480 -0.8464 0.9374
4.6493 -44.5852 -2.3493 0.8356
10.6305 -46.5322 -2.5015 0.8260
16.1559 -44.9137 -2.5015 0.8260
21.4462 -42.6417 -2.5015 0.8260
24.9927 -29.2310 -2.0156 0.8572
34.4644 -24.7090 -2.2224 0.8438
39.3111 -21.5426 -2.3493 0.8356
37.7264 -15.0951 -2.1295 0.8498
46.1279 -12.2667 -2.5015 0.8260
44.5931 4.5725 -2.3493 0.8356
43.7181 9.9086 -2.3493 0.8356
12.9928 8.6052 -0.8167 0.9395
10.1203 8.6228 -0.6968 0.9481
7.9294 8.6073 -0.6133 0.9542
3.1635 5.7493 -0.3439 0.9741
2.3218 8.6708 -0.4704 0.9647
-0.8710 8.6411 -0.4552 0.9658
-9.4580 8.7431 -0.6750 0.9497
-12.1023 8.7398 -0.7824 0.9420
-15.8869 8.7772 -0.9512 0.9299
-21.8231 8.8191 -1.2336 0.9100
-26.7442 7.2107 -1.4517 0.8950
-41.5603 0.9127 -2.1786 0.8466
-44.8854 -4.4465 -2.3639 0.8347
-42.2587 -14.9551 -2.3493 0.8356
-39.8851 -26.2189 -2.5015 0.8260
-32.4608 -34.9936 -2.5015 0.8260
-15.3772 -21.2161 -1.3732 0.9004
-7.8295 -19.2789 -1.0905 0.9200
-5.2160 -19.2145 -1.0434 0.9233
-2.9496 -20.2877 -1.0744 0.9212
-0.5117 -21.6079 -1.1327 0.9171
4.3423 -44.6161 -2.3493 0.8356
10.3101 -46.6043 -2.5015 0.8260
24.5591 -37.5007 -2.3493 0.8356
39.1620 -21.8127 -2.3493 0.8356
41.5034 -16.9386 -2.3493 0.8356
45.1011 -12.3266 -2.4503 0.8292
47.2226 -6.9487 -2.5015 0.8260
47.3704 4.5281 -2.4939 0.8265
31.7242 33.9643 -2.4357 0.8301
6.2625 8.5782 -0.5566 0.9584
1.2920 8.6771 -0.4598 0.9655
-0.8112 8.6439 -0.4550 0.9658
-2.9858 8.5775 -0.4760 0.9643
-4.2691 8.7113 -0.5084 0.9619
-7.3095 8.7300 -0.5967 0.9554
-9.3274 8.7423 -0.6700 0.9501
-26.0140 7.2062 -1.4147 0.8975
-33.5862 5.0602 -1.7800 0.8728
-44.9350 -4.1392 -2.3649 0.8346
-37.2876 -8.0473 -1.9991 0.8583
-32.7008 -34.7694 -2.5015 0.8260
-16.1856 -22.0110 -1.4318 0.8963
-11.2041 -19.8735 -1.1956 0.9127
-3.1083 -20.3925 -1.0811 0.9207
-0.6601 -21.5936 -1.1322 0.9171
4.0352 -44.6449 -2.3493 0.8356
9.9889 -46.6741 -2.5015 0.8260
20.8572 -42.9329 -2.5015 0.8260
39.0108 -22.0818 -2.3493 0.8356
41.3858 -17.2240 -2.3493 0.8356
45.9547 -12.9005 -2.5015 0.8260
47.1736 -7.2735 -2.5015 0.8260
47.7062 -1.5406 -2.5015 0.8260
29.6742 10.1579 -1.6438 0.8819
29.7392 14.3843 -1.7313 0.8761
10.4051 8.6211 -0.7082 0.9473
3.2447 5.7093 -0.3442 0.9740
2.4500 8.6700 -0.4722 0.9646
1.3531 8.6767 -0.4602 0.9654
0.2954 8.6832 -0.4553 0.9658
-0.7515 8.6467 -0.4549 0.9658
-5.5825 8.7193 -0.5426 0.9594
-7.2073 8.7293 -0.5933 0.9557
-19.5812 8.2285 -1.1131 0.9184
-44.8470 7.0729 -2.3794 0.8337
-35.5319 1.2699 -1.8633 0.8673
-37.4992 -7.8232 -2.0076 0.8578
-43.0399 -20.6354 -2.5015 0.8260
-36.8591 -30.3260 -2.5015 0.8260
-16.2890 -21.8352 -1.4277 0.8966
-11.3010 -19.7268 -1.1915 0.9130
-8.1330 -19.2612 -1.0957 0.9197
-3.2533 -20.3999 -1.0826 0.9206
-0.8023 -21.4163 -1.1232 0.9177
15.2251 -45.2377 -2.5015 0.8260
20.5612 -43.0754 -2.5015 0.8260
24.3846 -38.3763 -2.3829 0.8335
34.4577 -25.7979 -2.2559 0.8416
38.8580 -22.3497 -2.3493 0.8356
41.2663 -17.5084 -2.3493 0.8356
42.1207 -12.1376 -2.2973 0.8390
47.1225 -7.5979 -2.5015 0.8260
47.5725 3.8873 -2.5015 0.8260
29.7350 14.1306 -1.7254 0.8765
13.5886 8.6015 -0.8428 0.9376
10.5510 8.6202 -0.7140 0.9469
6.4443 8.5767 -0.5622 0.9579
4.9243 8.5276 -0.5161 0.9613
3.6928 8.6623 -0.4935 0.9630
0.3552 8.6829 -0.4554 0.9658
-0.6918 8.6495 -0.4547 0.9658
-5.4979 8.7188 -0.5402 0.9596
-14.8640 8.6175 -0.9004 0.9335
-19.4411 8.3275 -1.1084 0.9188
-24.4522 7.1375 -1.3350 0.9030
-45.0262 -3.5234 -2.3669 0.8345
-37.7127 -7.5972 -2.0161 0.8572
-43.1810 -20.3385 -2.5015 0.8260
-16.7230 -22.0980 -1.4523 0.8949
-11.5904 -19.9128 -1.2075 0.9118
-3.3503 -20.1169 -1.0688 0.9216
20.2641 -43.2160 -2.5015 0.8260
28.1820 -34.8601 -2.3493 0.8356
34.4554 -26.1681 -2.2675 0.8409
47.0690 -7.9222 -2.5015 0.8260
47.5981 3.5598 -2.5015 0.8260
43.9743 8.7013 -2.3493 0.8356
10.6994 8.6193 -0.7200 0.9465
8.4044 8.6334 -0.6314 0.9529
6.5365 8.5759 -0.5651 0.9577
5.0050 8.5312 -0.5184 0.9612
1.4756 8.6760 -0.4612 0.9654
0.4151 8.6825 -0.4555 0.9658
-0.6321 8.6523 -0.4547 0.9658
-1.6929 8.6334 -0.4611 0.9654
-2.7916 8.5869 -0.4732 0.9645
-7.0065 8.7281 -0.5866 0.9562
-8.9473 8.7400 -0.6555 0.9511
-11.4461 8.7554 -0.7552 0.9439
-14.6493 8.6283 -0.8910 0.9342
-19.4401 8.4859 -1.1116 0.9185
-23.9326 7.1649 -1.3093 0.9048
-44.7678 7.6935 -2.3806 0.8336
-37.9279 -7.3693 -2.0249 0.8566
-42.6544 -13.7860 -2.3493 0.8356
-43.3200 -20.0409 -2.5015 0.8260
-17.3249 -22.5687 -1.4911 0.8923
9.0231 -46.8704 -2.5015 0.8260
14.6009 -45.4430 -2.5015 0.8260
24.3647 -39.5373 -2.4339 0.8303
38.5466 -22.8826 -2.3493 0.8356
41.0214 -18.0749 -2.3493 0.8356
47.6215 3.2320 -2.5015 0.8260
44.0332 8.3983 -2.3493 0.8356
-26.5371 -10.6435 -2.5015 0.8915
-25.0625 -13.7613 -2.5015 0.8915
-13.6356 -20.5482 -2.1575 0.9057
-6.8825 -19.1834 -1.7831 0.9214
-4.4702 -19.6419 -1.7624 0.9223
7.3233 -27.6382 -2.5015 0.8915
10.5978 -26.5554 -2.5015 0.8915
13.7181 -25.0862 -2.5015 0.8915
16.6388 -23.2519 -2.5015 0.8915
21.7150 -18.6001 -2.5015 0.8915
23.7965 -15.8502 -2.5015 0.8915
26.8957 -9.7018 -2.5015 0.8915
27.8682 -6.3929 -2.5015 0.8915
28.5884 0.4546 -2.5015 0.8915
25.9684 6.8331 -2.3493 0.8978
15.7438 8.5742 -1.5684 0.9305
7.4014 8.6108 -0.9934 0.9554
3.1428 8.6657 -0.8065 0.9637
2.0052 8.6727 -0.7788 0.9649
0.9280 8.6793 -0.7637 0.9656
-3.3731 8.5373 -0.8031 0.9638
-6.1969 8.7231 -0.9361 0.9579
-7.9487 8.7339 -1.0332 0.9537
-10.1414 8.7474 -1.1717 0.9476
-21.7499 7.9304 -2.0254 0.9112
-21.4320 2.3289 -1.8861 0.9171
-26.8502 -0.3346 -2.3493 0.8978
-28.2970 -3.7904 -2.4978 0.8917
-13.9480 -20.7082 -2.1844 0.9046
-2.2764 -20.6189 -1.8149 0.9201
0.2335 -21.7448 -1.9025 0.9164
7.1329 -27.6880 -2.5015 0.8915
10.4148 -26.6277 -2.5015 0.8915
21.5864 -18.7491 -2.5015 0.8915
26.8283 -9.8867 -2.5015 0.8915
28.5908 0.2578 -2.5015 0.8915
28.3518 3.6985 -2.5015 0.8915
26.0148 6.6542 -2.3493 0.8978
12.2531 8.6097 -1.3102 0.9416
9.5771 8.6262 -1.1277 0.9496
7.5095 8.6159 -0.9999 0.9551
5.7970 8.5431 -0.9033 0.9594
3.2103 8.6653 -0.8085 0.9636
2.0681 8.6723 -0.7800 0.9648
0.9885 8.6790 -0.7642 0.9655
-2.1828 8.5955 -0.7759 0.9650
-3.3066 8.5406 -0.8012 0.9639
-7.8258 8.7186 -1.0250 0.9540
-10.0004 8.7465 -1.1623 0.9481
-12.6800 8.6361 -1.3422 0.9403
-16.6673 8.6183 -1.6416 0.9274
-21.7226 8.0902 -2.0280 0.9111
-26.1620 6.2865 -2.3540 0.8976
-27.7244 -6.9899 -2.5015 0.8915
-23.4506 -16.3576 -2.5015 0.8915
-21.3105 -19.0621 -2.5015 0.8915
-17.7128 -20.1818 -2.3493 0.8978
-10.1140 -19.4779 -1.9201 0.9156
-7.2279 -19.3058 -1.8035 0.9206
3.3359 -26.6443 -2.3493 0.8978
6.9422 -27.7364 -2.5015 0.8915
19.0254 -21.3433 -2.5015 0.8915
25.3523 -13.2199 -2.5015 0.8915
26.7596 -10.0712 -2.5015 0.8915
27.7775 -6.7759 -2.5015 0.8915
28.5919 0.0610 -2.5015 0.8915
26.0600 6.4749 -2.3493 0.8978
25.0908 9.5656 -2.3493 0.8978
12.4325 8.6086 -1.3230 0.9411
9.7098 8.6254 -1.1363 0.9492
5.8860 8.5470 -0.9079 0.9592
4.4421 8.4832 -0.8378 0.9623
-0.0036 8.6818 -0.7596 0.9657
-1.0507 8.6327 -0.7608 0.9657
-3.2404 8.5438 -0.7994 0.9640
-4.5717 8.7131 -0.8609 0.9613
-6.0172 8.7220 -0.9270 0.9583
-9.8616 8.7456 -1.1532 0.9485
-16.4621 8.6563 -1.6272 0.9280
-22.1826 8.4359 -2.0763 0.9091
-26.1238 6.4679 -2.3545 0.8976
-19.2447 2.3597 -1.6963 0.9251
-28.0645 -3.3667 -2.4729 0.8927
-27.7719 -6.7989 -2.5015 0.8915
-26.7512 -10.0933 -2.5015 0.8915
-25.3413 -13.2408 -2.5015 0.8915
-21.4412 -18.9150 -2.5015 0.8915
-17.8513 -20.0594 -2.3493 0.8978
-14.5968 -21.0405 -2.2404 0.9023
-7.3908 -19.3347 -1.8109 0.9202
-4.8229 -19.3372 -1.7436 0.9231
3.1524 -26.6667 -2.3493 0.8978
6.7511 -27.7835 -2.5015 0.8915
13.1626 -25.2974 -2.4949 0.8918
21.3263 -19.0445 -2.5015 0.8915
23.4642 -16.3382 -2.5015 0.8915
26.6896 -10.2551 -2.5015 0.8915
28.3673 -3.5774 -2.5015 0.8915
28.5917 -0.1358 -2.5015 0.8915
28.4000 3.3078 -2.5015 0.8915
25.1561 9.3926 -2.3493 0.8978
4.5186 8.4866 -0.8412 0.9621
3.3463 8.6645 -0.8126 0.9634
2.1945 8.6715 -0.7826 0.9647
0.0559 8.6444 -0.7563 0.9659
-0.9907 8.6355 -0.7605 0.9657
-2.0587 8.6016 -0.7738 0.9651
-4.4952 8.7126 -0.8577 0.9614
-5.9286 8.7215 -0.9226 0.9585
-15.4509 8.2608 -1.5329 0.9321
-21.8278 8.4734 -2.0485 0.9103
-26.0843 6.6490 -2.3551 0.8976
-21.2192 2.7501 -1.8720 0.9177
-27.8180 -6.6076 -2.5015 0.8915
-26.8201 -9.9089 -2.5015 0.8915
-23.6736 -16.0331 -2.5015 0.8915
-21.5709 -18.7670 -2.5015 0.8915
-17.9889 -19.9361 -2.3493 0.8978
-14.9339 -21.2131 -2.2697 0.9011
-10.4819 -19.5242 -1.9387 0.9149
-2.6928 -20.4994 -1.8089 0.9203
2.9688 -26.6877 -2.3493 0.8978
6.5597 -27.8294 -2.5015 0.8915
9.8627 -26.8371 -2.5015 0.8915
15.9924 -23.7012 -2.5015 0.8915
18.7298 -21.6032 -2.5015 0.8915
21.1947 -19.1908 -2.5015 0.8915
23.3512 -16.4992 -2.5015 0.8915
25.1679 -13.5676 -2.5015 0.8915
26.6184 -10.4386 -2.5015 0.8915
28.5901 -0.3326 -2.5015 0.8915
23.9835 12.2178 -2.3549 0.8976
7.8426 8.6315 -1.0203 0.9543
3.4149 8.6640 -0.8148 0.9633
2.2580 8.6711 -0.7839 0.9647
0.7928 5.8788 -0.5190 0.9765
-3.1089 8.5503 -0.7960 0.9641
-7.5175 8.7312 -1.0080 0.9548
-12.1859 8.6733 -1.3086 0.9417
-15.2896 8.3104 -1.5225 0.9325
-26.0435 6.8298 -2.3556 0.8975
-26.8493 0.4047 -2.3493 0.8978
-25.5212 -12.8908 -2.5015 0.8915
-23.7834 -15.8698 -2.5015 0.8915
-21.6996 -18.6180 -2.5015 0.8915
-15.2800 -21.3903 -2.2998 0.8998
-7.6730 -19.2729 -1.8149 0.9201
-5.0898 -19.2733 -1.7440 0.9231
-2.8422 -20.5414 -1.8143 0.9201
-0.2712 -16.1479 -1.4130 0.9372
6.3679 -27.8739 -2.5015 0.8915
9.6778 -26.9043 -2.5015 0.8915
12.8468 -25.5433 -2.5015 0.8915
15.8289 -23.8107 -2.5015 0.8915
18.5806 -21.7316 -2.5015 0.8915
21.0621 -19.3363 -2.5015 0.8915
25.0739 -13.7406 -2.5015 0.8915
27.6317 -7.3480 -2.5015 0.8915
28.4429 2.9165 -2.5015 0.8915
25.2830 9.0454 -2.3493 0.8978
10.1203 8.6228 -1.1632 0.9480
7.9294 8.6073 -1.0239 0.9541
6.1554 8.5544 -0.9220 0.9586
0.8335 5.8746 -0.5191 0.9765
0.5579 27.5665 -2.4122 0.8952
-0.8710 8.6411 -0.7598 0.9657
-1.9353 8.6075 -0.7719 0.9652
-3.0436 8.5535 -0.7943 0.9642
-9.4580 8.7431 -1.1269 0.9496
-15.1304 8.3593 -1.5123 0.9329
-20.2508 8.1838 -1.9109 0.9160
-26.0014 7.0105 -2.3561 0.8975
-26.9626 -2.6710 -2.3705 0.8969
-26.9539 -9.5388 -2.5015 0.8915
-25.6094 -12.7147 -2.5015 0.8915
-15.6353 -21.5722 -2.3309 0.8985
-10.8569 -19.5715 -1.9581 0.9141
-7.8055 -19.2197 -1.8149 0.9201
-2.9674 -20.4099 -1.8044 0.9205
-0.5057 -21.3527 -1.8686 0.9178
2.6011 -26.7261 -2.3493 0.8978
9.4924 -26.9703 -2.5015 0.8915
12.6707 -25.6311 -2.5015 0.8915
15.6646 -23.9191 -2.5015 0.8915
20.9285 -19.4808 -2.5015 0.8915
24.9787 -13.9128 -2.5015 0.8915
26.4722 -10.8040 -2.5015 0.8915
28.2874 -4.1624 -2.5015 0.8915
28.5828 -0.7262 -2.5015 0.8915
26.2284 5.7551 -2.3493 0.8978
24.1365 11.8802 -2.3536 0.8976
18.5963 19.9094 -2.3835 0.8964
3.1983 5.7189 -0.5733 0.9740
3.5531 8.6632 -0.8192 0.9631
-0.8112 8.6439 -0.7596 0.9657
-2.9785 8.5567 -0.7927 0.9643
-4.2691 8.7113 -0.8487 0.9618
-5.6679 8.7199 -0.9099 0.9591
-7.3095 8.7300 -0.9961 0.9553
-9.3274 8.7423 -1.1185 0.9500
-11.9079 8.7248 -1.2915 0.9424
-25.9581 7.1907 -2.3566 0.8975
-26.5527 4.0005 -2.3493 0.8978
-26.7392 -2.4631 -2.3493 0.8978
-27.9485 -6.0317 -2.5015 0.8915
-21.9538 -18.3176 -2.5015 0.8915
-15.9077 -21.6331 -2.3493 0.8978
-7.9542 -19.2055 -1.8187 0.9199
-3.1079 -20.3901 -1.8045 0.9205
5.9826 -27.9543 -2.5011 0.8916
12.4939 -25.7178 -2.5015 0.8915
15.4996 -24.0263 -2.5015 0.8915
18.2798 -21.9853 -2.5015 0.8915
20.7939 -19.6244 -2.5015 0.8915
24.8823 -14.0845 -2.5015 0.8915
24.2113 11.7106 -2.3530 0.8976
13.3859 8.6028 -1.3921 0.9381
10.4051 8.6211 -1.1822 0.9472
6.3408 8.5610 -0.9321 0.9581
2.4500 8.6700 -0.7882 0.9645
-1.8124 8.6135 -0.7701 0.9653
-5.5825 8.7193 -0.9058 0.9593
-9.1989 8.7416 -1.1102 0.9503
-11.7302 8.7193 -1.2787 0.9430
-14.8182 8.4551 -1.4926 0.9338
-26.7555 -2.2790 -2.3493 0.8978
-27.9894 -5.8392 -2.5015 0.8915
-22.0794 -18.1660 -2.5015 0.8915
-19.3113 -20.2517 -2.4482 0.8937
-16.0562 -21.5232 -2.3493 0.8978
-11.2397 -19.6198 -1.9782 0.9132
-8.1182 -19.2262 -1.8259 0.9196
-3.2411 -20.3236 -1.8006 0.9207
-0.7942 -21.1997 -1.8560 0.9183
2.2329 -26.7593 -2.3493 0.8978
5.4387 -26.2958 -2.3493 0.8978
12.3166 -25.8032 -2.5015 0.8915
18.1279 -22.1107 -2.5015 0.8915
22.8881 -17.1359 -2.5015 0.8915
24.7848 -14.2554 -2.5015 0.8915
26.3209 -11.1674 -2.5015 0.8915
27.4741 -7.9170 -2.5015 0.8915
28.5701 -1.1196 -2.5015 0.8915
28.4970 2.3286 -2.5015 0.8915
25.4644 8.5215 -2.3493 0.8978
10.5510 8.6202 -1.1920 0.9468
4.9107 8.5040 -0.8591 0.9613
3.6929 8.6623 -0.8238 0.9629
2.5144 8.6696 -0.7897 0.9644
1.4143 8.6763 -0.7691 0.9653
-1.7506 8.6133 -0.7690 0.9653
-2.8492 8.5630 -0.7895 0.9644
-4.1210 8.7104 -0.8430 0.9620
-9.0722 8.7408 -1.1022 0.9507
-11.5771 8.7299 -1.2686 0.9434
-24.6592 7.1979 -2.2474 0.9020
-20.8009 3.4275 -1.8444 0.9188
-26.8280 1.1437 -2.3493 0.8978
-27.1452 -8.9801 -2.5015 0.8915
-22.2039 -18.0136 -2.5015 0.8915
-19.8240 -20.5050 -2.4953 0.8918
-11.4341 -19.6443 -1.9886 0.9128
-5.6152 -19.1150 -1.7430 0.9231
2.0184 -26.3779 -2.3145 0.8992
5.2576 -26.3326 -2.3493 0.8978
8.9334 -27.1606 -2.5015 0.8915
12.1387 -25.8874 -2.5015 0.8915
15.1674 -24.2374 -2.5015 0.8915
20.5218 -19.9088 -2.5015 0.8915
22.7696 -17.2930 -2.5015 0.8915
24.6861 -14.4256 -2.5015 0.8915
27.4189 -8.1060 -2.5015 0.8915
28.1954 -4.7456 -2.5015 0.8915
28.5617 -1.3162 -2.5015 0.8915
28.5124 2.1324 -2.5015 0.8915
13.7959 8.6002 -1.4223 0.9368
8.4044 8.6334 -1.0541 0.9528
3.7633 8.6619 -0.8263 0.9628
2.5792 8.6692 -0.7913 0.9643
0.4151 8.6825 -0.7605 0.9657
-0.6321 8.6523 -0.7590 0.9658
-2.7849 8.5662 -0.7881 0.9645
-5.4141 8.7183 -0.8979 0.9596
-11.4461 8.7554 -1.2608 0.9438
-14.4635 8.5189 -1.4686 0.9348
-24.0299 7.1940 -2.1945 0.9042
-20.8538 3.5838 -1.8512 0.9185
-28.0671 -5.4533 -2.5015 0.8915
-27.2063 -8.7931 -2.5015 0.8915
-25.9496 -12.0049 -2.5015 0.8915
-22.3274 -17.8603 -2.5015 0.8915
-11.6304 -19.6691 -1.9991 0.9123
-8.4503 -19.2680 -1.8407 0.9190
-4.5583 -15.1310 -1.3826 0.9385
-3.5107 -20.2203 -1.7955 0.9209
-1.0789 -21.0487 -1.8439 0.9189
1.7822 -25.6079 -2.2458 0.9021
4.9530 -25.7284 -2.2923 0.9001
11.9602 -25.9703 -2.5015 0.8915
20.3842 -20.0496 -2.5015 0.8915
22.6500 -17.4494 -2.5015 0.8915
27.3625 -8.2945 -2.5015 0.8915
28.1621 -4.9395 -2.5015 0.8915
28.5520 -1.5127 -2.5015 0.8915
26.3769 5.0308 -2.3493 0.8978
-18.9087 -7.5839 -2.5015 0.9212
-17.8580 -9.8054 -2.5015 0.9212
-16.5475 -11.8843 -2.5015 0.9212
-14.9961 -13.7902 -2.5015 0.9212
-13.2266 -15.4955 -2.5015 0.9212
-10.5856 -15.9519 -2.3507 0.9257
-4.2459 -18.6563 -2.3493 0.9258
-1.9687 -19.0318 -2.3493 0.9258
0.3371 -19.1304 -2.3493 0.9258
2.6381 -18.9506 -2.3493 0.9258
5.2182 -19.6933 -2.5015 0.9212
7.5514 -18.9217 -2.5015 0.9212
9.7747 -17.8749 -2.5015 0.9212
16.9559 -11.2938 -2.5015 0.9212
18.1924 -9.1701 -2.5015 0.9212
8.7203 2.2946 -1.1072 0.9643
15.7438 8.5742 -2.2012 0.9303
9.4464 8.6270 -1.5708 0.9498
7.3251 8.5221 -1.3798 0.9557
5.6643 8.4723 -1.2513 0.9598
4.2416 8.3790 -1.1531 0.9629
2.0052 8.6727 -1.0930 0.9648
-1.1693 8.6163 -1.0676 0.9656
-2.2366 8.5598 -1.0863 0.9650
-3.3571 8.4968 -1.1218 0.9639
-4.7263 8.7141 -1.2172 0.9608
-6.1969 8.7231 -1.3138 0.9578
-12.7649 8.5659 -1.8875 0.9399
-17.0643 8.6752 -2.3504 0.9258
-17.9757 6.5542 -2.3493 0.9258
-18.6341 4.3422 -2.3493 0.9258
-20.3713 -0.2538 -2.5015 0.9212
-20.1925 -2.7048 -2.5015 0.9212
-15.0907 -13.6867 -2.5015 0.9212
-10.7809 -16.0061 -2.3695 0.9252
-8.7002 -17.0408 -2.3493 0.9258
-6.5851 -17.9644 -2.3493 0.9258
-4.3742 -18.6266 -2.3493 0.9258
-2.0997 -19.0178 -2.3493 0.9258
0.2055 -19.1322 -2.3493 0.9258
2.5076 -18.9683 -2.3493 0.9258
5.0821 -19.7274 -2.5013 0.9212
7.4209 -18.9733 -2.5015 0.9212
9.6514 -17.9417 -2.5015 0.9212
15.3812 -13.3595 -2.5015 0.9212
16.8778 -11.4103 -2.5015 0.9212
18.1289 -9.2951 -2.5015 0.9212
19.8253 -4.6917 -2.5015 0.9212
20.2460 -2.2705 -2.5015 0.9212
20.3721 0.1837 -2.5015 0.9212
8.8946 2.2751 -1.1273 0.9637
16.4903 8.8341 -2.2970 0.9274
7.4472 8.5444 -1.3917 0.9553
5.7509 8.4751 -1.2576 0.9596
4.3236 8.3969 -1.1597 0.9627
3.2103 8.6653 -1.1346 0.9634
2.0681 8.6723 -1.0947 0.9647
-0.0633 8.6708 -1.0647 0.9657
-2.1746 8.5632 -1.0848 0.9650
-4.6487 8.7136 -1.2126 0.9610
-6.1066 8.7226 -1.3074 0.9580
-7.8258 8.7186 -1.4385 0.9539
-10.0004 8.7465 -1.6313 0.9479
-12.6171 8.5933 -1.8744 0.9403
-17.9302 6.6778 -2.3493 0.9258
-19.0067 2.1978 -2.3493 0.9258
-19.7547 -4.9805 -2.5015 0.9212
-17.9913 -9.5587 -2.5015 0.9212
-16.7095 -11.6554 -2.5015 0.9212
-15.1845 -13.5825 -2.5015 0.9212
-10.9886 -16.0746 -2.3908 0.9245
-6.7086 -17.9187 -2.3493 0.9258
0.0738 -19.1332 -2.3493 0.9258
4.9417 -19.7440 -2.4990 0.9213
11.6266 -16.7295 -2.5015 0.9212
13.5564 -15.2079 -2.5015 0.9212
15.2888 -13.4650 -2.5015 0.9212
19.7925 -4.8281 -2.5015 0.9212
20.2194 2.4962 -2.5015 0.9212
8.3411 3.1800 -1.0961 0.9647
16.5577 8.7241 -2.2980 0.9274
9.7098 8.6254 -1.5947 0.9490
2.1312 8.6719 -1.0965 0.9647
1.0490 8.6786 -1.0734 0.9654
-2.1128 8.5666 -1.0834 0.9651
-4.5717 8.7131 -1.2082 0.9611
-6.0172 8.7220 -1.3011 0.9582
-16.9483 8.9120 -2.3511 0.9257
-17.8838 6.8010 -2.3493 0.9258
-18.9911 2.3286 -2.3493 0.9258
-20.2279 -2.4266 -2.5015 0.9212
-15.2777 -13.4777 -2.5015 0.9212
-8.9340 -16.9195 -2.3493 0.9258
-4.6302 -18.5646 -2.3493 0.9258
-2.3613 -18.9871 -2.3493 0.9258
-0.0579 -19.1333 -2.3493 0.9258
2.2462 -19.0010 -2.3493 0.9258
4.8013 -19.7596 -2.4968 0.9213
15.1958 -13.5699 -2.5015 0.9212
17.9992 -9.5438 -2.5015 0.9212
20.3727 -0.0967 -2.5015 0.9212
8.3450 3.1158 -1.0937 0.9647
16.8344 8.7224 -2.3280 0.9264
12.6156 8.6075 -1.8752 0.9403
4.4902 8.4332 -1.1731 0.9622
3.3463 8.6645 -1.1404 0.9633
2.1945 8.6715 -1.0983 0.9646
0.7583 5.9311 -0.7342 0.9762
-0.9896 8.6254 -1.0660 0.9656
-3.1600 8.5081 -1.1144 0.9641
-9.7249 8.7448 -1.6058 0.9487
-12.3277 8.6470 -1.8489 0.9411
-17.8366 6.9240 -2.3493 0.9258
-18.5405 4.7260 -2.3493 0.9258
-18.9746 2.4593 -2.3493 0.9258
-20.3663 0.1668 -2.5007 0.9212
-9.0502 -16.8575 -2.3493 0.9258
4.6610 -19.7743 -2.4945 0.9214
9.2789 -18.1372 -2.5015 0.9212
13.3457 -15.3931 -2.5015 0.9212
15.1020 -13.6742 -2.5015 0.9212
16.6386 -11.7563 -2.5015 0.9212
17.9331 -9.6675 -2.5015 0.9212
18.9666 -7.4379 -2.5015 0.9212
20.1948 -2.6881 -2.5015 0.9212
20.3715 -0.2370 -2.5015 0.9212
8.3487 3.0519 -1.0914 0.9648
12.8023 8.6063 -1.8941 0.9397
7.8275 8.6150 -1.4292 0.9542
6.0160 8.4833 -1.2769 0.9590
3.1444 5.8088 -0.8111 0.9737
2.2580 8.6711 -1.1002 0.9645
-0.9298 8.6284 -1.0656 0.9656
-4.4193 8.7122 -1.1995 0.9614
-5.8409 8.7209 -1.2888 0.9586
-7.5174 8.7312 -1.4147 0.9546
-9.5904 8.7440 -1.5935 0.9490
-12.1859 8.6733 -1.8365 0.9415
-16.1355 8.7702 -2.2549 0.9287
-20.2594 -2.1479 -2.5015 0.9212
-19.8534 -4.5716 -2.5015 0.9212
-18.1848 -9.1852 -2.5015 0.9212
-16.9466 -11.3079 -2.5015 0.9212
-15.4618 -13.2661 -2.5015 0.9212
-11.6348 -16.2874 -2.4577 0.9225
-9.1661 -16.7949 -2.3493 0.9258
-7.0772 -17.7763 -2.3493 0.9258
-4.8853 -18.4991 -2.3493 0.9258
-0.2694 -16.0365 -1.9693 0.9374
1.9845 -19.0301 -2.3493 0.9258
4.4474 -19.4673 -2.4519 0.9227
9.1538 -18.2006 -2.5015 0.9212
11.2787 -16.9660 -2.5015 0.9212
16.5573 -11.8706 -2.5015 0.9212
17.8661 -9.7907 -2.5015 0.9212
18.9150 -7.5683 -2.5015 0.9212
19.6886 -5.2357 -2.5015 0.9212
20.3694 -0.3772 -2.5015 0.9212
20.2666 2.0781 -2.5015 0.9212
8.3526 2.9883 -1.0892 0.9649
12.9928 8.6052 -1.9135 0.9391
7.9294 8.6073 -1.4369 0.9539
3.4838 8.6636 -1.1465 0.9631
2.3218 8.6708 -1.1021 0.9645
0.3925 19.3935 -2.3817 0.9248
-5.7540 8.7204 -1.2828 0.9588
-9.4580 8.7431 -1.5815 0.9494
-12.0460 8.6992 -1.8244 0.9419
-15.8676 8.7666 -2.2259 0.9295
-17.7395 7.1689 -2.3493 0.9258
-20.2737 -2.0084 -2.5015 0.9212
-19.8843 -4.4348 -2.5015 0.9212
-11.8582 -16.3610 -2.4810 0.9218
-7.1994 -17.7272 -2.3493 0.9258
4.2272 -19.1083 -2.4029 0.9242
9.0284 -18.2632 -2.5015 0.9212
13.1325 -15.5754 -2.5015 0.9212
17.7983 -9.9134 -2.5015 0.9212
19.6521 -5.3711 -2.5015 0.9212
10.0930 2.2146 -1.2687 0.9592
17.1665 8.4495 -2.3493 0.9258
13.1296 14.0567 -2.3617 0.9254
6.1973 8.4888 -1.2905 0.9585
3.1982 5.7188 -0.8045 0.9739
3.5531 8.6632 -1.1497 0.9630
0.2346 8.6469 -1.0621 0.9657
-1.8671 8.5798 -1.0781 0.9652
-2.9655 8.5192 -1.1076 0.9643
-4.2691 8.7113 -1.1911 0.9617
-9.3274 8.7423 -1.5697 0.9498
-16.7063 9.3807 -2.3525 0.9257
-18.4389 5.1078 -2.3493 0.9258
-18.9198 2.8505 -2.3493 0.9258
-20.2870 -1.8687 -2.5015 0.9212
-18.3096 -8.9339 -2.5015 0.9212
-15.6429 -13.0520 -2.5015 0.9212
-9.3964 -16.6671 -2.3493 0.9258
-7.3212 -17.6772 -2.3493 0.9258
-5.1396 -18.4301 -2.3493 0.9258
-2.8831 -18.9149 -2.3493 0.9258
1.7223 -19.0557 -2.3493 0.9258
8.9024 -18.3249 -2.5015 0.9212
17.7296 -10.0357 -2.5015 0.9212
18.8090 -7.8279 -2.5015 0.9212
20.1350 -3.1045 -2.5015 0.9212
20.3623 -0.6575 -2.5015 0.9212
14.8779 3.1574 -1.8675 0.9405
17.2243 8.3311 -2.3493 0.9258
13.3859 8.6028 -1.9537 0.9379
10.4051 8.6211 -1.6591 0.9470
8.1773 8.6348 -1.4602 0.9532
3.2446 5.7092 -0.8063 0.9739
3.6228 8.6628 -1.1529 0.9629
2.4500 8.6700 -1.1062 0.9643
0.2954 8.6832 -1.0668 0.9656
-1.8060 8.5830 -1.0769 0.9653
-5.5825 8.7193 -1.2712 0.9591
-7.2073 8.7293 -1.3899 0.9554
-9.1989 8.7416 -1.5581 0.9501
-17.6392 7.4124 -2.3493 0.9258
-18.8997 2.9807 -2.3493 0.9258
-20.1103 0.7188 -2.4708 0.9221
-14.0594 -14.7441 -2.5015 0.9212
-9.5109 -16.6020 -2.3493 0.9258
-3.0132 -18.8946 -2.3493 0.9258
-0.7163 -19.1199 -2.3493 0.9258
3.8753 -18.7368 -2.3493 0.9258
10.9260 -17.1953 -2.5015 0.9212
12.9169 -15.7547 -2.5015 0.9212
17.6602 -10.1575 -2.5015 0.9212
18.7547 -7.9572 -2.5015 0.9212
20.1131 -3.2430 -2.5015 0.9212
13.5887 8.6015 -1.9746 0.9372
10.5510 8.6202 -1.6729 0.9466
8.2901 8.6341 -1.4697 0.9529
4.8778 8.4471 -1.1977 0.9615
3.6928 8.6623 -1.1562 0.9628
1.4143 8.6763 -1.0794 0.9652
-0.6910 8.6403 -1.0643 0.9657
-1.7451 8.5863 -1.0758 0.9653
-4.1210 8.7104 -1.1832 0.9619
-17.5877 7.5337 -2.3493 0.9258
-18.3669 5.3612 -2.3493 0.9258
-19.8173 0.8449 -2.4355 0.9232
-19.9717 -4.0233 -2.5015 0.9212
-19.3420 -6.3987 -2.5015 0.9212
-14.1606 -14.6470 -2.5015 0.9212
-9.6250 -16.5361 -2.3493 0.9258
-4.4230 -15.0563 -1.9268 0.9387
-3.1432 -18.8734 -2.3493 0.9258
-0.8479 -19.1145 -2.3493 0.9258
1.4598 -19.0776 -2.3493 0.9258
8.6493 -18.4457 -2.5015 0.9212
10.8073 -17.2701 -2.5015 0.9212
16.2242 -12.3219 -2.5015 0.9212
18.6995 -8.0861 -2.5015 0.9212
19.5370 -5.7758 -2.5015 0.9212
20.0903 -3.3814 -2.5015 0.9212
20.3513 -0.9378 -2.5015 0.9212
8.3996 2.7467 -1.0851 0.9650
17.3374 8.0932 -2.3493 0.9258
13.7959 8.6002 -1.9961 0.9366
10.6994 8.6193 -1.6870 0.9461
2.5792 8.6692 -1.1105 0.9642
-0.6315 8.6433 -1.0641 0.9657
-5.4141 8.7183 -1.2601 0.9595
-8.9473 8.7400 -1.5357 0.9508
-14.1249 8.3194 -2.0128 0.9361
-17.5355 7.6545 -2.3493 0.9258
-18.3295 5.4875 -2.3493 0.9258
-19.5222 0.9670 -2.4000 0.9243
-18.4901 -8.5540 -2.5015 0.9212
-15.9091 -12.7261 -2.5015 0.9212
-12.3996 -16.1527 -2.5003 0.9212
-9.7386 -16.4695 -2.3493 0.9258
-7.6847 -17.5223 -2.3493 0.9258
-4.5332 -15.0477 -1.9296 0.9386
-3.2730 -18.8513 -2.3493 0.9258
-0.9795 -19.1083 -2.3493 0.9258
3.6170 -18.7883 -2.3493 0.9258
6.2321 -19.3963 -2.5015 0.9212
10.6882 -17.3441 -2.5015 0.9212
14.5245 -14.2861 -2.5015 0.9212
18.6434 -8.2146 -2.5015 0.9212
19.4968 -5.9101 -2.5015 0.9212
20.3444 -1.0779 -2.5015 0.9212
-14.6586 -5.8793 -2.5015 0.9380
-13.8441 -7.6015 -2.5015 0.9380
-10.2537 -12.0126 -2.5015 0.9380
-7.0846 -14.1155 -2.5015 0.9380
-3.3300 -14.6320 -2.3767 0.9410
-1.5449 -14.9350 -2.3781 0.9410
0.2745 -15.5776 -2.4676 0.9389
2.1776 -15.6428 -2.5015 0.9380
4.0453 -15.2668 -2.5015 0.9380
9.1910 -12.8439 -2.5015 0.9380
13.1448 -8.7553 -2.5015 0.9380
14.1033 -7.1089 -2.5015 0.9380
15.6466 2.1507 -2.5015 0.9380
8.2547 2.1720 -1.3519 0.9660
13.0262 7.0942 -2.3493 0.9417
12.0265 8.5748 -2.3394 0.9419
9.4464 8.6270 -2.0262 0.9495
7.3248 8.5217 -1.7798 0.9555
3.1428 8.6657 -1.4600 0.9634
0.9280 8.6793 -1.3825 0.9653
-1.1596 8.5448 -1.3658 0.9657
-2.2177 8.4876 -1.3894 0.9651
-4.7263 8.7141 -1.5701 0.9606
-6.1969 8.7231 -1.6947 0.9576
-7.9487 8.7339 -1.8704 0.9533
-12.3166 8.2651 -2.3493 0.9417
-13.2222 6.7219 -2.3493 0.9417
-14.4457 3.3662 -2.3493 0.9417
-15.7925 -0.1968 -2.5015 0.9380
-15.2875 -3.9664 -2.5015 0.9380
-12.8912 -9.1246 -2.5015 0.9380
-11.6988 -10.6103 -2.5015 0.9380
-3.4346 -14.6255 -2.3795 0.9410
-1.6460 -14.9092 -2.3757 0.9411
2.0699 -15.6575 -2.5015 0.9380
3.9401 -15.2943 -2.5015 0.9380
5.7529 -14.7087 -2.5015 0.9380
7.4821 -13.9090 -2.5015 0.9380
9.1024 -12.9069 -2.5015 0.9380
10.5902 -11.7170 -2.5015 0.9380
11.9239 -10.3567 -2.5015 0.9380
13.0842 -8.8456 -2.5015 0.9380
14.0541 -7.2059 -2.5015 0.9380
15.3692 -3.6372 -2.5015 0.9380
15.6953 -1.7602 -2.5015 0.9380
15.7931 0.1424 -2.5015 0.9380
15.6610 2.0430 -2.5015 0.9380
13.0748 7.0044 -2.3493 0.9417
12.1363 8.5277 -2.3493 0.9417
9.5771 8.6262 -2.0414 0.9491
7.4472 8.5444 -1.7952 0.9551
4.2135 8.1832 -1.4578 0.9634
3.2103 8.6653 -1.4636 0.9633
0.9885 8.6790 -1.3835 0.9652
-1.1001 8.5479 -1.3650 0.9657
-2.1563 8.4910 -1.3875 0.9651
-10.0004 8.7465 -2.1042 0.9476
-12.2594 8.3497 -2.3493 0.9417
-13.9000 5.1768 -2.3493 0.9417
-15.7934 -0.0881 -2.5015 0.9380
-14.7382 -5.6769 -2.5015 0.9380
-13.9474 -7.4102 -2.5015 0.9380
-11.7715 -10.5296 -2.5015 0.9380
-10.4181 -11.8703 -2.5015 0.9380
-8.9130 -13.0383 -2.5015 0.9380
-1.7470 -14.8835 -2.3735 0.9411
1.9621 -15.6713 -2.5015 0.9380
3.8347 -15.3211 -2.5015 0.9380
7.3862 -13.9601 -2.5015 0.9380
9.0133 -12.9692 -2.5015 0.9380
10.5093 -11.7896 -2.5015 0.9380
11.8524 -10.4385 -2.5015 0.9380
14.7815 -5.5631 -2.5015 0.9380
15.6747 1.9351 -2.5015 0.9380
5.7782 8.3905 -1.6136 0.9596
2.1312 8.6719 -1.4144 0.9645
1.0490 8.6786 -1.3846 0.9652
-0.0036 8.6733 -1.3737 0.9655
-2.0950 8.4945 -1.3857 0.9652
-4.5717 8.7131 -1.5585 0.9609
-6.0172 8.7220 -1.6783 0.9580
-9.8493 11.1261 -2.3535 0.9416
-9.8616 8.7456 -2.0877 0.9480
-13.8641 5.2724 -2.3493 0.9417
-15.6663 1.9209 -2.4999 0.9381
-15.7937 0.0207 -2.5015 0.9380
-15.6813 -1.8811 -2.5015 0.9380
-15.3407 -3.7556 -2.5015 0.9380
-9.0026 -12.9767 -2.5015 0.9380
-7.3746 -13.9662 -2.5015 0.9380
-5.6195 -14.7007 -2.4927 0.9383
-3.6456 -14.6167 -2.3860 0.9408
-1.8477 -14.8578 -2.3714 0.9412
-0.0467 -15.4399 -2.4454 0.9394
3.7292 -15.3471 -2.5015 0.9380
5.5499 -14.7864 -2.5015 0.9380
8.9238 -13.0310 -2.5015 0.9380
13.9535 -7.3986 -2.5015 0.9380
14.7428 -5.6647 -2.5015 0.9380
15.7935 -0.0750 -2.5015 0.9380
8.7591 2.1124 -1.4271 0.9642
13.1699 6.8237 -2.3493 0.9417
5.8653 8.3927 -1.6217 0.9594
4.3747 8.2162 -1.4743 0.9630
3.3463 8.6645 -1.4711 0.9631
0.7579 5.9277 -0.9465 0.9761
-3.1208 8.4026 -1.4197 0.9644
-7.6140 8.7213 -1.8337 0.9542
-9.7249 8.7448 -2.0714 0.9484
-12.1433 8.5176 -2.3493 0.9417
-13.0805 6.9935 -2.3493 0.9417
-14.3731 3.6638 -2.3493 0.9417
-15.6426 2.0274 -2.4983 0.9381
-15.7932 0.1293 -2.5015 0.9380
-15.6938 -1.7732 -2.5015 0.9380
-15.3662 -3.6499 -2.5015 0.9380
-14.8149 -5.4735 -2.5015 0.9380
-14.0481 -7.2175 -2.5015 0.9380
-13.0769 -8.8564 -2.5015 0.9380
-10.5805 -11.7258 -2.5015 0.9380
-5.7251 -14.6732 -2.4946 0.9382
-0.1526 -15.3945 -2.4384 0.9396
3.6234 -15.3724 -2.5015 0.9380
5.4480 -14.8243 -2.5015 0.9380
8.8339 -13.0921 -2.5015 0.9380
11.7076 -10.6007 -2.5015 0.9380
13.9023 -7.4945 -2.5015 0.9380
15.2908 -3.9537 -2.5015 0.9380
8.9586 2.0954 -1.4572 0.9634
7.6465 2.7952 -1.2895 0.9676
3.1443 5.8086 -1.0461 0.9736
3.4149 8.6640 -1.4750 0.9630
2.2580 8.6711 -1.4192 0.9644
0.1994 14.9308 -2.3650 0.9413
-1.9730 8.5012 -1.3823 0.9653
-3.0612 8.4191 -1.4189 0.9644
-4.4193 8.7122 -1.5473 0.9612
-5.8409 8.7209 -1.6624 0.9584
-9.5904 8.7440 -2.0555 0.9488
-13.0321 7.0834 -2.3493 0.9417
-15.7057 -1.6651 -2.5015 0.9380
-14.8522 -5.3714 -2.5015 0.9380
-14.0974 -7.1206 -2.5015 0.9380
-13.1375 -8.7662 -2.5015 0.9380
-11.9864 -10.2843 -2.5015 0.9380
-9.1804 -12.8515 -2.5015 0.9380
-7.5662 -13.8634 -2.5015 0.9380
-5.8280 -14.6387 -2.4955 0.9382
-2.0500 -14.8160 -2.3690 0.9412
-0.2578 -15.3493 -2.4314 0.9397
1.6381 -15.7085 -2.5015 0.9380
3.5175 -15.3970 -2.5015 0.9380
5.3458 -14.8615 -2.5015 0.9380
12.8357 -9.2025 -2.5015 0.9380
15.7910 -0.2924 -2.5015 0.9380
7.9294 8.6073 -1.8536 0.9537
6.0423 8.3973 -1.6385 0.9590
3.4838 8.6636 -1.4790 0.9629
0.8332 5.8725 -0.9394 0.9763
-1.9122 8.5046 -1.3806 0.9653
-4.3440 8.7117 -1.5418 0.9613
-12.0249 8.6840 -2.3493 0.9417
-12.9830 7.1729 -2.3493 0.9417
-15.5933 2.2397 -2.4951 0.9382
-15.7899 0.3468 -2.5015 0.9380
-15.4150 -3.4380 -2.5015 0.9380
-13.1976 -8.6756 -2.5015 0.9380
-10.7409 -11.5790 -2.5015 0.9380
-7.6614 -13.8110 -2.5015 0.9380
-3.9643 -14.6034 -2.3967 0.9406
-0.3625 -15.3072 -2.4251 0.9399
1.5299 -15.7194 -2.5015 0.9380
3.4115 -15.4208 -2.5015 0.9380
5.2434 -14.8979 -2.5015 0.9380
6.9991 -14.1582 -2.5015 0.9380
8.6528 -13.2125 -2.5015 0.9380
10.1807 -12.0745 -2.5015 0.9380
14.6227 -5.9679 -2.5015 0.9380
15.2349 -4.1638 -2.5015 0.9380
15.7886 -0.4011 -2.5015 0.9380
12.4225 8.1050 -2.3493 0.9417
3.1982 5.7188 -1.0378 0.9738
3.5531 8.6632 -1.4830 0.9628
2.3857 8.6704 -1.4243 0.9642
-0.8036 8.5630 -1.3622 0.9658
-4.2691 8.7113 -1.5365 0.9615
-7.3095 8.7300 -1.8034 0.9549
-13.7137 5.6521 -2.3493 0.9417
-15.7871 0.4554 -2.5015 0.9380
-15.7271 -1.4487 -2.5015 0.9380
-15.4383 -3.3318 -2.5015 0.9380
-14.1941 -6.9258 -2.5015 0.9380
-12.1269 -10.1183 -2.5015 0.9380
-10.8203 -11.5048 -2.5015 0.9380
-9.3564 -12.7239 -2.5015 0.9380
-2.2527 -14.7792 -2.3678 0.9413
1.4214 -15.7263 -2.5010 0.9381
10.0974 -12.1443 -2.5015 0.9380
11.4862 -10.8401 -2.5015 0.9380
12.7078 -9.3783 -2.5015 0.9380
15.2059 -4.2686 -2.5015 0.9380
15.6092 -2.4067 -2.5015 0.9380
15.7320 1.3946 -2.5015 0.9380
9.7204 2.0628 -1.5738 0.9606
13.3528 6.4585 -2.3493 0.9417
12.4780 8.0193 -2.3493 0.9417
6.2229 8.4019 -1.6560 0.9585
0.2954 8.6832 -1.3761 0.9654
-0.7445 8.5659 -1.3618 0.9658
-2.8762 8.4497 -1.4137 0.9645
-5.5825 8.7193 -1.6398 0.9589
-7.2073 8.7293 -1.7929 0.9552
-9.1989 8.7416 -2.0099 0.9499
-11.7302 8.7193 -2.3149 0.9425
-12.8831 7.3510 -2.3493 0.9417
-13.6744 5.7463 -2.3493 0.9417
-15.3001 2.4130 -2.4533 0.9392
-15.7836 0.5641 -2.5015 0.9380
-15.4608 -3.2255 -2.5015 0.9380
-14.9600 -5.0636 -2.5015 0.9380
-14.2414 -6.8280 -2.5015 0.9380
-7.8508 -13.7042 -2.5015 0.9380
-6.1357 -14.5311 -2.4983 0.9381
-4.1801 -14.6005 -2.4054 0.9403
-2.3540 -14.7607 -2.3674 0.9413
1.3125 -15.7294 -2.5000 0.9381
3.1989 -15.4663 -2.5015 0.9380
6.8035 -14.2532 -2.5015 0.9380
8.4702 -13.3303 -2.5015 0.9380
10.0135 -12.2135 -2.5015 0.9380
11.4113 -10.9190 -2.5015 0.9380
12.6430 -9.4655 -2.5015 0.9380
13.6907 -7.8744 -2.5015 0.9380
14.5392 -6.1687 -2.5015 0.9380
15.1762 -4.3732 -2.5015 0.9380
15.7412 1.2863 -2.5015 0.9380
10.0105 2.0525 -1.6185 0.9595
6.3146 8.4042 -1.6650 0.9583
4.7936 8.3012 -1.5183 0.9619
-2.8127 8.4534 -1.4111 0.9646
-5.4979 8.7188 -1.6326 0.9591
-9.0722 8.7408 -1.9953 0.9503
-11.5771 8.7299 -2.2965 0.9430
-12.8321 7.4395 -2.3493 0.9417
-13.6346 5.8403 -2.3493 0.9417
-15.0742 2.4838 -2.4197 0.9400
-15.7794 0.6727 -2.5015 0.9380
-15.7456 -1.2321 -2.5015 0.9380
-13.3739 -8.4012 -2.5015 0.9380
-10.9777 -11.3548 -2.5015 0.9380
-9.5306 -12.5940 -2.5015 0.9380
-6.2380 -14.4940 -2.4992 0.9381
-4.2900 -14.6036 -2.4107 0.9402
-0.6741 -15.1967 -2.4093 0.9403
3.0924 -15.4880 -2.5015 0.9380
4.9346 -15.0030 -2.5015 0.9380
6.7052 -14.2997 -2.5015 0.9380
9.9292 -12.2821 -2.5015 0.9380
11.3359 -10.9972 -2.5015 0.9380
12.5775 -9.5523 -2.5015 0.9380
13.6362 -7.9684 -2.5015 0.9380
14.4964 -6.2686 -2.5015 0.9380
15.7770 -0.7270 -2.5015 0.9380
15.7497 1.1779 -2.5015 0.9380
13.4405 6.2741 -2.3493 0.9417
12.5872 7.8468 -2.3493 0.9417
8.4044 8.6334 -1.9083 0.9524
4.8804 8.3187 -1.5276 0.9617
2.5792 8.6692 -1.4325 0.9640
1.4756 8.6760 -1.3939 0.9650
0.4151 8.6825 -1.3767 0.9654
-0.6262 8.5718 -1.3613 0.9658
-4.0476 8.7099 -1.5212 0.9619
-11.7813 9.0118 -2.3493 0.9417
-12.7806 7.5276 -2.3493 0.9417
-13.5940 5.9340 -2.3493 0.9417
-14.8542 2.5527 -2.3872 0.9408
-15.7537 -1.1237 -2.5015 0.9380
-13.4314 -8.3090 -2.5015 0.9380
-12.3332 -9.8657 -2.5015 0.9380
-11.0556 -11.2789 -2.5015 0.9380
-9.6171 -12.5280 -2.5015 0.9380
-8.0387 -13.5948 -2.5015 0.9380
-4.4003 -14.6066 -2.4162 0.9401
4.8313 -15.0366 -2.5015 0.9380
9.8445 -12.3502 -2.5015 0.9380
15.1145 -4.5817 -2.5015 0.9380
15.5562 -2.7285 -2.5015 0.9380
15.7716 -0.8356 -2.5015 0.9380
15.7574 1.0694 -2.5015 0.9380
10.6701 2.0351 -1.7204 0.9570
-11.9441 -4.7905 -2.5015 0.9489
-11.2804 -6.1938 -2.5015 0.9489
-10.4526 -7.5070 -2.5015 0.9489
-9.4726 -8.7109 -2.5015 0.9489
1.7744 -12.7461 -2.5015 0.9489
8.6946 -9.4876 -2.5015 0.9489
10.7106 -7.1340 -2.5015 0.9489
11.4916 -5.7925 -2.5015 0.9489
12.1055 -4.3667 -2.5015 0.9489
12.5432 -2.8774 -2.5015 0.9489
12.7984 -1.3462 -2.5015 0.9489
12.8674 0.2046 -2.5015 0.9489
12.7491 1.7524 -2.5015 0.9489
7.8656 2.0697 -1.5810 0.9674
10.6140 5.7805 -2.3493 0.9519
9.8408 7.0164 -2.3493 0.9519
8.9244 8.1502 -2.3493 0.9519
7.3248 8.5217 -2.1843 0.9552
5.5092 8.2404 -1.9268 0.9604
5.4592 10.7842 -2.3495 0.9519
0.9280 8.6793 -1.6967 0.9651
-0.1227 8.6513 -1.6818 0.9654
-2.1990 8.4158 -1.6908 0.9652
-4.7263 8.7141 -1.9269 0.9604
-6.1969 8.7231 -2.0799 0.9573
-9.1519 7.8939 -2.3493 0.9519
-10.0358 6.7345 -2.3493 0.9519
-10.7737 5.4772 -2.3493 0.9519
-11.3547 4.1401 -2.3493 0.9519
-12.5139 2.9160 -2.4976 0.9490
-11.9768 -4.7082 -2.5015 0.9489
-11.3228 -6.1160 -2.5015 0.9489
-8.4221 -9.7304 -2.5015 0.9489
-7.1892 -10.6736 -2.5015 0.9489
-5.8517 -11.4616 -2.5015 0.9489
-1.4122 -12.7913 -2.5015 0.9489
3.2105 -12.4621 -2.5015 0.9489
8.6291 -9.5472 -2.5015 0.9489
12.0751 -4.4499 -2.5015 0.9489
12.8685 0.1161 -2.5015 0.9489
12.7609 1.6646 -2.5015 0.9489
8.9803 8.0886 -2.3493 0.9519
7.9410 9.1110 -2.3493 0.9519
5.6033 8.2576 -1.9398 0.9602
-1.0910 8.4768 -1.6613 0.9658
-3.1777 8.2075 -1.7108 0.9648
-4.6487 8.7136 -1.9197 0.9606
-6.1066 8.7226 -2.0697 0.9575
-7.8258 8.7186 -2.2773 0.9534
-9.0974 7.9567 -2.3493 0.9519
-12.4871 3.0005 -2.4963 0.9490
-12.4785 -3.1461 -2.5015 0.9489
-12.0089 -4.6257 -2.5015 0.9489
-11.3646 -6.0379 -2.5015 0.9489
-9.5916 -8.5797 -2.5015 0.9489
-7.2625 -10.6239 -2.5015 0.9489
-5.9305 -11.4210 -2.5015 0.9489
-1.5002 -12.7812 -2.5015 0.9489
0.0496 -12.8689 -2.5015 0.9489
1.5987 -12.7693 -2.5015 0.9489
3.1246 -12.4839 -2.5015 0.9489
9.6575 -8.5055 -2.5015 0.9489
11.4108 -5.9501 -2.5015 0.9489
12.0442 -4.5329 -2.5015 0.9489
12.8690 0.0275 -2.5015 0.9489
7.2778 2.7746 -1.5140 0.9688
10.6926 5.6338 -2.3493 0.9519
9.0357 8.0266 -2.3493 0.9519
7.6276 8.6307 -2.2389 0.9541
5.6987 8.2750 -1.9530 0.9599
5.6065 10.7067 -2.3492 0.9519
3.2781 8.6649 -1.8008 0.9630
-1.0324 8.4825 -1.6610 0.9658
-4.5717 8.7131 -1.9126 0.9607
-6.0172 8.7220 -2.0597 0.9577
-8.0110 9.0495 -2.3493 0.9519
-10.6972 5.6249 -2.3493 0.9519
-12.4597 3.0848 -2.4950 0.9490
-12.7733 1.5662 -2.5015 0.9489
-12.8690 0.0168 -2.5015 0.9489
-12.7774 -1.5328 -2.5015 0.9489
-7.3354 -10.5736 -2.5015 0.9489
-4.5950 -12.0207 -2.5015 0.9489
-3.1143 -12.4865 -2.5015 0.9489
-1.5882 -12.7706 -2.5015 0.9489
1.5108 -12.7800 -2.5015 0.9489
4.5222 -12.0483 -2.5015 0.9489
5.9400 -11.4161 -2.5015 0.9489
10.5610 -7.3537 -2.5015 0.9489
11.3696 -6.0285 -2.5015 0.9489
12.0127 -4.6157 -2.5015 0.9489
12.8688 -0.0611 -2.5015 0.9489
12.7826 1.4888 -2.5015 0.9489
8.3201 2.0065 -1.6636 0.9657
7.7238 8.6193 -2.2497 0.9539
3.3463 8.6645 -1.8054 0.9629
2.1945 8.6715 -1.7387 0.9642
-0.9744 8.4933 -1.6618 0.9658
-2.0168 8.4262 -1.6842 0.9653
-3.0605 8.2402 -1.7086 0.9648
-5.9286 8.7215 -2.0499 0.9579
-7.6082 8.7146 -2.2487 0.9540
-10.6583 5.6985 -2.3493 0.9519
-12.4215 3.1663 -2.4917 0.9491
-12.7622 1.6541 -2.5015 0.9489
-11.4466 -5.8809 -2.5015 0.9489
-9.7088 -8.4468 -2.5015 0.9489
-6.0871 -11.3383 -2.5015 0.9489
-3.2002 -12.4647 -2.5015 0.9489
-0.1275 -12.8683 -2.5015 0.9489
2.9524 -12.5257 -2.5015 0.9489
10.5101 -7.4262 -2.5015 0.9489
11.3278 -6.1067 -2.5015 0.9489
12.8681 -0.1497 -2.5015 0.9489
8.6192 2.0160 -1.7206 0.9646
10.0302 6.7428 -2.3493 0.9519
7.8466 8.6360 -2.2681 0.9536
3.1442 5.8084 -1.2839 0.9734
0.7924 5.8755 -1.1524 0.9761
-3.0021 8.2565 -1.7077 0.9648
-5.8409 8.7209 -2.0403 0.9581
-7.5119 8.7248 -2.2379 0.9542
-8.9311 8.1429 -2.3493 0.9519
-11.2365 4.4511 -2.3493 0.9519
-12.2494 3.2124 -2.4616 0.9497
-12.8675 0.1940 -2.5015 0.9489
-12.7973 -1.3567 -2.5015 0.9489
-10.7047 -7.1429 -2.5015 0.9489
-9.7668 -8.3798 -2.5015 0.9489
-0.2161 -12.8672 -2.5015 0.9489
1.3347 -12.7996 -2.5015 0.9489
4.3559 -12.1094 -2.5015 0.9489
5.7822 -11.4968 -2.5015 0.9489
7.1244 -10.7169 -2.5015 0.9489
9.4798 -8.7031 -2.5015 0.9489
10.4588 -7.4983 -2.5015 0.9489
11.9480 -4.7807 -2.5015 0.9489
12.4367 -3.3073 -2.5015 0.9489
12.8019 1.3127 -2.5015 0.9489
8.8730 2.0110 -1.7685 0.9636
7.3062 2.6139 -1.5083 0.9689
9.1995 7.8383 -2.3493 0.9519
7.9294 8.6073 -2.2748 0.9534
5.9791 8.3094 -1.9899 0.9591
3.1634 5.7491 -1.2755 0.9736
0.2451 12.1103 -2.3545 0.9518
-1.8961 8.4331 -1.6801 0.9654
-2.9436 8.2727 -1.7068 0.9649
-4.3440 8.7117 -1.8922 0.9611
-8.8749 8.2041 -2.3493 0.9519
-9.7981 7.0758 -2.3493 0.9519
-10.5788 5.8446 -2.3493 0.9519
-11.2056 4.5284 -2.3493 0.9519
-12.8659 0.2825 -2.5015 0.9489
-12.1317 -4.2933 -2.5015 0.9489
-8.7519 -9.4348 -2.5015 0.9489
-3.3715 -12.4195 -2.5015 0.9489
-1.8515 -12.7351 -2.5015 0.9489
-0.3047 -12.8654 -2.5015 0.9489
2.7797 -12.5652 -2.5015 0.9489
7.0505 -10.7657 -2.5015 0.9489
9.4197 -8.7681 -2.5015 0.9489
11.2427 -6.2620 -2.5015 0.9489
11.9149 -4.8628 -2.5015 0.9489
9.1083 1.9985 -1.8126 0.9627
7.3263 2.5644 -1.5088 0.9689
7.4252 3.6547 -1.6087 0.9668
10.1221 6.6041 -2.3493 0.9519
9.2533 7.7748 -2.3493 0.9519
8.2499 8.8324 -2.3493 0.9519
6.0676 8.3112 -2.0003 0.9589
3.1982 5.7187 -1.2736 0.9737
2.3857 8.6704 -1.7480 0.9640
-2.8853 8.2888 -1.7060 0.9649
-5.6679 8.7199 -2.0216 0.9585
-8.8182 8.2650 -2.3493 0.9519
-11.1741 4.6054 -2.3493 0.9519
-11.9173 3.3012 -2.4037 0.9509
-12.7254 1.9172 -2.5015 0.9489
-12.8636 0.3711 -2.5015 0.9489
-12.8147 -1.1804 -2.5015 0.9489
-12.5794 -2.7148 -2.5015 0.9489
-12.1610 -4.2097 -2.5015 0.9489
-11.5656 -5.6433 -2.5015 0.9489
-8.8166 -9.3743 -2.5015 0.9489
-7.6238 -10.3677 -2.5015 0.9489
-6.3200 -11.2102 -2.5015 0.9489
-3.4568 -12.3960 -2.5015 0.9489
1.1584 -12.8167 -2.5015 0.9489
2.6932 -12.5840 -2.5015 0.9489
6.9762 -10.8140 -2.5015 0.9489
8.2275 -9.8954 -2.5015 0.9489
10.3546 -7.6416 -2.5015 0.9489
12.3900 -3.4782 -2.5015 0.9489
10.1673 6.5343 -2.3493 0.9519
9.3066 7.7109 -2.3493 0.9519
8.3104 8.7754 -2.3493 0.9519
3.6228 8.6628 -1.8252 0.9625
2.4500 8.6700 -1.7513 0.9640
-9.6998 7.2101 -2.3493 0.9519
-12.8608 0.4597 -2.5015 0.9489
-11.6042 -5.5636 -2.5015 0.9489
-9.9377 -8.1763 -2.5015 0.9489
-8.8809 -9.3134 -2.5015 0.9489
-6.3970 -11.1664 -2.5015 0.9489
11.1554 -6.4162 -2.5015 0.9489
11.8468 -5.0263 -2.5015 0.9489
12.3658 -3.5634 -2.5015 0.9489
12.7049 -2.0485 -2.5015 0.9489
12.8591 -0.5039 -2.5015 0.9489
12.8262 1.0481 -2.5015 0.9489
7.3665 2.4651 -1.5099 0.9688
10.2120 6.4642 -2.3493 0.9519
3.6928 8.6623 -1.8304 0.9624
1.4143 8.6763 -1.7088 0.9648
0.3552 8.6829 -1.6892 0.9652
-1.7160 8.4432 -1.6747 0.9655
-4.1210 8.7104 -1.8730 0.9615
-7.1064 8.7287 -2.1879 0.9552
-8.7036 8.3856 -2.3493 0.9519
-11.6017 3.3865 -2.3493 0.9519
-12.6978 2.0922 -2.5015 0.9489
-12.8573 0.5481 -2.5015 0.9489
-11.6422 -5.4836 -2.5015 0.9489
-10.8973 -6.8455 -2.5015 0.9489
-8.9448 -9.2521 -2.5015 0.9489
-7.7657 -10.2618 -2.5015 0.9489
-6.4737 -11.1221 -2.5015 0.9489
-5.0875 -11.8207 -2.5015 0.9489
0.9819 -12.8315 -2.5015 0.9489
2.5197 -12.6199 -2.5015 0.9489
4.0208 -12.2247 -2.5015 0.9489
6.8267 -10.9090 -2.5015 0.9489
8.0905 -10.0077 -2.5015 0.9489
9.2367 -8.9607 -2.5015 0.9489
10.2484 -7.7834 -2.5015 0.9489
11.1110 -6.4928 -2.5015 0.9489
12.6905 -2.1360 -2.5015 0.9489
12.8331 0.9598 -2.5015 0.9489
10.1999 2.0183 -2.0211 0.9585
7.3852 2.4150 -1.5103 0.9688
7.3614 3.4364 -1.5791 0.9674
10.2563 6.3937 -2.3493 0.9519
4.7522 8.1003 -1.8255 0.9625
3.7633 8.6619 -1.8357 0.9622
2.5792 8.6692 -1.7581 0.9638
0.4151 8.6825 -1.6896 0.9652
-0.6252 8.5581 -1.6680 0.9656
-2.7103 8.3369 -1.7040 0.9649
-4.0476 8.7099 -1.8669 0.9616
-7.0065 8.7281 -2.1756 0.9554
-8.6456 8.4453 -2.3493 0.9519
-10.4139 6.1337 -2.3493 0.9519
-11.5783 3.4663 -2.3493 0.9519
-12.6831 2.1796 -2.5015 0.9489
-12.8532 0.6367 -2.5015 0.9489
-12.8364 -0.9156 -2.5015 0.9489
-11.6797 -5.4033 -2.5015 0.9489
-10.9441 -6.7703 -2.5015 0.9489
-10.0493 -8.0387 -2.5015 0.9489
-9.0083 -9.1903 -2.5015 0.9489
-7.8362 -10.2080 -2.5015 0.9489
-5.1687 -11.7854 -2.5015 0.9489
-2.2014 -12.6793 -2.5015 0.9489
10.1945 -7.8538 -2.5015 0.9489
11.0660 -6.5692 -2.5015 0.9489
12.6755 -2.2232 -2.5015 0.9489
12.8510 -0.6808 -2.5015 0.9489
12.8394 0.8714 -2.5015 0.9489
-10.0564 -4.0334 -2.5015 0.9565
-9.4976 -5.2149 -2.5015 0.9565
-7.9755 -7.3342 -2.5015 0.9565
-7.0344 -8.2411 -2.5015 0.9565
-4.8603 -9.6838 -2.5015 0.9565
-2.4044 -10.5649 -2.5015 0.9565
-1.1149 -10.7776 -2.5015 0.9565
0.1909 -10.8334 -2.5015 0.9565
1.4939 -10.7316 -2.5015 0.9565
2.7752 -10.4736 -2.5015 0.9565
6.3054 -8.8114 -2.5015 0.9565
7.3204 -7.9881 -2.5015 0.9565
9.0178 -6.0065 -2.5015 0.9565
10.1923 -3.6766 -2.5015 0.9565
10.5608 -2.4226 -2.5015 0.9565
10.7756 -1.1334 -2.5015 0.9565
10.8337 0.1723 -2.5015 0.9565
10.7342 1.4755 -2.5015 0.9565
7.7350 2.0353 -1.8466 0.9677
8.2855 5.9075 -2.3493 0.9591
5.6556 8.4594 -2.3493 0.9591
4.3793 8.6510 -2.2386 0.9610
2.0052 8.6727 -2.0551 0.9641
-0.1227 8.6513 -1.9975 0.9651
-1.1482 8.4611 -1.9713 0.9656
-2.1711 8.3091 -1.9827 0.9654
-3.7392 9.4639 -2.3493 0.9591
-4.8515 8.9449 -2.3493 0.9591
-5.8932 8.2956 -2.3493 0.9591
-6.8492 7.5257 -2.3493 0.9591
-8.4497 5.6701 -2.3493 0.9591
-9.0709 4.6115 -2.3493 0.9591
-10.8342 -0.1350 -2.5015 0.9565
-10.4878 -2.7211 -2.5015 0.9565
-10.0839 -3.9641 -2.5015 0.9565
-7.0910 -8.1925 -2.5015 0.9565
-3.7141 -10.1321 -2.4914 0.9567
-2.4771 -10.5481 -2.5015 0.9565
-1.1890 -10.7697 -2.5015 0.9565
2.7031 -10.4925 -2.5015 0.9565
3.9467 -10.0907 -2.5015 0.9565
6.2446 -8.8546 -2.5015 0.9565
8.9763 -6.0684 -2.5015 0.9565
10.7676 -1.2075 -2.5015 0.9565
7.2443 2.8191 -1.7946 0.9686
8.3260 5.8503 -2.3493 0.9591
4.4510 8.6444 -2.2447 0.9609
3.2103 8.6653 -2.1334 0.9628
2.0681 8.6723 -2.0583 0.9641
-0.0632 8.6623 -1.9999 0.9651
-1.0903 8.4718 -1.9720 0.9655
-3.1165 8.0496 -1.9928 0.9652
-5.8360 8.3360 -2.3493 0.9591
-7.6596 6.6992 -2.3493 0.9591
-9.0390 4.6738 -2.3493 0.9591
-9.9205 3.6947 -2.4440 0.9575
-10.5352 2.5315 -2.5015 0.9565
-10.7634 1.2446 -2.5015 0.9565
-10.8349 -0.0604 -2.5015 0.9565
-10.5063 -2.6488 -2.5015 0.9565
-10.1110 -3.8946 -2.5015 0.9565
-9.5685 -5.0837 -2.5015 0.9565
-8.8867 -6.1988 -2.5015 0.9565
-8.0757 -7.2237 -2.5015 0.9565
-7.1472 -8.1435 -2.5015 0.9565
-6.1147 -8.9448 -2.5015 0.9565
-4.9932 -9.6160 -2.5015 0.9565
-2.5496 -10.5308 -2.5015 0.9565
-1.2631 -10.7612 -2.5015 0.9565
1.3461 -10.7511 -2.5015 0.9565
2.6308 -10.5108 -2.5015 0.9565
5.0672 -9.5772 -2.5015 0.9565
6.1835 -8.8974 -2.5015 0.9565
7.2098 -8.0881 -2.5015 0.9565
8.9343 -6.1301 -2.5015 0.9565
10.5264 -2.5678 -2.5015 0.9565
10.7590 -1.2816 -2.5015 0.9565
7.9947 1.9864 -1.9018 0.9667
9.0027 4.7434 -2.3493 0.9591
8.3660 5.7929 -2.3493 0.9591
4.5242 8.6399 -2.2516 0.9608
3.2781 8.6649 -2.1388 0.9627
2.1312 8.6719 -2.0616 0.9640
-0.0036 8.6733 -2.0024 0.9650
-1.0324 8.4825 -1.9728 0.9655
-2.0568 8.3395 -1.9830 0.9654
-3.0591 8.0658 -1.9916 0.9652
-5.7784 8.3760 -2.3493 0.9591
-6.7449 7.6193 -2.3493 0.9591
-7.6133 6.7517 -2.3493 0.9591
-9.0066 4.7359 -2.3493 0.9591
-9.7908 3.7234 -2.4183 0.9579
-10.5175 2.6040 -2.5015 0.9565
-10.7546 1.3187 -2.5015 0.9565
-10.7580 -1.2905 -2.5015 0.9565
-10.1375 -3.8249 -2.5015 0.9565
-9.6032 -5.0177 -2.5015 0.9565
-6.1761 -8.9025 -2.5015 0.9565
-5.0593 -9.5814 -2.5015 0.9565
-0.0328 -10.8350 -2.5015 0.9565
1.2720 -10.7602 -2.5015 0.9565
2.5584 -10.5287 -2.5015 0.9565
3.8075 -10.1441 -2.5015 0.9565
5.0012 -9.6118 -2.5015 0.9565
7.1539 -8.1376 -2.5015 0.9565
10.1142 -3.8862 -2.5015 0.9565
10.7499 -1.3557 -2.5015 0.9565
10.8350 -0.0514 -2.5015 0.9565
10.7623 1.2535 -2.5015 0.9565
7.2510 2.7073 -1.7869 0.9687
8.4057 5.7352 -2.3493 0.9591
5.8291 8.3408 -2.3493 0.9591
4.6058 8.6504 -2.2625 0.9606
3.3463 8.6645 -2.1444 0.9626
2.1945 8.6715 -2.0651 0.9639
0.0559 8.6444 -1.9958 0.9651
-0.9744 8.4933 -1.9737 0.9655
-1.9997 8.3546 -1.9833 0.9653
-6.6923 7.6655 -2.3493 0.9591
-7.5666 6.8040 -2.3493 0.9591
-8.9738 4.7978 -2.3493 0.9591
-9.6638 3.7514 -2.3933 0.9583
-10.4994 2.6763 -2.5015 0.9565
-10.8347 0.0887 -2.5015 0.9565
