ply
format ascii 1.0
element vertex 1564
property float32 x
property float32 y
property float32 z
property float32 I
end_header
28.0209 -5.6920 -2.5016 0.8915
25.7942 7.4683 -2.3494 0.8978
23.3656 13.4697 -2.3596 0.8974
9.0060 8.6297 -1.0913 0.9512
5.4891 8.6469 -0.8961 0.9597
4.0931 8.5814 -0.8318 0.9625
2.8725 8.5391 -0.7882 0.9645
-2.4832 8.6913 -0.7908 0.9644
-4.9100 8.5873 -0.8654 0.9611
-8.3120 8.7361 -1.0550 0.9527
-10.6083 8.7502 -1.2031 0.9463
-24.0633 8.1895 -2.2239 0.9030
-27.5207 -7.7577 -2.5016 0.8915
-26.3879 -11.0113 -2.5016 0.8915
-20.7220 -19.5770 -2.4941 0.8918
-17.1604 -20.6552 -2.3494 0.8978
-12.5549 -19.4721 -2.0270 0.9112
-9.2551 -19.0560 -1.8534 0.9185
-1.9786 -21.8145 -1.9164 0.9158
7.6604 -27.5480 -2.5016 0.8915
10.9179 -26.4267 -2.5016 0.8915
19.5625 -20.8538 -2.5016 0.8915
21.9285 -18.3498 -2.5016 0.8915
23.9762 -15.5793 -2.5016 0.8915
27.0028 -9.4034 -2.5016 0.8915
28.5831 0.7597 -2.5016 0.8915
28.2663 4.1891 -2.5000 0.8916
24.8550 10.1658 -2.3494 0.8978
3.0097 8.5453 -0.7926 0.9643
1.8854 8.5078 -0.7624 0.9656
0.8492 8.6798 -0.7630 0.9656
-0.2001 8.6863 -0.7602 0.9657
-1.2569 8.6928 -0.7684 0.9653
-1.5988 5.9111 -0.5357 0.9757
-3.4996 8.6436 -0.8158 0.9632
-6.2752 8.6824 -0.9372 0.9579
-8.0785 8.7347 -1.0409 0.9534
-22.9881 8.1881 -2.1350 0.9067
-26.1979 5.9029 -2.3495 0.8978
-21.5518 2.1855 -1.8952 0.9167
-26.8484 -0.5237 -2.3494 0.8978
-26.5410 -10.6371 -2.5016 0.8915
-21.0516 -19.3323 -2.5006 0.8916
-12.9842 -19.5262 -2.0515 0.9101
-7.0157 -19.4788 -1.8113 0.9202
-4.6694 -20.3874 -1.8299 0.9194
10.5432 -26.5784 -2.5016 0.8915
13.6632 -25.1175 -2.5016 0.8915
19.2657 -21.1283 -2.5016 0.8915
21.6669 -18.6580 -2.5016 0.8915
23.7535 -15.9167 -2.5016 0.8915
25.4954 -12.9444 -2.5016 0.8915
26.8671 -9.7842 -2.5016 0.8915
27.8488 -6.4819 -2.5016 0.8915
28.4262 -3.0856 -2.5016 0.8915
28.5910 0.3555 -2.5016 0.8915
12.1521 8.5882 -1.3019 0.9420
12.5043 11.3212 -1.4758 0.9345
7.4926 8.6390 -1.0005 0.9551
5.8400 8.6491 -0.9130 0.9590
4.4026 8.5959 -0.8449 0.9620
3.1485 8.5516 -0.7973 0.9641
2.0117 8.5067 -0.7648 0.9655
0.9732 8.6791 -0.7641 0.9655
-0.0773 8.6855 -0.7599 0.9657
-1.1316 8.6920 -0.7669 0.9654
-1.5081 5.9059 -0.5333 0.9758
-3.3608 8.6501 -0.8119 0.9634
-12.8815 8.7642 -1.3631 0.9394
-16.4787 8.5136 -1.6227 0.9282
-22.2102 8.2667 -2.0734 0.9092
-26.1238 6.2754 -2.3506 0.8977
-28.3668 -3.5910 -2.5016 0.8915
-27.7290 -6.9765 -2.5016 0.8915
-26.6887 -10.2608 -2.5016 0.8915
-25.2610 -13.3961 -2.5016 0.8915
-23.4666 -16.3369 -2.5016 0.8915
-21.3314 -19.0405 -2.5016 0.8915
-17.7375 -20.1617 -2.3494 0.8978
-13.4242 -19.5817 -2.0771 0.9091
-9.9780 -19.1471 -1.8890 0.9170
-7.2989 -19.4001 -1.8134 0.9201
0.0491 -26.8535 -2.3494 0.8978
3.4873 -28.3515 -2.4991 0.8916
10.1664 -26.7248 -2.5016 0.8915
18.9651 -21.3986 -2.5016 0.8915
21.4009 -18.9624 -2.5016 0.8915
25.3098 -13.3036 -2.5016 0.8915
26.7261 -10.1631 -2.5016 0.8915
28.3798 -3.4872 -2.5016 0.8915
28.5932 -0.0487 -2.5016 0.8915
28.3915 3.3904 -2.5016 0.8915
26.0876 6.3678 -2.3494 0.8978
25.1325 9.4591 -2.3494 0.8978
9.8011 8.6248 -1.1422 0.9489
6.0190 8.6480 -0.9218 0.9586
4.5610 8.6034 -0.8519 0.9617
3.2890 8.5579 -0.8021 0.9639
2.1389 8.5057 -0.7673 0.9654
1.0975 8.6783 -0.7653 0.9655
-2.0904 8.6973 -0.7826 0.9647
-3.2232 8.6566 -0.8081 0.9636
-5.8132 8.5419 -0.9040 0.9594
-9.7299 8.7448 -1.1445 0.9488
-15.9842 8.5465 -1.5858 0.9298
-21.1502 8.2144 -1.9851 0.9129
-26.0442 6.6472 -2.3516 0.8977
-23.0224 2.9942 -2.0312 0.9110
-26.8525 0.2356 -2.3494 0.8978
-28.4148 -3.1896 -2.5016 0.8915
-27.8249 -6.5838 -2.5016 0.8915
-26.8311 -9.8824 -2.5016 0.8915
-23.6952 -16.0035 -2.5016 0.8915
-21.5985 -18.7370 -2.5016 0.8915
-18.0209 -19.9088 -2.3494 0.8978
-10.3501 -19.1940 -1.9078 0.9162
-2.8536 -21.3504 -1.8845 0.9171
6.4854 -27.8480 -2.5016 0.8915
15.9197 -23.7516 -2.5016 0.8915
18.6606 -21.6646 -2.5016 0.8915
21.1307 -19.2631 -2.5016 0.8915
23.2940 -16.5819 -2.5016 0.8915
25.1192 -13.6601 -2.5016 0.8915
26.5797 -10.5400 -2.5016 0.8915
27.6544 -7.2668 -2.5016 0.8915
28.3276 -3.8882 -2.5016 0.8915
28.5896 -0.4530 -2.5016 0.8915
28.4366 2.9887 -2.5016 0.8915
26.1751 5.9984 -2.3494 0.8978
13.2492 8.8127 -1.3922 0.9381
10.0831 8.6231 -1.1608 0.9481
4.7222 8.6110 -0.8592 0.9613
3.4312 8.5643 -0.8072 0.9636
-0.8823 8.6905 -0.7642 0.9655
-4.3003 8.6177 -0.8426 0.9621
-7.4132 8.7306 -1.0020 0.9551
-15.5115 8.5780 -1.5508 0.9313
-25.9602 7.0182 -2.3528 0.8976
-23.1531 3.3449 -2.0467 0.9103
-26.8465 0.6152 -2.3494 0.8978
-28.4570 -2.7876 -2.5016 0.8915
-27.9152 -6.1898 -2.5016 0.8915
-26.9682 -9.5021 -2.5016 0.8915
-10.7298 -19.2419 -1.9275 0.9153
-5.4848 -20.0072 -1.8150 0.9201
-3.1390 -21.1990 -1.8749 0.9176
12.5858 -25.6743 -2.5016 0.8915
15.5823 -23.9742 -2.5016 0.8915
20.8562 -19.5599 -2.5016 0.8915
24.9236 -14.0138 -2.5016 0.8915
26.4281 -10.9147 -2.5016 0.8915
27.5489 -7.6571 -2.5016 0.8915
28.2698 -4.2883 -2.5016 0.8915
28.5804 -0.8572 -2.5016 0.8915
28.4760 2.5864 -2.5016 0.8915
24.1930 11.7538 -2.3532 0.8976
13.3960 8.6397 -1.3946 0.9380
4.8862 8.6187 -0.8668 0.9610
-0.7583 8.6897 -0.7631 0.9656
-5.4772 8.5588 -0.8890 0.9600
-11.7658 8.7573 -1.2832 0.9428
-15.0591 8.6080 -1.5176 0.9327
-25.4184 7.2589 -2.3127 0.8993
-27.0998 -9.1199 -2.5016 0.8915
-25.8063 -12.3129 -2.5016 0.8915
-22.1196 -18.1189 -2.5016 0.8915
-18.5765 -19.3914 -2.3494 0.8978
-8.1217 -19.0895 -1.8150 0.9201
-5.7670 -19.9277 -1.8150 0.9201
5.6954 -28.0202 -2.5016 0.8915
9.0240 -27.1319 -2.5016 0.8915
12.2215 -25.8497 -2.5016 0.8915
15.2417 -24.1922 -2.5016 0.8915
20.5776 -19.8528 -2.5016 0.8915
24.7229 -14.3648 -2.5016 0.8915
26.2711 -11.2872 -2.5016 0.8915
27.4379 -8.0458 -2.5016 0.8915
28.2064 -4.6875 -2.5016 0.8915
26.3342 5.2559 -2.3494 0.8978
25.5109 8.3849 -2.3494 0.8978
10.6757 8.6194 -1.2004 0.9464
5.0531 8.6265 -0.8747 0.9607
3.7208 8.5764 -0.8179 0.9632
2.5322 8.5237 -0.7779 0.9649
0.4141 8.6825 -0.7605 0.9657
-2.8175 8.6756 -0.7980 0.9640
-4.0025 8.6229 -0.8317 0.9625
-8.9318 8.7399 -1.0933 0.9511
-24.5601 7.3909 -2.2439 0.9021
-26.4585 4.5895 -2.3494 0.8978
-28.0734 -1.9505 -2.4620 0.8932
20.1633 -2.9207 -2.5016 0.9212
20.3682 -0.4746 -2.5016 0.9212
20.2775 1.9785 -2.5016 0.9212
12.5692 2.7820 -1.5807 0.9494
17.1542 8.4764 -2.3494 0.9258
13.3181 8.7161 -1.9543 0.9379
10.2354 8.6221 -1.6432 0.9475
4.7835 8.5706 -1.2051 0.9612
2.3285 8.4814 -1.0799 0.9652
0.8502 5.7266 -0.7108 0.9769
-0.8169 8.6901 -1.0717 0.9654
-3.0074 8.6433 -1.1237 0.9638
-4.1988 8.5736 -1.1722 0.9623
-7.3014 8.7299 -1.3974 0.9552
-9.3146 8.7423 -1.5685 0.9498
-15.2192 8.5650 -2.1443 0.9320
-20.2909 -1.8351 -2.5016 0.9212
-19.9230 -4.2621 -2.5016 0.9212
-17.1259 -11.0360 -2.5016 0.9212
-15.6744 -13.0156 -2.5016 0.9212
-13.9953 -14.8062 -2.5016 0.9212
-11.4522 -15.4883 -2.3651 0.9253
-7.3731 -17.6566 -2.3494 0.9258
-5.1961 -18.4152 -2.3494 0.9258
-0.6485 -19.1232 -2.3494 0.9258
4.1917 -19.9379 -2.5016 0.9212
16.3390 -12.1708 -2.5016 0.9212
18.7725 -7.9172 -2.5016 0.9212
19.5885 -5.6020 -2.5016 0.9212
20.3595 -0.7625 -2.5016 0.9212
20.3034 1.6916 -2.5016 0.9212
18.1372 6.0960 -2.3494 0.9258
17.2724 8.2330 -2.3494 0.9258
14.1199 8.9583 -2.0532 0.9348
10.5319 8.6203 -1.6711 0.9466
8.2776 8.6342 -1.4686 0.9529
6.4874 8.6452 -1.3271 0.9574
4.9468 8.5760 -1.2156 0.9609
-1.7641 8.6959 -1.0895 0.9649
-4.0537 8.5823 -1.1654 0.9625
-17.5774 7.5599 -2.3494 0.9258
-20.3149 -1.5481 -2.5016 0.9212
-18.4528 -8.6362 -2.5016 0.9212
-17.2802 -10.7928 -2.5016 0.9212
-15.8568 -12.7926 -2.5016 0.9212
-14.2032 -14.6068 -2.5016 0.9212
-11.8801 -15.6007 -2.4077 0.9240
-7.6220 -17.5506 -2.3494 0.9258
-5.4559 -18.3399 -2.3494 0.9258
-2.7264 -16.0180 -1.9951 0.9366
1.3864 -19.0839 -2.3494 0.9258
3.9094 -19.9952 -2.5016 0.9212
6.2858 -19.3799 -2.5016 0.9212
10.7316 -17.3183 -2.5016 0.9212
18.6587 -8.1818 -2.5016 0.9212
20.0727 -3.4896 -2.5016 0.9212
20.3253 1.4044 -2.5016 0.9212
18.2215 5.8390 -2.3494 0.9258
14.2138 8.7385 -2.0487 0.9350
10.8387 8.6184 -1.7003 0.9457
5.1130 8.5815 -1.2265 0.9605
2.5917 8.4917 -1.0901 0.9649
1.5399 8.6756 -1.0819 0.9651
0.4789 8.6821 -1.0676 0.9656
-0.5695 8.6885 -1.0691 0.9655
-1.6363 8.6951 -1.0864 0.9650
-2.7408 8.6583 -1.1151 0.9641
-8.7989 8.7391 -1.5227 0.9513
-11.2463 8.7542 -1.7499 0.9442
-17.4688 7.8077 -2.3494 0.9258
-18.8278 3.4105 -2.3494 0.9258
-14.4083 -14.4046 -2.5016 0.9212
-5.7147 -18.2609 -2.3494 0.9258
-3.4770 -18.8156 -2.3494 0.9258
8.3087 -18.6026 -2.5016 0.9212
10.4857 -17.4683 -2.5016 0.9212
12.5104 -16.0804 -2.5016 0.9212
17.3910 -10.6134 -2.5016 0.9212
18.5412 -8.4448 -2.5016 0.9212
19.4223 -6.1536 -2.5016 0.9212
20.0213 -3.7731 -2.5016 0.9212
20.3431 1.1169 -2.5016 0.9212
20.0611 3.5554 -2.5016 0.9212
18.3023 5.5808 -2.3494 0.9258
11.1564 8.6165 -1.7308 0.9448
6.8760 8.6428 -1.3561 0.9565
5.2893 8.5985 -1.2395 0.9601
3.9267 8.5412 -1.1542 0.9628
2.7252 8.4969 -1.0956 0.9647
-0.4462 8.6878 -1.0681 0.9655
-1.5092 8.6943 -1.0835 0.9651
-2.6089 8.6657 -1.1112 0.9642
-6.6904 8.7262 -1.3501 0.9567
-8.5520 8.7376 -1.5012 0.9519
-10.9216 8.7521 -1.7185 0.9452
-14.0954 8.7395 -2.0364 0.9353
-18.1992 5.9080 -2.3494 0.9258
-18.7777 3.6764 -2.3494 0.9258
-20.3505 -0.9731 -2.5016 0.9212
-17.5785 -10.2999 -2.5016 0.9212
-12.7608 -15.8091 -2.4946 0.9214
-10.1403 -16.2263 -2.3494 0.9258
-5.9723 -18.1783 -2.3494 0.9258
-3.7427 -18.7646 -2.3494 0.9258
-1.4588 -19.0785 -2.3494 0.9258
3.3425 -20.0977 -2.5016 0.9212
12.2818 -16.2557 -2.5016 0.9212
18.4200 -8.7061 -2.5016 0.9212
19.3333 -6.4276 -2.5016 0.9212
19.9660 -4.0558 -2.5016 0.9212
20.3089 -1.6251 -2.5016 0.9212
18.3793 5.3214 -2.3494 0.9258
16.5770 9.5563 -2.3494 0.9258
11.4859 8.6144 -1.7629 0.9438
7.0768 8.6415 -1.3714 0.9560
5.4809 8.6341 -1.2557 0.9596
4.0764 8.5465 -1.1626 0.9626
2.8600 8.5021 -1.1014 0.9645
1.7933 8.6708 -1.0872 0.9649
-0.3231 8.6870 -1.0674 0.9656
-2.4779 8.6729 -1.1075 0.9643
-3.6275 8.6075 -1.1469 0.9631
-4.8785 8.5322 -1.2068 0.9612
-6.4957 8.7250 -1.3356 0.9571
-18.1139 6.1647 -2.3494 0.9258
-19.8474 1.7294 -2.4462 0.9228
-20.3622 -0.6853 -2.5016 0.9212
-19.6095 -5.5277 -2.5016 0.9212
-18.8024 -7.8459 -2.5016 0.9212
-14.8098 -13.9915 -2.5016 0.9212
-10.3687 -16.0813 -2.3494 0.9258
-8.3594 -17.2116 -2.3494 0.9258
0.5760 -19.1255 -2.3494 0.9258
3.0580 -20.1430 -2.5016 0.9212
5.4583 -19.6290 -2.5016 0.9212
9.9876 -17.7578 -2.5016 0.9212
13.9390 -14.8591 -2.5016 0.9212
17.0840 -11.1008 -2.5016 0.9212
18.2950 -8.9656 -2.5016 0.9212
19.2405 -6.7003 -2.5016 0.9212
19.9067 -4.3377 -2.5016 0.9212
20.2839 -1.9120 -2.5016 0.9212
20.3666 0.5413 -2.5016 0.9212
20.1536 2.9868 -2.5016 0.9212
18.4527 5.0611 -2.3494 0.9258
11.8278 8.6123 -1.7965 0.9427
9.2631 8.6281 -1.5543 0.9503
10.5721 16.1451 -2.3696 0.9252
4.2284 8.5517 -1.1714 0.9623
2.9963 8.5072 -1.1074 0.9643
0.8492 8.6798 -1.0708 0.9655
-0.2001 8.6863 -1.0668 0.9656
-1.2569 8.6928 -1.0784 0.9652
-1.5980 5.9080 -0.7515 0.9756
-3.4883 8.6156 -1.1413 0.9632
-6.0447 8.3635 -1.2670 0.9593
-18.6662 4.2059 -2.3494 0.9258
-20.1743 -2.8443 -2.5016 0.9212
-16.5546 -11.8759 -2.5016 0.9212
-10.5950 -15.9331 -2.3494 0.9258
-8.6019 -17.0917 -2.3494 0.9258
-4.2718 -18.6513 -2.3494 0.9258
2.7701 -20.1636 -2.4990 0.9213
9.7355 -17.8972 -2.5016 0.9212
11.8173 -16.5964 -2.5016 0.9212
13.7275 -15.0547 -2.5016 0.9212
18.1664 -9.2234 -2.5016 0.9212
19.1438 -6.9717 -2.5016 0.9212
20.2548 -2.1986 -2.5016 0.9212
20.3722 0.2533 -2.5016 0.9212
20.1939 2.7016 -2.5016 0.9212
17.8108 6.9925 -2.3494 0.9258
16.8405 9.0837 -2.3494 0.9258
12.1521 8.5882 -1.8271 0.9418
3.1341 8.5124 -1.1138 0.9641
2.0026 8.4683 -1.0685 0.9655
0.9732 8.6791 -1.0723 0.9654
-1.1316 8.6920 -1.0762 0.9653
-1.5078 5.9046 -0.7482 0.9757
-5.8969 8.4069 -1.2609 0.9595
-7.8510 8.7333 -1.4419 0.9538
-9.9924 8.7286 -1.6291 0.9479
-12.8815 8.7642 -1.9130 0.9391
-17.9324 6.6744 -2.3494 0.9258
-18.6049 4.4693 -2.3494 0.9258
-20.3735 -0.1093 -2.5016 0.9212
-20.2124 -2.5588 -2.5016 0.9212
-17.9994 -9.5452 -2.5016 0.9212
-15.1995 -13.5671 -2.5016 0.9212
-10.8192 -15.7817 -2.3494 0.9258
-8.8426 -16.9684 -2.3494 0.9258
0.0350 -19.1342 -2.3494 0.9258
4.9012 -19.7755 -2.5016 0.9212
9.4815 -18.0330 -2.5016 0.9212
11.5815 -16.7618 -2.5016 0.9212
13.5133 -15.2473 -2.5016 0.9212
15.2490 -13.5114 -2.5016 0.9212
16.7633 -11.5794 -2.5016 0.9212
19.0434 -7.2416 -2.5016 0.9212
19.7761 -4.8988 -2.5016 0.9212
20.2300 2.4158 -2.5016 0.9212
18.6913 4.5624 -2.3624 0.9254
17.9078 6.7400 -2.3494 0.9258
13.1186 8.9958 -1.9531 0.9379
7.7082 8.6377 -1.4215 0.9544
4.5393 8.5624 -1.1899 0.9617
0.0455 8.6847 -1.0664 0.9656
-1.0067 8.6912 -1.0743 0.9654
-2.0904 8.6973 -1.0983 0.9646
-5.7505 8.4498 -1.2550 0.9596
-12.4945 8.7618 -1.8737 0.9404
-16.8730 9.0218 -2.3493 0.9258
-19.1182 -7.0416 -2.5016 0.9212
-18.1326 -9.2898 -2.5016 0.9212
-16.8837 -11.4031 -2.5016 0.9212
-15.3898 -13.3509 -2.5016 0.9212
-13.6724 -15.1048 -2.5016 0.9212
-9.0816 -16.8417 -2.3494 0.9258
-0.2355 -19.1327 -2.3494 0.9258
11.3434 -16.9239 -2.5016 0.9212
13.2964 -15.4368 -2.5016 0.9212
15.0564 -13.7257 -2.5016 0.9212
16.5979 -11.8153 -2.5016 0.9212
17.8984 -9.7333 -2.5016 0.9212
19.7048 -5.1779 -2.5016 0.9212
12.4721 2.8582 -1.5711 0.9497
17.0906 8.6040 -2.3494 0.9258
10.0831 8.6231 -1.6290 0.9479
7.9291 8.6363 -1.4395 0.9538
6.2015 8.6469 -1.3065 0.9580
4.6985 8.5678 -1.1998 0.9614
2.2600 8.4787 -1.0774 0.9653
0.8093 5.7455 -0.7124 0.9769
-5.6019 8.4869 -1.2486 0.9598
-7.4132 8.7306 -1.4063 0.9549
-9.4557 8.7432 -1.5813 0.9494
-12.1229 8.7595 -1.8364 0.9415
-17.7365 7.1788 -2.3494 0.9258
-18.9376 2.7359 -2.3494 0.9258
-20.2767 -1.9863 -2.5016 0.9212
-15.5770 -13.1320 -2.5016 0.9212
-13.8846 -14.9100 -2.5016 0.9212
-11.2611 -15.4695 -2.3494 0.9258
-9.3188 -16.7116 -2.3494 0.9258
-7.2414 -17.7110 -2.3494 0.9258
-5.0588 -18.4533 -2.3494 0.9258
-2.8027 -18.9278 -2.3494 0.9258
-0.5060 -19.1275 -2.3494 0.9258
4.3401 -19.9061 -2.5016 0.9212
6.7026 -19.2397 -2.5016 0.9212
11.1030 -17.0826 -2.5016 0.9212
13.0768 -15.6233 -2.5016 0.9212
16.4292 -12.0487 -2.5016 0.9212
18.8310 -7.7771 -2.5016 0.9212
20.1433 -3.0556 -2.5016 0.9212
20.3646 -0.6108 -2.5016 0.9212
19.5725 4.1950 -2.4578 0.9225
17.2105 8.3615 -2.3494 0.9258
13.3960 8.6397 -1.9572 0.9378
10.3744 8.6213 -1.6562 0.9471
6.3877 8.6458 -1.3199 0.9576
4.8604 8.5731 -1.2101 0.9611
2.3903 8.4838 -1.0822 0.9651
-1.8317 8.6963 -1.0912 0.9648
-9.1898 8.7415 -1.5573 0.9502
-15.0415 8.5980 -2.1273 0.9326
-17.6332 7.4288 -2.3494 0.9258
-18.3987 5.2542 -2.3494 0.9258
-18.8970 3.0033 -2.3494 0.9258
-20.3598 0.7548 -2.5016 0.9212
-20.3028 -1.6994 -2.5016 0.9212
-19.9510 -4.1288 -2.5016 0.9212
-19.3097 -6.4983 -2.5016 0.9212
-18.3880 -8.7734 -2.5016 0.9212
-17.1994 -10.9212 -2.5016 0.9212
-15.7611 -12.9104 -2.5016 0.9212
-14.0940 -14.7122 -2.5016 0.9212
-7.4910 -17.6069 -2.3494 0.9258
-5.3192 -18.3800 -2.3494 0.9258
-0.7764 -19.1184 -2.3494 0.9258
6.4299 -19.3325 -2.5016 0.9212
10.8603 -17.2379 -2.5016 0.9212
12.8547 -15.8066 -2.5016 0.9212
14.6624 -14.1459 -2.5016 0.9212
16.2572 -12.2798 -2.5016 0.9212
18.7192 -8.0426 -2.5016 0.9212
19.8307 3.9579 -2.4829 0.9217
14.1191 8.8259 -2.0444 0.9351
10.6757 8.6194 -1.6847 0.9462
0.4141 8.6825 -1.0673 0.9656
-0.6346 8.6889 -1.0697 0.9655
-1.7035 8.6955 -1.0880 0.9649
-2.8106 8.6544 -1.1173 0.9640
-3.9855 8.5864 -1.1623 0.9626
-5.2762 8.5075 -1.2292 0.9605
-6.9961 8.7280 -1.3735 0.9559
-8.9318 8.7399 -1.5344 0.9509
-17.5264 7.6774 -2.3494 0.9258
-18.8527 3.2702 -2.3494 0.9258
-20.3471 1.0425 -2.5016 0.9212
-20.3248 -1.4121 -2.5016 0.9212
14.6384 -5.9313 -2.5016 0.9380
15.2454 -4.1277 -2.5016 0.9380
15.7901 -0.3679 -2.5016 0.9380
8.0478 8.6356 -1.8696 0.9533
4.7425 8.4971 -1.5412 0.9614
3.4578 8.4480 -1.4458 0.9637
2.2983 8.3711 -1.3749 0.9655
0.8502 5.7265 -0.9169 0.9768
0.2330 8.6836 -1.3758 0.9654
-0.8169 8.6901 -1.3824 0.9653
-9.3146 8.7423 -2.0233 0.9496
-12.9269 7.2749 -2.3494 0.9417
-14.2901 3.9777 -2.3494 0.9417
-15.7871 0.4795 -2.5016 0.9380
-15.4449 -3.3041 -2.5016 0.9380
-14.2091 -6.8966 -2.5016 0.9380
-13.2765 -8.5554 -2.5016 0.9380
-12.1512 -10.0900 -2.5016 0.9380
-10.8496 -11.4782 -2.5016 0.9380
-7.7948 -13.7369 -2.5016 0.9380
-4.1868 -14.8380 -2.4419 0.9395
-2.4019 -15.4268 -2.4728 0.9387
1.3670 -15.7351 -2.5016 0.9380
5.0848 -14.9535 -2.5016 0.9380
11.4398 -10.8900 -2.5016 0.9380
14.5530 -6.1376 -2.5016 0.9380
15.1856 -4.3429 -2.5016 0.9380
15.5976 -2.4850 -2.5016 0.9380
8.2776 8.6342 -1.8944 0.9527
4.9203 8.5301 -1.5597 0.9609
0.3559 8.6828 -1.3764 0.9654
-2.8562 8.5986 -1.4351 0.9640
-4.0175 8.5058 -1.4899 0.9626
-11.8329 8.9450 -2.3494 0.9417
-13.6265 5.8607 -2.3494 0.9417
-15.5729 2.5941 -2.5005 0.9381
-15.7787 0.7026 -2.5016 0.9380
-15.7487 -1.2001 -2.5016 0.9380
-13.3962 -8.3669 -2.5016 0.9380
-12.2927 -9.9172 -2.5016 0.9380
-2.6104 -15.3363 -2.4640 0.9389
1.1444 -15.7528 -2.5016 0.9380
6.6444 -14.3288 -2.5016 0.9380
13.5970 -8.0364 -2.5016 0.9380
14.4648 -6.3428 -2.5016 0.9380
15.1227 -4.5571 -2.5016 0.9380
15.5610 -2.7053 -2.5016 0.9380
15.5115 2.9758 -2.5016 0.9380
14.2600 4.5695 -2.3717 0.9412
6.0938 2.7997 -1.0622 0.9732
5.6969 3.5024 -1.0592 0.9733
5.1025 8.5639 -1.5789 0.9604
3.7442 8.4573 -1.4649 0.9632
2.5690 8.4173 -1.3939 0.9650
1.5399 8.6756 -1.3956 0.9649
0.4789 8.6821 -1.3772 0.9654
-2.7293 8.6221 -1.4324 0.9640
-3.8754 8.5146 -1.4817 0.9628
-6.8894 8.7274 -1.7611 0.9560
-8.7989 8.7391 -1.9642 0.9510
-11.2257 8.7382 -2.2531 0.9440
-12.7161 7.6375 -2.3494 0.9417
-15.0747 -4.7133 -2.5016 0.9380
-14.3984 -6.4921 -2.5016 0.9380
-12.4317 -9.7425 -2.5016 0.9380
-6.4846 -14.3719 -2.4973 0.9381
-4.6163 -14.7509 -2.4480 0.9393
0.9216 -15.7674 -2.5016 0.9380
2.8112 -15.5422 -2.5016 0.9380
6.4412 -14.4213 -2.5016 0.9380
9.6985 -12.4660 -2.5016 0.9380
11.1273 -11.2091 -2.5016 0.9380
14.3737 -6.5466 -2.5016 0.9380
15.5212 -2.9252 -2.5016 0.9380
15.7603 -1.0371 -2.5016 0.9380
6.2325 2.7573 -1.0794 0.9728
5.6803 3.3825 -1.0471 0.9736
11.1554 8.6156 -2.2324 0.9445
5.2893 8.5985 -1.5989 0.9599
3.8903 8.4620 -1.4751 0.9630
-0.4462 8.6878 -1.3778 0.9654
-1.5092 8.6943 -1.3976 0.9649
-2.6029 8.6456 -1.4300 0.9641
-3.7349 8.5234 -1.4739 0.9630
-6.6904 8.7262 -1.7416 0.9564
-8.5520 8.7376 -1.9365 0.9517
-10.9216 8.7521 -2.2167 0.9449
-14.1086 4.5801 -2.3494 0.9417
-15.7526 1.1485 -2.5016 0.9380
-15.5711 -2.6462 -2.5016 0.9380
-14.4888 -6.2879 -2.5016 0.9380
-13.6274 -7.9848 -2.5016 0.9380
-12.5682 -9.5657 -2.5016 0.9380
-11.3265 -11.0078 -2.5016 0.9380
-9.9204 -12.2902 -2.5016 0.9380
-8.3703 -13.3940 -2.5016 0.9380
-3.0277 -15.1798 -2.4516 0.9392
-1.2027 -15.7295 -2.4986 0.9381
6.2366 -14.5109 -2.5016 0.9380
14.9878 -4.9829 -2.5016 0.9380
15.7440 -1.2598 -2.5016 0.9380
15.5894 2.5361 -2.5016 0.9380
11.8667 8.9001 -2.3494 0.9417
9.0060 8.6297 -1.9756 0.9507
7.0768 8.6415 -1.7691 0.9558
2.8347 8.4268 -1.4082 0.9646
1.7933 8.6708 -1.4024 0.9648
0.7255 8.6806 -1.3797 0.9653
-0.3231 8.6870 -1.3768 0.9654
-1.3827 8.6935 -1.3942 0.9650
-2.4768 8.6690 -1.4280 0.9641
-4.8335 8.4534 -1.5423 0.9613
-10.6083 8.7502 -2.1780 0.9458
-14.0424 4.7791 -2.3494 0.9417
-15.7854 -0.5312 -2.5016 0.9380
-15.2019 -4.2852 -2.5016 0.9380
-14.5762 -6.0824 -2.5016 0.9380
-13.7389 -7.7913 -2.5016 0.9380
-12.7022 -9.3871 -2.5016 0.9380
-11.4810 -10.8466 -2.5016 0.9380
-10.0932 -12.1487 -2.5016 0.9380
-8.5588 -13.2744 -2.5016 0.9380
-1.4241 -15.7013 -2.4971 0.9381
0.4754 -15.7872 -2.5016 0.9380
6.0309 -14.5976 -2.5016 0.9380
7.7427 -13.7663 -2.5016 0.9380
9.3421 -12.7352 -2.5016 0.9380
10.8059 -11.5193 -2.5016 0.9380
14.1829 -6.9504 -2.5016 0.9380
15.7247 -1.4823 -2.5016 0.9380
15.7888 0.4196 -2.5016 0.9380
14.6738 4.0246 -2.4099 0.9402
5.6948 3.1765 -1.0328 0.9739
11.9914 8.7314 -2.3494 0.9417
9.2631 8.6281 -2.0050 0.9500
7.2823 8.6403 -1.7897 0.9553
-0.2001 8.6863 -1.3761 0.9654
-1.2569 8.6928 -1.3911 0.9651
-5.9199 8.1908 -1.6007 0.9599
-10.3056 8.7484 -2.1411 0.9467
-13.2735 6.6216 -2.3494 0.9417
-13.9735 4.9772 -2.3494 0.9417
-15.7914 -0.3080 -2.5016 0.9380
-15.6397 -2.2050 -2.5016 0.9380
-8.7456 -13.1520 -2.5016 0.9380
-5.2755 -14.6471 -2.4658 0.9389
-1.6451 -15.6716 -2.4958 0.9382
9.1611 -12.8660 -2.5016 0.9380
10.6420 -11.6709 -2.5016 0.9380
13.1210 -8.7921 -2.5016 0.9380
15.7021 -1.7044 -2.5016 0.9380
15.7931 0.1964 -2.5016 0.9380
14.9970 3.8862 -2.4537 0.9392
13.8074 5.4208 -2.3494 0.9417
5.7323 3.0920 -1.0316 0.9740
10.9961 9.9557 -2.3494 0.9417
7.4926 8.6390 -1.8112 0.9547
5.8400 8.6491 -1.6529 0.9586
4.3411 8.4759 -1.5083 0.9622
-1.1315 8.6920 -1.3883 0.9651
-1.5074 5.9033 -0.9649 0.9756
-3.3214 8.5486 -1.4526 0.9635
-4.5317 8.4730 -1.5219 0.9618
-5.7757 8.2341 -1.5930 0.9601
-9.9924 8.7286 -2.1014 0.9477
-13.9017 5.1742 -2.3494 0.9417
-15.6897 1.8154 -2.5016 0.9380
-15.6693 -1.9836 -2.5016 0.9380
-15.3170 -3.8537 -2.5016 0.9380
-14.7424 -5.6679 -2.5016 0.9380
-13.9537 -7.3997 -2.5016 0.9380
-12.9625 -9.0242 -2.5016 0.9380
-11.7831 -10.5176 -2.5016 0.9380
-10.4326 -11.8584 -2.5016 0.9380
-7.2992 -14.0066 -2.5016 0.9380
-3.6536 -14.9762 -2.4416 0.9395
-1.8656 -15.6390 -2.4945 0.9382
0.0289 -15.7943 -2.5016 0.9380
10.4759 -11.8202 -2.5016 0.9380
11.8215 -10.4745 -2.5016 0.9380
14.7630 -5.6139 -2.5016 0.9380
15.6765 -1.9262 -2.5016 0.9380
15.2975 3.7340 -2.4940 0.9382
5.7687 3.0071 -1.0304 0.9740
12.2334 8.3889 -2.3494 0.9417
7.7082 8.6377 -1.8336 0.9542
6.0190 8.6480 -1.6688 0.9582
4.4959 8.4806 -1.5203 0.9619
3.2440 8.4409 -1.4322 0.9640
2.0936 8.3257 -1.3597 0.9658
1.0975 8.6783 -1.3855 0.9652
-1.0067 8.6912 -1.3858 0.9652
-2.0904 8.6973 -1.4167 0.9644
-4.3837 8.4825 -1.5123 0.9621
-5.6329 8.2769 -1.5857 0.9603
-7.6294 8.7319 -1.8365 0.9541
-13.0809 6.9942 -2.3494 0.9417
-13.8272 5.3702 -2.3494 0.9417
-14.3727 3.6683 -2.3494 0.9417
-15.7938 0.1386 -2.5016 0.9380
-15.3700 -3.6368 -2.5016 0.9380
-14.0569 -7.2017 -2.5016 0.9380
-11.9306 -10.3500 -2.5016 0.9380
-9.1140 -12.8995 -2.5016 0.9380
-5.7278 -14.5947 -2.4832 0.9385
-2.0805 -15.5661 -2.4874 0.9384
1.7064 -15.7019 -2.5016 0.9380
3.5824 -15.3827 -2.5016 0.9380
5.4064 -14.8402 -2.5016 0.9380
7.1520 -14.0823 -2.5016 0.9380
8.7937 -13.1199 -2.5016 0.9380
14.6821 -5.8221 -2.5016 0.9380
15.7079 1.6509 -2.5016 0.9380
5.8083 2.9241 -1.0300 0.9740
12.3508 8.2151 -2.3494 0.9417
7.9291 8.6363 -1.8569 0.9536
4.6533 8.4852 -1.5327 0.9616
3.3836 8.4456 -1.4410 0.9638
0.1683 8.6840 -1.3757 0.9654
-0.8823 8.6905 -1.3835 0.9652
-3.0518 8.5648 -1.4401 0.9638
-5.4911 8.3191 -1.5788 0.9604
-7.4132 8.7306 -1.8140 0.9547
-12.9808 7.1785 -2.3494 0.9417
-13.7499 5.5652 -2.3494 0.9417
-14.3194 3.8712 -2.3494 0.9417
-15.6321 2.2583 -2.5016 0.9380
-15.7902 0.3619 -2.5016 0.9380
-14.8967 -5.2488 -2.5016 0.9380
-14.1573 -7.0022 -2.5016 0.9380
-12.0758 -10.1803 -2.5016 0.9380
-10.7638 -11.5587 -2.5016 0.9380
-9.2955 -12.7693 -2.5016 0.9380
-7.6922 -13.7946 -2.5016 0.9380
-0.4177 -15.7888 -2.5016 0.9380
1.4842 -15.7245 -2.5016 0.9380
3.3646 -15.4318 -2.5016 0.9380
5.1961 -14.9152 -2.5016 0.9380
8.6074 -13.2429 -2.5016 0.9380
10.1376 -12.1116 -2.5016 0.9380
12.7364 -9.3405 -2.5016 0.9380
13.7673 -7.7410 -2.5016 0.9380
15.4436 3.3100 -2.5016 0.9380
14.0249 4.8304 -2.3494 0.9417
5.8827 2.8580 -1.0359 0.9739
12.4657 8.0397 -2.3494 0.9417
6.3877 8.6458 -1.7026 0.9574
4.8261 8.5126 -1.5499 0.9611
3.5249 8.4502 -1.4502 0.9636
0.8894 5.7268 -0.9179 0.9768
-0.7583 8.6897 -1.3815 0.9653
-2.9233 8.5862 -1.4366 0.9639
-5.3505 8.3609 -1.5722 0.9606
-7.2022 8.7293 -1.7924 0.9552
-12.8780 7.3612 -2.3494 0.9417
-13.6698 5.7590 -2.3494 0.9417
-14.2632 4.0732 -2.3494 0.9417
-15.5986 2.4791 -2.5016 0.9380
-15.4667 -3.2008 -2.5016 0.9380
-14.9695 -5.0377 -2.5016 0.9380
-13.3335 -8.4664 -2.5016 0.9380
-12.2185 -10.0085 -2.5016 0.9380
-9.4751 -12.6366 -2.5016 0.9380
-7.8866 -13.6844 -2.5016 0.9380
-2.5007 -15.3839 -2.4686 0.9388
6.7510 -14.2789 -2.5016 0.9380
8.4192 -13.3633 -2.5016 0.9380
11.3667 -10.9663 -2.5016 0.9380
12.6031 -9.5197 -2.5016 0.9380
13.6565 -7.9349 -2.5016 0.9380
14.5117 -6.2348 -2.5016 0.9380
15.1562 -4.4443 -2.5016 0.9380
15.5807 -2.5893 -2.5016 0.9380
15.7790 -0.6967 -2.5016 0.9380
15.7482 1.2061 -2.5016 0.9380
14.0918 4.6317 -2.3494 0.9417
5.7051 3.5663 -1.0656 0.9731
10.6757 8.6194 -2.1732 0.9459
8.3885 8.6335 -1.9066 0.9524
6.5778 8.6446 -1.7205 0.9570
2.4998 8.4148 -1.3903 0.9651
1.4733 8.6760 -1.3938 0.9650
-3.9501 8.5100 -1.4860 0.9627
-5.2109 8.4021 -1.5659 0.9608
-11.7728 9.0239 -2.3494 0.9417
-14.2042 4.2745 -2.3494 0.9417
-15.5455 2.6965 -2.4989 0.9381
12.4223 -3.3633 -2.5016 0.9489
12.8660 -0.2998 -2.5016 0.9489
12.8087 1.2498 -2.5016 0.9489
12.5654 2.7812 -2.5016 0.9489
5.0717 2.5061 -1.0996 0.9772
6.2992 8.6463 -2.0794 0.9573
4.7425 8.4971 -1.8915 0.9611
3.4264 8.3711 -1.7582 0.9638
2.2479 8.1875 -1.6504 0.9660
0.8476 5.7094 -1.1220 0.9768
-1.8927 8.6967 -1.7300 0.9644
-2.9837 8.5750 -1.7648 0.9637
-4.1238 8.4203 -1.8225 0.9625
-7.3014 8.7299 -2.2122 0.9547
-8.8129 8.2714 -2.3494 0.9519
-9.7437 7.1515 -2.3494 0.9519
-10.5331 5.9278 -2.3494 0.9519
-11.1695 4.6179 -2.3494 0.9519
-12.8172 -1.1592 -2.5016 0.9489
-12.5848 -2.6923 -2.5016 0.9489
-12.1696 -4.1862 -2.5016 0.9489
-9.9010 -8.2216 -2.5016 0.9489
-8.8404 -9.3527 -2.5016 0.9489
-3.4949 -12.3859 -2.5016 0.9489
-0.4362 -12.8621 -2.5016 0.9489
2.6478 -12.5942 -2.5016 0.9489
4.1432 -12.1843 -2.5016 0.9489
8.1865 -9.9300 -2.5016 0.9489
10.3209 -7.6879 -2.5016 0.9489
12.7092 -2.0248 -2.5016 0.9489
12.8605 -0.4816 -2.5016 0.9489
12.8251 1.0686 -2.5016 0.9489
12.6035 2.6033 -2.5016 0.9489
6.5267 2.1937 -1.3384 0.9723
5.1171 2.4391 -1.1019 0.9772
9.3530 7.6554 -2.3494 0.9519
4.9203 8.5301 -1.9142 0.9607
2.3810 8.2155 -1.6626 0.9657
-1.7641 8.6959 -1.7247 0.9645
-3.9816 8.4297 -1.8122 0.9627
-7.0930 8.7286 -2.1862 0.9552
-8.6951 8.3952 -2.3494 0.9519
-9.6416 7.2885 -2.3494 0.9519
-11.1031 4.7754 -2.3494 0.9519
-12.3170 3.6169 -2.4953 0.9490
-12.6946 2.1146 -2.5016 0.9489
-12.8568 0.5725 -2.5016 0.9489
-12.8323 -0.9779 -2.5016 0.9489
-12.6216 -2.5141 -2.5016 0.9489
-12.2276 -4.0138 -2.5016 0.9489
-10.9154 -6.8175 -2.5016 0.9489
-10.0163 -8.0807 -2.5016 0.9489
-8.9717 -9.2267 -2.5016 0.9489
-0.6180 -12.8547 -2.5016 0.9489
8.0453 -10.0448 -2.5016 0.9489
10.2111 -7.8331 -2.5016 0.9489
11.0791 -6.5482 -2.5016 0.9489
11.7862 -5.1682 -2.5016 0.9489
12.3222 -3.7132 -2.5016 0.9489
12.6793 -2.2043 -2.5016 0.9489
12.8524 -0.6634 -2.5016 0.9489
12.8389 0.8871 -2.5016 0.9489
12.6390 2.4248 -2.5016 0.9489
5.1545 2.3681 -1.1026 0.9772
9.4603 7.5224 -2.3494 0.9519
8.4869 8.6056 -2.3494 0.9519
5.1025 8.5639 -1.9377 0.9602
-0.5695 8.6885 -1.6925 0.9651
-3.8410 8.4389 -1.8023 0.9629
-6.8894 8.7274 -2.1613 0.9557
-8.5755 8.5173 -2.3494 0.9519
-10.3613 6.2232 -2.3494 0.9519
-11.0345 4.9319 -2.3494 0.9519
-12.1026 3.7406 -2.4623 0.9497
-12.8449 -0.7963 -2.5016 0.9489
-11.0107 -6.6625 -2.5016 0.9489
-10.1295 -7.9383 -2.5016 0.9489
-6.6653 -11.0090 -2.5016 0.9489
2.2906 -12.6640 -2.5016 0.9489
5.2484 -11.7507 -2.5016 0.9489
6.6235 -11.0342 -2.5016 0.9489
7.9025 -10.1575 -2.5016 0.9489
10.9854 -6.7042 -2.5016 0.9489
11.7119 -5.3343 -2.5016 0.9489
12.6469 -2.3833 -2.5016 0.9489
12.8502 0.7055 -2.5016 0.9489
12.3100 3.7536 -2.5016 0.9489
3.8541 8.3834 -1.7935 0.9631
2.6531 8.2723 -1.6887 0.9652
0.6021 8.6813 -1.6915 0.9652
-0.4462 8.6878 -1.6910 0.9652
-1.5092 8.6943 -1.7153 0.9647
-2.6029 8.6456 -1.7550 0.9639
-3.7018 8.4480 -1.7929 0.9631
-4.9002 8.2957 -1.8728 0.9615
-10.2723 6.3691 -2.3494 0.9519
-10.9637 5.0874 -2.3494 0.9519
-11.7544 3.8158 -2.4022 0.9509
-12.6298 2.4727 -2.5016 0.9489
-12.6876 -2.1562 -2.5016 0.9489
-5.4582 -11.6547 -2.5016 0.9489
-4.0169 -12.2266 -2.5016 0.9489
-0.9812 -12.8321 -2.5016 0.9489
0.5692 -12.8569 -2.5016 0.9489
2.1113 -12.6951 -2.5016 0.9489
7.7581 -10.2683 -2.5016 0.9489
9.9856 -8.1187 -2.5016 0.9489
10.8895 -6.8588 -2.5016 0.9489
11.6354 -5.4994 -2.5016 0.9489
12.2123 -4.0601 -2.5016 0.9489
12.8285 -1.0265 -2.5016 0.9489
12.7025 2.0665 -2.5016 0.9489
4.9121 2.8317 -1.1021 0.9772
8.7269 8.3622 -2.3494 0.9519
7.0768 8.6415 -2.1711 0.9555
1.7933 8.6708 -1.7211 0.9646
0.7255 8.6806 -1.6932 0.9651
-0.3231 8.6870 -1.6898 0.9652
-1.3828 8.6935 -1.7111 0.9648
-10.1812 6.5136 -2.3494 0.9519
-11.4420 3.8941 -2.3494 0.9519
-12.5935 2.6510 -2.5016 0.9489
-12.3868 -3.4917 -2.5016 0.9489
-10.3499 -7.6488 -2.5016 0.9489
-6.9739 -10.8162 -2.5016 0.9489
-5.6224 -11.5764 -2.5016 0.9489
-2.6955 -12.5841 -2.5016 0.9489
-1.1625 -12.8169 -2.5016 0.9489
1.9317 -12.7237 -2.5016 0.9489
3.4479 -12.3991 -2.5016 0.9489
8.8049 -9.3861 -2.5016 0.9489
9.8698 -8.2591 -2.5016 0.9489
12.1537 -4.2324 -2.5016 0.9489
12.8650 0.3419 -2.5016 0.9489
12.7305 1.8867 -2.5016 0.9489
12.4112 3.4040 -2.5016 0.9489
4.8478 3.5299 -1.1657 0.9759
7.2823 8.6403 -2.1965 0.9550
6.6212 10.1116 -2.3494 0.9519
4.1491 8.3914 -1.8196 0.9626
2.6195 11.8207 -2.3535 0.9519
0.8492 8.6798 -1.6952 0.9651
-1.2569 8.6928 -1.7073 0.9648
-5.7988 8.0233 -1.9243 0.9605
-10.0881 6.6570 -2.3494 0.9519
-10.8154 5.3954 -2.3494 0.9519
-12.5548 2.8288 -2.5016 0.9489
-12.8039 1.2984 -2.5016 0.9489
-12.4349 -3.3162 -2.5016 0.9489
-11.9459 -4.7876 -2.5016 0.9489
-11.2833 -6.1896 -2.5016 0.9489
-5.7855 -11.4958 -2.5016 0.9489
-4.3610 -12.1081 -2.5016 0.9489
-2.8732 -12.5447 -2.5016 0.9489
-1.3436 -12.7992 -2.5016 0.9489
0.2055 -12.8679 -2.5016 0.9489
1.7516 -12.7498 -2.5016 0.9489
3.2723 -12.4466 -2.5016 0.9489
4.7454 -11.9627 -2.5016 0.9489
7.4647 -10.4835 -2.5016 0.9489
9.7520 -8.3978 -2.5016 0.9489
12.0926 -4.4038 -2.5016 0.9489
12.5345 -2.9175 -2.5016 0.9489
12.8685 0.1600 -2.5016 0.9489
4.9568 2.6737 -1.0947 0.9773
7.4926 8.6390 -2.2228 0.9545
5.8400 8.6491 -2.0286 0.9584
4.3110 8.4171 -1.8382 0.9622
1.9197 8.1175 -1.6214 0.9666
-0.0773 8.6855 -1.6884 0.9652
-1.5071 5.9020 -1.1841 0.9755
-3.3082 8.5148 -1.7756 0.9635
-4.4904 8.3957 -1.8507 0.9619
-8.0804 8.9884 -2.3494 0.9519
-9.1027 7.9514 -2.3494 0.9519
-10.7381 5.5478 -2.3494 0.9519
-11.3274 4.2160 -2.3494 0.9519
-12.8694 -0.0690 -2.5016 0.9489
-12.7676 -1.6163 -2.5016 0.9489
-7.2769 -10.6147 -2.5016 0.9489
-3.0502 -12.5028 -2.5016 0.9489
0.0235 -12.8695 -2.5016 0.9489
1.5711 -12.7733 -2.5016 0.9489
8.5360 -9.6313 -2.5016 0.9489
9.6323 -8.5348 -2.5016 0.9489
10.5889 -7.3144 -2.5016 0.9489
12.0291 -4.5743 -2.5016 0.9489
12.5025 3.0518 -2.5016 0.9489
4.9998 2.6063 -1.0960 0.9773
7.6950 8.6229 -2.2465 0.9540
4.4788 8.4482 -1.8587 0.9618
2.0482 8.1450 -1.6325 0.9664
0.0455 8.6847 -1.6882 0.9652
-1.0067 8.6912 -1.7007 0.9650
-2.0904 8.6973 -1.7387 0.9642
-4.3440 8.4056 -1.8392 0.9622
-7.6138 8.7141 -2.2493 0.9539
-8.9894 8.0793 -2.3494 0.9519
-10.6586 5.6990 -2.3494 0.9519
-12.4698 3.1827 -2.5016 0.9489
-12.7620 1.6598 -2.5016 0.9489
-12.0764 -4.4480 -2.5016 0.9489
-11.4538 -5.8681 -2.5016 0.9489
-8.6365 -9.5413 -2.5016 0.9489
-6.1082 -11.3276 -2.5016 0.9489
-3.2267 -12.4585 -2.5016 0.9489
-0.1584 -12.8686 -2.5016 0.9489
2.9190 -12.5341 -2.5016 0.9489
7.1653 -10.6903 -2.5016 0.9489
11.9633 -4.7439 -2.5016 0.9489
12.4067 -3.2602 -2.4935 0.9491
12.7500 -1.7500 -2.5016 0.9489
12.8679 -0.2039 -2.5016 0.9489
12.7990 1.3452 -2.5016 0.9489
12.4523 2.8536 -2.4832 0.9493
6.1432 2.2135 -1.2693 0.9737
8.1742 8.9032 -2.3494 0.9519
3.3529 8.3689 -1.7524 0.9639
2.1785 8.1727 -1.6441 0.9661
-3.0510 8.5625 -1.7669 0.9636
-4.1993 8.4153 -1.8281 0.9624
-5.3803 8.1513 -1.8985 0.9610
-10.5769 5.8491 -2.3494 0.9519
-11.2036 4.5346 -2.3494 0.9519
-12.7373 1.8401 -2.5016 0.9489
-12.8661 0.2948 -2.5016 0.9489
-12.8082 -1.2547 -2.5016 0.9489
-12.1381 -4.2768 -2.5016 0.9489
-10.7657 -7.0515 -2.5016 0.9489
-9.8395 -8.2951 -2.5016 0.9489
-8.7705 -9.4182 -2.5016 0.9489
-7.5741 -10.4047 -2.5016 0.9489
-6.2678 -11.2401 -2.5016 0.9489
-3.4025 -12.4116 -2.5016 0.9489
-1.8851 -12.7307 -2.5016 0.9489
4.2339 -12.1531 -2.5016 0.9489
5.6647 -11.5557 -2.5016 0.9489
7.0134 -10.7906 -2.5016 0.9489
10.3779 -7.6108 -2.5016 0.9489
11.2179 -6.3075 -2.5016 0.9489
11.8950 -4.9126 -2.5016 0.9489
12.7240 -1.9301 -2.5016 0.9489
12.5837 2.6971 -2.5016 0.9489
5.0938 2.4747 -1.1008 0.9772
9.2957 7.7249 -2.3494 0.9519
8.2992 8.7868 -2.3494 0.9519
6.3877 8.6458 -2.0895 0.9571
4.8261 8.5126 -1.9021 0.9609
2.3106 8.2007 -1.6561 0.9659
0.2911 8.6832 -1.6888 0.9652
-0.7583 8.6897 -1.6955 0.9651
-1.8317 8.6963 -1.7275 0.9644
-2.9233 8.5862 -1.7631 0.9637
-5.2430 8.1929 -1.8907 0.9611
-7.2022 8.7293 -2.1998 0.9549
-9.6957 7.2165 -2.3494 0.9519
-12.3505 3.5270 -2.4967 0.9490
-12.7100 2.0200 -2.5016 0.9489
-12.8247 -1.0735 -2.5016 0.9489
-12.6025 -2.6081 -2.5016 0.9489
-10.8643 -6.8986 -2.5016 0.9489
-9.9558 -8.1551 -2.5016 0.9489
-8.9028 -9.2933 -2.5016 0.9489
-7.7205 -10.2966 -2.5016 0.9489
-6.4261 -11.1503 -2.5016 0.9489
-3.5776 -12.3623 -2.5016 0.9489
-0.5222 -12.8589 -2.5016 0.9489
1.0281 -12.8284 -2.5016 0.9489
2.5635 -12.6116 -2.5016 0.9489
4.0616 -12.2118 -2.5016 0.9489
8.1199 -9.9846 -2.5016 0.9489
12.3495 -3.6213 -2.5016 0.9489
12.6954 -2.1098 -2.5016 0.9489
12.8320 0.9827 -2.5016 0.9489
12.6206 2.5189 -2.5016 0.9489
6.6673 2.1914 -1.3642 0.9718
6.5778 8.6446 -2.1115 0.9567
3.6343 8.3772 -1.7750 0.9635
2.4446 8.2289 -1.6686 0.9656
-2.7961 8.6097 -1.7596 0.9638
-3.9149 8.4341 -1.8074 0.9628
-5.1066 8.2339 -1.8833 0.9613
-9.5927 7.3529 -2.3494 0.9519
-10.4073 6.1458 -2.3494 0.9519
-11.0709 4.8496 -2.3494 0.9519
-12.2864 3.6973 -2.4940 0.9491
-12.8527 0.6585 -2.5016 0.9489
10.7236 -1.5533 -2.5016 0.9565
6.0266 2.1209 -1.4750 0.9741
5.9922 8.2250 -2.3494 0.9591
3.3720 8.2384 -2.0551 0.9641
0.8502 5.7264 -1.3365 0.9765
0.2330 8.6836 -2.0055 0.9650
-4.2632 8.7050 -2.2378 0.9610
-7.4201 6.9642 -2.3494 0.9591
-8.2038 6.0212 -2.3494 0.9591
-8.8684 4.9909 -2.3494 0.9591
-10.4387 2.9056 -2.5016 0.9565
-10.8306 0.3290 -2.5016 0.9565
-10.7915 -0.9760 -2.5016 0.9565
-10.2463 -3.5247 -2.5016 0.9565
-9.7480 -4.7313 -2.5016 0.9565
-9.1082 -5.8694 -2.5016 0.9565
-6.4421 -8.7125 -2.5016 0.9565
-5.3476 -9.4240 -2.5016 0.9565
-4.1753 -9.9988 -2.5016 0.9565
-2.9425 -10.4284 -2.5016 0.9565
-1.6670 -10.7066 -2.5016 0.9565
-0.3672 -10.8293 -2.5016 0.9565
0.9378 -10.7949 -2.5016 0.9565
3.4884 -10.2587 -2.5016 0.9565
4.6969 -9.7647 -2.5016 0.9565
6.8927 -8.3606 -2.5016 0.9565
9.4051 -5.3808 -2.5016 0.9565
9.9840 -4.2107 -2.5016 0.9565
10.4179 -2.9794 -2.5016 0.9565
10.7981 0.8997 -2.5016 0.9565
6.2510 2.1010 -1.5225 0.9733
4.8267 2.3007 -1.2344 0.9783
7.8748 6.4455 -2.3494 0.9591
7.0425 7.3458 -2.3494 0.9591
6.1079 8.1395 -2.3494 0.9591
5.0847 8.8150 -2.3494 0.9591
3.5207 8.2664 -2.0743 0.9638
-0.6931 8.6893 -2.0125 0.9648
-1.7641 8.6959 -2.0485 0.9642
-2.8562 8.5986 -2.0918 0.9635
-4.3461 9.2015 -2.3494 0.9591
-5.4212 8.6120 -2.3494 0.9591
-7.3209 7.0684 -2.3494 0.9591
-8.7969 5.1158 -2.3494 0.9591
-10.6883 1.7804 -2.5016 0.9565
-10.8042 -0.8233 -2.5016 0.9565
-10.6268 -2.1167 -2.5016 0.9565
-9.1903 -5.7400 -2.5016 0.9565
-8.4333 -6.8036 -2.5016 0.9565
-5.4803 -9.3475 -2.5016 0.9565
2.0792 -10.6342 -2.5016 0.9565
6.7738 -8.4573 -2.5016 0.9565
8.5973 -6.5951 -2.5016 0.9565
4.3899 3.4906 -1.2948 0.9772
7.1456 7.2455 -2.3494 0.9591
5.2088 8.7422 -2.3494 0.9591
4.1196 9.3052 -2.3494 0.9591
1.5399 8.6756 -2.0342 0.9645
-0.5695 8.6885 -2.0102 0.9649
-1.6363 8.6951 -2.0427 0.9643
-2.7293 8.6221 -2.0879 0.9636
-5.2989 8.6878 -2.3494 0.9591
-6.3053 7.9875 -2.3494 0.9591
-8.0302 6.2508 -2.3494 0.9591
-10.3524 3.1996 -2.5016 0.9565
-10.6620 1.9314 -2.5016 0.9565
-10.6557 -1.9663 -2.5016 0.9565
-9.8779 -4.4538 -2.5016 0.9565
-9.2705 -5.6095 -2.5016 0.9565
-7.6629 -7.6609 -2.5016 0.9565
-6.6859 -8.5269 -2.5016 0.9565
-5.6119 -9.2691 -2.5016 0.9565
-4.4564 -9.8767 -2.5016 0.9565
-3.2362 -10.3410 -2.5016 0.9565
-1.9690 -10.6551 -2.5016 0.9565
0.6323 -10.8171 -2.5016 0.9565
1.9286 -10.6625 -2.5016 0.9565
3.1970 -10.3532 -2.5016 0.9565
4.4189 -9.8936 -2.5016 0.9565
5.5767 -9.2903 -2.5016 0.9565
6.6535 -8.5522 -2.5016 0.9565
7.6338 -7.6899 -2.5016 0.9565
8.5032 -6.7160 -2.5016 0.9565
10.3295 -3.2727 -2.5016 0.9565
10.6481 -2.0067 -2.5016 0.9565
10.8193 0.5940 -2.5016 0.9565
10.6693 1.8909 -2.5016 0.9565
6.7842 2.0686 -1.6374 0.9713
4.5066 2.6835 -1.2109 0.9787
6.3356 7.9635 -2.3494 0.9591
5.3319 8.6677 -2.3494 0.9591
2.5941 8.0883 -1.9610 0.9657
1.9199 9.9935 -2.3494 0.9591
-0.4462 8.6878 -2.0084 0.9649
-1.5092 8.6943 -2.0373 0.9644
-3.6993 8.4422 -2.1279 0.9629
-5.1756 8.7619 -2.3494 0.9591
-6.1918 8.0758 -2.3494 0.9591
-8.6488 5.3624 -2.3494 0.9591
-9.2309 4.2834 -2.3494 0.9591
-10.6337 2.0819 -2.5016 0.9565
-10.8069 0.7879 -2.5016 0.9565
-10.6824 -1.8154 -2.5016 0.9565
-10.3865 -3.0870 -2.5016 0.9565
-9.9399 -4.3137 -2.5016 0.9565
-7.7704 -7.5518 -2.5016 0.9565
-4.5956 -9.8127 -2.5016 0.9565
-0.8261 -10.8040 -2.5016 0.9565
0.4793 -10.8249 -2.5016 0.9565
1.7777 -10.6887 -2.5016 0.9565
3.0503 -10.3973 -2.5016 0.9565
4.2786 -9.9550 -2.5016 0.9565
5.4448 -9.3682 -2.5016 0.9565
6.5319 -8.6454 -2.5016 0.9565
7.5243 -7.7971 -2.5016 0.9565
9.1685 -5.7748 -2.5016 0.9565
10.2822 -3.4184 -2.5016 0.9565
10.6187 -2.1570 -2.5016 0.9565
10.8266 0.4410 -2.5016 0.9565
10.6950 1.7399 -2.5016 0.9565
7.1012 2.0561 -1.7068 0.9701
4.5405 2.6175 -1.2100 0.9787
1.7933 8.6708 -2.0442 0.9643
-0.3231 8.6870 -2.0069 0.9649
-1.3827 8.6935 -2.0323 0.9645
-2.4768 8.6690 -2.0815 0.9637
-5.0512 8.8342 -2.3494 0.9591
-6.0770 8.1626 -2.3494 0.9591
-8.5721 5.4842 -2.3494 0.9591
-9.1694 4.4134 -2.3494 0.9591
-10.6032 2.2320 -2.5016 0.9565
-10.8294 -0.3644 -2.5016 0.9565
-10.7070 -1.6642 -2.5016 0.9565
-10.4291 -2.9398 -2.5016 0.9565
-5.8717 -9.1067 -2.5016 0.9565
-2.2695 -10.5952 -2.5016 0.9565
-0.9788 -10.7912 -2.5016 0.9565
0.3262 -10.8306 -2.5016 0.9565
1.6264 -10.7128 -2.5016 0.9565
4.1374 -10.0145 -2.5016 0.9565
5.3118 -9.4443 -2.5016 0.9565
7.4133 -7.9027 -2.5016 0.9565
8.3099 -6.9537 -2.5016 0.9565
9.0859 -5.9038 -2.5016 0.9565
9.7300 -4.7683 -2.5016 0.9565
10.2328 -3.5635 -2.5016 0.9565
10.5871 -2.3069 -2.5016 0.9565
10.7877 -1.0169 -2.5016 0.9565
10.8317 0.2879 -2.5016 0.9565
10.7185 1.5885 -2.5016 0.9565
4.5778 2.5535 -1.2102 0.9787
4.3787 3.1883 -1.2505 0.9780
7.4464 6.9360 -2.3494 0.9591
4.5104 9.1221 -2.3494 0.9591
2.2017 9.9353 -2.3494 0.9591
-0.2001 8.6863 -2.0059 0.9650
-1.5960 5.9008 -1.4113 0.9752
-4.9258 8.9047 -2.3494 0.9591
-6.9096 7.4709 -2.3494 0.9591
-7.7580 6.5857 -2.3494 0.9591
-10.2041 3.6346 -2.5008 0.9565
-10.4696 -2.7921 -2.5016 0.9565
-9.5001 -5.2113 -2.5016 0.9565
-7.0414 -8.2357 -2.5016 0.9565
-5.9999 -9.0228 -2.5016 0.9565
-3.6718 -10.1945 -2.5016 0.9565
-2.4191 -10.5621 -2.5016 0.9565
-1.1313 -10.7763 -2.5016 0.9565
5.1777 -9.5184 -2.5016 0.9565
8.2108 -7.0705 -2.5016 0.9565
10.5535 -2.4564 -2.5016 0.9565
10.8347 0.1347 -2.5016 0.9565
4.6154 2.4895 -1.2107 0.9787
4.3941 3.1054 -1.2422 0.9782
7.5437 6.8300 -2.3494 0.9591
5.6946 8.4338 -2.3494 0.9591
3.0076 8.1689 -2.0097 0.9649
1.8786 7.9439 -1.8846 0.9670
0.9732 8.6791 -2.0163 0.9648
-0.0773 8.6855 -2.0053 0.9650
-1.1315 8.6920 -2.0236 0.9647
-1.5068 5.9009 -1.4061 0.9753
-4.7994 8.9734 -2.3494 0.9591
-5.8438 8.3311 -2.3494 0.9591
-6.8033 7.5678 -2.3494 0.9591
-7.6641 6.6947 -2.3494 0.9591
-8.4136 5.7244 -2.3494 0.9591
-9.0410 4.6709 -2.3494 0.9591
-10.5358 2.5309 -2.5016 0.9565
-10.7637 1.2454 -2.5016 0.9565
-10.8354 -0.0581 -2.5016 0.9565
-10.7498 -1.3608 -2.5016 0.9565
-10.5081 -2.6438 -2.5016 0.9565
-10.1138 -3.8884 -2.5016 0.9565
-9.5728 -5.0765 -2.5016 0.9565
-8.8928 -6.1909 -2.5016 0.9565
-5.0075 -9.6090 -2.5016 0.9565
-2.5681 -10.5268 -2.5016 0.9565
0.0198 -10.8355 -2.5016 0.9565
1.3228 -10.7545 -2.5016 0.9565
2.6066 -10.5173 -2.5016 0.9565
5.0427 -9.5906 -2.5016 0.9565
7.1869 -8.1091 -2.5016 0.9565
8.1100 -7.1859 -2.5016 0.9565
8.9153 -6.1584 -2.5016 0.9565
10.7547 -1.3215 -2.5016 0.9565
10.5265 2.5694 -2.5016 0.9565
4.6534 2.4257 -1.2115 0.9787
7.6396 6.7227 -2.3494 0.9591
5.8132 8.3524 -2.3494 0.9591
4.5844 8.6475 -2.2596 0.9606
2.0041 7.9697 -1.8972 0.9668
0.0455 8.6847 -2.0051 0.9650
-1.0067 8.6912 -2.0199 0.9647
-2.0904 8.6973 -2.0651 0.9639
-3.1793 8.5387 -2.1035 0.9633
-4.4993 8.7062 -2.2625 0.9606
-5.7254 8.4129 -2.3494 0.9591
-6.6956 7.6633 -2.3494 0.9591
-7.5687 6.8024 -2.3494 0.9591
-8.3318 5.8427 -2.3494 0.9591
-10.0796 3.9147 -2.4964 0.9566
-10.4990 2.6796 -2.5016 0.9565
-10.8351 0.0951 -2.5016 0.9565
-10.7679 -1.2087 -2.5016 0.9565
-10.5444 -2.4950 -2.5016 0.9565
-9.6436 -4.9407 -2.5016 0.9565
-8.1849 -7.1005 -2.5016 0.9565
-6.2526 -8.8496 -2.5016 0.9565
-3.9585 -10.0866 -2.5016 0.9565
-0.1334 -10.8347 -2.5016 0.9565
1.1706 -10.7721 -2.5016 0.9565
2.4577 -10.5531 -2.5016 0.9565
4.9066 -9.6610 -2.5016 0.9565
7.0715 -8.2099 -2.5016 0.9565
10.7349 -1.4734 -2.5016 0.9565
10.7762 1.1326 -2.5016 0.9565
5.9148 2.1312 -1.4515 0.9745
4.4253 2.9435 -1.2270 0.9784
7.7338 6.6140 -2.3494 0.9591
4.8932 8.9227 -2.3494 0.9591
3.2947 8.2238 -2.0453 0.9643
0.8093 5.7454 -1.3395 0.9765
-3.0510 8.5625 -2.0985 0.9634
-4.3408 8.6989 -2.2444 0.9609
-5.6059 8.4930 -2.3494 0.9591
-6.5866 7.7571 -2.3494 0.9591
-7.4717 6.9087 -2.3494 0.9591
-8.9053 4.9247 -2.3494 0.9591
-10.0145 4.0533 -2.4942 0.9566
-10.7242 1.5493 -2.5016 0.9565
-10.8327 0.2483 -2.5016 0.9565
-10.7839 -1.0564 -2.5016 0.9565
-9.0642 -5.9370 -2.5016 0.9565
-8.2844 -6.9841 -2.5016 0.9565
-6.3771 -8.7603 -2.5016 0.9565
-5.2772 -9.4636 -2.5016 0.9565
-4.1007 -10.0296 -2.5016 0.9565
-2.8647 -10.4500 -2.5016 0.9565
4.7694 -9.7294 -2.5016 0.9565
6.9548 -8.3090 -2.5016 0.9565
7.9036 -7.4123 -2.5016 0.9565
9.4449 -5.3106 -2.5016 0.9565
10.4398 -2.9017 -2.5016 0.9565
10.7130 -1.6251 -2.5016 0.9565
10.8307 -0.3249 -2.5016 0.9565
10.7911 0.9801 -2.5016 0.9565
7.8266 6.5040 -2.3494 0.9591
5.0189 8.8526 -2.3494 0.9591
3.4420 8.2516 -2.0641 0.9640
0.8894 5.7267 -1.3379 0.9765
-2.9233 8.5862 -2.0940 0.9634
-7.3733 7.0136 -2.3494 0.9591
-8.8348 5.0501 -2.3494 0.9591
-9.7553 4.1098 -2.4439 0.9575
-10.4190 2.9754 -2.5016 0.9565
-10.7012 1.7008 -2.5016 0.9565
-10.8281 0.4014 -2.5016 0.9565
-10.7978 -0.9038 -2.5016 0.9565
-10.6107 -2.1959 -2.5016 0.9565
-10.2696 -3.4560 -2.5016 0.9565
-9.7794 -4.6660 -2.5016 0.9565
-9.1473 -5.8083 -2.5016 0.9565
-5.4105 -9.3881 -2.5016 0.9565
-4.2421 -9.9706 -2.5016 0.9565
-1.7385 -10.6951 -2.5016 0.9565
-0.4396 -10.8266 -2.5016 0.9565
0.8656 -10.8009 -2.5016 0.9565
3.4197 -10.2818 -2.5016 0.9565
9.3689 -5.4436 -2.5016 0.9565
10.6889 -1.7763 -2.5016 0.9565
6.3635 2.0916 -1.5465 0.9729
4.3933 3.5471 -1.3036 0.9771
6.1622 8.0984 -2.3494 0.9591
2.3908 8.0479 -1.9383 0.9661
0.4141 8.6825 -2.0068 0.9649
-1.7035 8.6955 -2.0457 0.9643
-4.2845 9.2304 -2.3494 0.9591
-5.3635 8.6481 -2.3494 0.9591
-8.7625 5.1745 -2.3494 0.9591
-9.4818 4.1535 -2.3899 0.9584
-10.6761 1.8519 -2.5016 0.9565
-10.8214 0.5545 -2.5016 0.9565
-10.8095 -0.7510 -2.5016 0.9565
8.6527 -3.5060 -2.5016 0.9621
9.0116 -2.4399 -2.5016 0.9621
9.2396 -1.3384 -2.5016 0.9621
9.3335 -0.2174 -2.5016 0.9621
9.2919 0.9066 -2.5016 0.9621
9.1154 2.0176 -2.5016 0.9621
4.5520 2.2493 -1.3605 0.9792
5.9778 6.4144 -2.3494 0.9643
4.2732 7.6562 -2.3494 0.9643
3.3214 8.1146 -2.3494 0.9643
0.2352 8.7649 -2.3494 0.9643
-3.8564 7.8744 -2.3494 0.9643
-4.7754 7.3534 -2.3494 0.9643
-5.6252 6.7257 -2.3494 0.9643
-7.0685 5.1880 -2.3494 0.9643
-7.7244 4.3471 -2.3750 0.9640
-8.6277 3.5670 -2.5016 0.9621
-9.2299 1.4037 -2.5016 0.9621
-9.2981 -0.8409 -2.5016 0.9621
-8.8283 -3.0369 -2.5016 0.9621
-7.8477 -5.0571 -2.5016 0.9621
-5.5506 -7.5068 -2.5016 0.9621
-4.6075 -8.1199 -2.5016 0.9621
-3.5975 -8.6151 -2.5016 0.9621
-2.5353 -8.9852 -2.5016 0.9621
4.0469 -8.4133 -2.5016 0.9621
8.1035 -4.6362 -2.5016 0.9621
8.6023 -3.6280 -2.5016 0.9621
9.2198 -1.4689 -2.5016 0.9621
9.3295 -0.3494 -2.5016 0.9621
9.3038 0.7752 -2.5016 0.9621
4.6342 2.2090 -1.3756 0.9790
4.1772 2.6502 -1.3255 0.9797
3.9977 3.2721 -1.3842 0.9788
6.0679 6.3292 -2.3494 0.9643
5.2626 7.0130 -2.3494 0.9643
2.4406 8.4215 -2.3494 0.9643
0.9370 5.7504 -1.5611 0.9762
-0.6971 8.7403 -2.3494 0.9643
-1.7432 8.5930 -2.3494 0.9643
-2.7640 8.3209 -2.3494 0.9643
-6.9944 5.2874 -2.3494 0.9643
-7.5795 4.4078 -2.3494 0.9643
-9.2091 1.5340 -2.5016 0.9621
-9.3268 0.4153 -2.5016 0.9621
-9.1562 -1.8238 -2.5016 0.9621
-8.8704 -2.9117 -2.5016 0.9621
-8.4558 -3.9574 -2.5016 0.9621
-7.9185 -4.9457 -2.5016 0.9621
-5.6562 -7.4276 -2.5016 0.9621
1.7914 -9.1625 -2.5016 0.9621
5.8364 -7.2869 -2.5016 0.9621
8.0372 -4.7503 -2.5016 0.9621
8.5501 -3.7492 -2.5016 0.9621
9.1981 -1.5991 -2.5016 0.9621
9.3138 0.6436 -2.5016 0.9621
9.1688 1.7590 -2.5016 0.9621
6.3488 2.0344 -1.7864 0.9728
4.2148 2.5912 -1.3257 0.9797
4.0085 3.1874 -1.3722 0.9790
5.3612 6.9380 -2.3494 0.9643
3.5495 8.0175 -2.3494 0.9643
-1.6216 8.6168 -2.3494 0.9643
-5.4327 6.8821 -2.3494 0.9643
-6.2210 6.1788 -2.3494 0.9643
-9.1865 1.6641 -2.5016 0.9621
-9.3200 0.5472 -2.5016 0.9621
-8.5109 -3.8375 -2.5016 0.9621
-3.8397 -8.5099 -2.5016 0.9621
-2.7883 -8.9099 -2.5016 0.9621
-0.5801 -9.3180 -2.5016 0.9621
1.6617 -9.1870 -2.5016 0.9621
2.7545 -8.9204 -2.5016 0.9621
4.8049 -8.0046 -2.5016 0.9621
5.7327 -7.3687 -2.5016 0.9621
6.5773 -6.6257 -2.5016 0.9621
7.3265 -5.7866 -2.5016 0.9621
7.9692 -4.8634 -2.5016 0.9621
8.4963 -3.8697 -2.5016 0.9621
8.9000 -2.8198 -2.5016 0.9621
9.1745 -1.7290 -2.5016 0.9621
9.3220 0.5118 -2.5016 0.9621
9.1928 1.6292 -2.5016 0.9621
6.6518 2.0283 -1.8634 0.9716
4.0264 3.1097 -1.3632 0.9792
6.2444 6.1551 -2.3494 0.9643
5.4588 6.8615 -2.3494 0.9643
4.5940 7.4682 -2.3494 0.9643
2.6778 8.3491 -2.3494 0.9643
1.6542 8.6106 -2.3494 0.9643
-0.4497 8.7565 -2.3494 0.9643
-1.4996 8.6388 -2.3494 0.9643
-3.5190 8.0308 -2.3494 0.9643
-4.4593 7.5493 -2.3494 0.9643
-5.3349 6.9582 -2.3494 0.9643
-7.4519 4.6203 -2.3494 0.9643
-8.4618 3.9265 -2.4995 0.9621
-9.3254 -0.4459 -2.5016 0.9621
-9.2041 -1.5642 -2.5016 0.9621
-8.5643 -3.7168 -2.5016 0.9621
-8.0551 -4.7198 -2.5016 0.9621
-7.4290 -5.6543 -2.5016 0.9621
-5.8639 -7.2647 -2.5016 0.9621
-0.7118 -9.3089 -2.5016 0.9621
1.5317 -9.2095 -2.5016 0.9621
2.6282 -8.9585 -2.5016 0.9621
3.6865 -8.5774 -2.5016 0.9621
4.6913 -8.0718 -2.5016 0.9621
5.6280 -7.4490 -2.5016 0.9621
8.8593 -2.9454 -2.5016 0.9621
9.1492 -1.8585 -2.5016 0.9621
9.3063 -0.7447 -2.5016 0.9621
4.2882 2.4721 -1.3263 0.9797
5.5553 6.7836 -2.3494 0.9643
4.6991 7.4025 -2.3494 0.9643
1.7758 8.5863 -2.3494 0.9643
-2.4087 8.4307 -2.3494 0.9643
-4.3522 7.6116 -2.3494 0.9643
-5.2360 7.0330 -2.3494 0.9643
-7.3858 4.7252 -2.3494 0.9643
-8.3992 4.0427 -2.4977 0.9621
-8.8382 3.0079 -2.5016 0.9621
-9.1358 1.9232 -2.5016 0.9621
-9.3308 -0.3140 -2.5016 0.9621
-8.9859 -2.5330 -2.5016 0.9621
-8.6160 -3.5953 -2.5016 0.9621
-6.7864 -6.4114 -2.5016 0.9621
-5.0591 -7.8465 -2.5016 0.9621
-4.0787 -8.3979 -2.5016 0.9621
-3.0391 -8.8275 -2.5016 0.9621
-1.9554 -9.1290 -2.5016 0.9621
1.4013 -9.2303 -2.5016 0.9621
2.5012 -8.9947 -2.5016 0.9621
6.3874 -6.8090 -2.5016 0.9621
7.1599 -5.9914 -2.5016 0.9621
8.3835 -4.1084 -2.5016 0.9621
9.1220 -1.9877 -2.5016 0.9621
9.2948 -0.8762 -2.5016 0.9621
5.1308 2.0986 -1.4853 0.9773
4.3200 2.4097 -1.3254 0.9797
4.0598 2.9561 -1.3456 0.9794
4.8033 7.3353 -2.3494 0.9643
0.8537 8.7264 -2.3494 0.9643
-1.2547 8.6778 -2.3494 0.9643
-7.3183 4.8292 -2.3494 0.9643
-8.7948 3.1326 -2.5016 0.9621
-9.1077 2.0521 -2.5016 0.9621
-9.3343 -0.1821 -2.5016 0.9621
-9.2446 -1.3033 -2.5016 0.9621
-8.6660 -3.4731 -2.5016 0.9621
-7.5859 -5.4420 -2.5016 0.9621
-6.8764 -6.3148 -2.5016 0.9621
-6.0670 -7.0960 -2.5016 0.9621
-5.1695 -7.7742 -2.5016 0.9621
-4.1971 -8.3395 -2.5016 0.9621
1.2706 -9.2492 -2.5016 0.9621
2.3738 -9.0292 -2.5016 0.9621
7.0745 -6.0920 -2.5016 0.9621
7.7558 -5.1970 -2.5016 0.9621
8.3246 -4.2265 -2.5016 0.9621
8.7724 -3.1947 -2.5016 0.9621
9.0930 -2.1164 -2.5016 0.9621
9.2815 -1.0075 -2.5016 0.9621
7.7461 2.0072 -2.1441 0.9674
5.2917 2.0775 -1.5233 0.9767
4.3555 2.3493 -1.3260 0.9797
4.0855 2.8874 -1.3405 0.9795
6.4998 5.8848 -2.3494 0.9643
5.7448 6.6238 -2.3494 0.9643
3.9970 7.8040 -2.3494 0.9643
2.0179 8.5327 -2.3494 0.9643
-5.0351 7.1782 -2.3494 0.9643
-9.0778 2.1807 -2.5016 0.9621
-9.2742 1.0731 -2.5016 0.9621
-9.3359 -0.0501 -2.5016 0.9621
-9.0539 -2.2779 -2.5016 0.9621
-8.2480 -4.3740 -2.5016 0.9621
-7.6621 -5.3342 -2.5016 0.9621
-6.9650 -6.2170 -2.5016 0.9621
-6.1667 -7.0095 -2.5016 0.9621
-5.2789 -7.7003 -2.5016 0.9621
-4.3145 -8.2793 -2.5016 0.9621
-3.2875 -8.7381 -2.5016 0.9621
-2.2127 -9.0700 -2.5016 0.9621
-1.1059 -9.2703 -2.5016 0.9621
1.1398 -9.2662 -2.5016 0.9621
3.3195 -8.7260 -2.5016 0.9621
4.3448 -8.2634 -2.5016 0.9621
6.9877 -6.1915 -2.5016 0.9621
7.6816 -5.3061 -2.5016 0.9621
8.2640 -4.3438 -2.5016 0.9621
8.7264 -3.3184 -2.5016 0.9621
9.2663 -1.1386 -2.5016 0.9621
9.0697 2.2139 -2.5016 0.9621
