ply
format ascii 1.0
element vertex 1556
property float32 x
property float32 y
property float32 z
property float32 I
end_header
29.2173 -42.0802 2.6848 0.8145
37.5550 -42.1813 2.9598 0.7975
57.0663 -29.8358 3.3748 0.7726
50.3965 -19.0388 2.8234 0.8059
66.5549 -16.3343 3.5915 0.7600
66.4996 -8.0274 3.5104 0.7647
66.4464 0.0269 3.4823 0.7663
66.3939 8.0692 3.5052 0.7650
57.4341 14.1451 3.0999 0.7890
12.4996 8.6082 0.7954 0.9410
7.6779 8.6378 0.6057 0.9548
5.9942 8.6482 0.5515 0.9587
1.0762 8.6381 0.4562 0.9657
-1.0216 8.6823 0.4582 0.9656
-2.1025 8.6794 0.4680 0.9649
-4.5220 8.7128 0.5145 0.9614
-7.6557 8.7321 0.6086 0.9545
-12.5390 8.7621 0.8017 0.9406
-16.4977 8.7864 0.9796 0.9279
-22.8328 8.8254 1.2829 0.9066
-66.2214 -34.0495 3.9024 0.7421
-28.4708 -31.5424 2.2269 0.8435
-22.2244 -31.5474 2.0224 0.8568
-8.5998 -33.3849 1.8067 0.8710
-4.8526 -36.6683 1.9385 0.8623
20.7869 -88.7634 4.7777 0.6941
21.7449 -42.6903 2.5108 0.8254
28.2717 -42.0744 2.6566 0.8162
36.4106 -42.1743 2.9200 0.8000
34.2154 -24.2997 2.1994 0.8453
66.5622 -17.4171 3.6058 0.7591
66.5064 -9.0598 3.5176 0.7643
66.4531 -0.9871 3.4830 0.7663
60.8304 14.0010 3.2713 0.7788
54.2293 19.5964 3.0219 0.7938
40.0022 20.1839 2.3482 0.8357
10.0656 8.6232 0.6946 0.9483
7.9158 8.6364 0.6140 0.9542
4.7379 8.6559 0.5171 0.9612
3.4632 8.6637 0.4890 0.9633
0.1620 8.6783 0.4549 0.9658
-1.9629 8.6799 0.4664 0.9650
-4.3541 8.7118 0.5104 0.9617
-5.7636 8.7205 0.5478 0.9590
-9.4664 8.7432 0.6753 0.9497
-12.1369 8.7596 0.7844 0.9418
-29.3512 -31.5370 2.2578 0.8415
-13.2868 -32.5171 1.8409 0.8687
-6.6980 -24.4518 1.3287 0.9034
-5.4115 -36.5900 1.9385 0.8623
19.2506 -88.2474 4.7336 0.6964
20.8789 -42.5845 2.4856 0.8270
27.4786 -42.2735 2.6424 0.8171
35.2962 -42.1675 2.8819 0.8023
57.5009 -32.3342 3.4573 0.7678
50.9201 -21.0333 2.8873 0.8020
66.5695 -18.5084 3.6211 0.7582
66.5133 -10.0964 3.5257 0.7638
66.4072 6.0215 3.4945 0.7656
41.5478 20.1744 2.4205 0.8311
10.3798 8.6213 0.7071 0.9474
8.1603 8.6349 0.6226 0.9535
6.3917 8.6458 0.5635 0.9578
3.6171 8.6628 0.4920 0.9631
2.4419 8.6547 0.4713 0.9646
1.3493 8.6663 0.4597 0.9655
0.2945 8.6774 0.4550 0.9658
-4.1887 8.7108 0.5065 0.9620
-5.5736 8.7193 0.5423 0.9594
-7.1943 8.7292 0.5928 0.9557
-9.1795 8.7415 0.6643 0.9505
-15.3373 8.7793 0.9262 0.9317
-40.8197 -8.4166 2.1843 0.8462
-52.8615 -25.1716 3.0684 0.7910
-83.4030 -52.8662 5.1751 0.6733
-30.2570 -31.5314 2.2902 0.8394
-5.9692 -36.5031 1.9385 0.8623
26.5250 -80.0268 4.4184 0.7134
24.9529 -52.9213 3.0663 0.7911
26.1965 -41.6790 2.5799 0.8210
34.2105 -42.1608 2.8455 0.8045
32.0770 -24.2866 2.1086 0.8512
57.3582 -33.4159 3.4789 0.7665
57.0959 -24.6108 3.2584 0.7796
66.5202 -11.1384 3.5347 0.7633
66.4664 -3.0175 3.4869 0.7661
50.8795 10.0866 2.7184 0.8124
26.0522 8.5249 1.4366 0.8960
42.1413 19.6738 2.4374 0.8300
6.5971 8.6445 0.5699 0.9574
3.7729 8.6618 0.4951 0.9629
1.4848 8.6644 0.4607 0.9654
0.2828 5.7441 0.3014 0.9772
-0.6206 8.6818 0.4562 0.9657
-2.8097 8.6986 0.4791 0.9640
-5.3873 8.7181 0.5371 0.9598
-6.9723 8.7279 0.5854 0.9562
-11.3818 8.7550 0.7525 0.9441
-14.8032 8.7760 0.9019 0.9334
-24.4466 -31.5319 2.0910 0.8523
-7.1720 -23.3603 1.2807 0.9068
22.8034 -50.3396 2.8962 0.8014
24.7379 -40.7245 2.4972 0.8262
41.0815 -40.9543 3.0401 0.7927
31.6639 -24.7429 2.1060 0.8513
66.5272 -12.1859 3.5445 0.7627
66.4732 -4.0350 3.4901 0.7659
66.4205 3.9844 3.4872 0.7660
42.7451 19.1670 2.4551 0.8289
32.7587 19.7285 2.0041 0.8580
8.6709 8.6317 0.6412 0.9522
6.8072 8.6432 0.5766 0.9569
30.6199 -87.4398 1.6171 0.6903
43.4686 -24.3566 0.8697 0.8193
47.3348 -19.4682 0.8934 0.8148
62.7670 13.5416 1.1208 0.7735
24.6522 8.5274 0.4553 0.9009
41.3894 20.1754 0.8037 0.8318
10.3479 8.6214 0.2351 0.9475
6.3715 8.6459 0.1875 0.9579
3.5932 8.6427 0.1634 0.9632
2.4203 8.6283 0.1564 0.9648
0.2815 8.6833 0.1516 0.9658
-2.0299 5.9417 0.1096 0.9752
-4.1954 8.6908 0.1684 0.9621
-5.5674 8.6805 0.1800 0.9596
-7.2167 8.7294 0.1977 0.9557
-9.2077 8.7416 0.2216 0.9505
-76.2207 -6.4422 1.3352 0.7364
-38.1385 -7.9241 0.6799 0.8557
-65.8064 -31.4586 1.2732 0.7469
-62.2605 -65.0809 1.5721 0.6975
-20.1034 -34.9345 0.7036 0.8511
-13.4191 -31.5943 0.5992 0.8717
-9.0111 -31.2072 0.5670 0.8781
27.5208 -43.6385 0.9005 0.8135
31.8853 -39.1733 0.8816 0.8170
32.1794 -24.2872 0.7037 0.8510
32.2450 20.1639 0.6638 0.8589
10.6725 8.6194 0.2395 0.9466
5.0539 8.6295 0.1746 0.9608
1.4660 8.6336 0.1529 0.9656
0.2743 5.7497 0.1005 0.9772
-0.6344 8.6889 0.1521 0.9657
-1.7031 8.6955 0.1547 0.9652
-2.8208 8.6877 0.1594 0.9641
-5.3814 8.6791 0.1783 0.9600
-6.9942 8.7280 0.1952 0.9562
-8.9290 8.7399 0.2181 0.9512
-20.0838 8.8028 0.3828 0.9160
-29.4363 8.8659 0.5366 0.8843
-24.0933 -31.1742 0.6877 0.8542
-20.3858 -34.2073 0.6951 0.8527
-6.3361 -35.6642 0.6323 0.8651
-3.6821 -66.5303 1.1631 0.7660
38.0985 -83.7651 1.6062 0.6920
27.4966 -45.1112 0.9222 0.8095
31.6228 -31.4290 0.7782 0.8366
40.4874 -24.3383 0.8246 0.8278
57.0902 -25.5438 1.0917 0.7786
79.8107 -24.7038 1.4583 0.7159
87.8624 5.4046 1.5365 0.7032
46.8987 8.6297 0.8324 0.8263
6.7861 8.6433 0.1918 0.9570
5.2457 8.6515 0.1766 0.9603
1.6017 8.6329 0.1533 0.9655
-6.7730 8.7215 0.1927 0.9568
-8.6590 8.7382 0.2147 0.9520
-19.2654 8.7969 0.3697 0.9188
-66.7094 -29.4246 1.2727 0.7470
-3.1244 -16.1517 0.2871 0.9363
38.1897 -87.4831 1.6662 0.6826
31.6075 -32.3873 0.7899 0.8344
39.0858 -24.3152 0.8035 0.8318
52.4002 -24.4115 1.0090 0.7935
75.4671 -24.6271 1.3856 0.7279
93.3925 -18.4359 1.6616 0.6833
28.7996 8.5080 0.5242 0.8868
8.9071 8.6266 0.2164 0.9516
7.0007 8.6420 0.1941 0.9565
5.4281 8.6517 0.1783 0.9600
4.0653 8.6400 0.1667 0.9625
1.7382 8.6321 0.1537 0.9654
0.6800 8.6808 0.1520 0.9658
-1.4289 8.6938 0.1538 0.9654
-2.5343 8.7006 0.1582 0.9644
-6.5368 8.6878 0.1898 0.9574
-8.3971 8.7366 0.2115 0.9527
-13.8610 8.7702 0.2863 0.9365
-20.1368 -31.5583 0.6534 0.8609
-4.6839 -54.4555 0.9540 0.8036
36.6069 -87.4736 1.6552 0.6843
28.9895 -39.1464 0.8503 0.8229
48.1476 7.3486 0.8501 0.8230
30.4682 8.4978 0.5521 0.8811
48.6234 20.1309 0.9186 0.8102
9.1855 8.6286 0.2200 0.9508
0.8134 8.6800 0.1522 0.9657
-1.2929 8.6930 0.1534 0.9655
-3.5577 8.6866 0.1638 0.9631
-8.1429 8.7351 0.2084 0.9533
-10.3885 8.7489 0.2371 0.9471
-17.7680 8.7778 0.3459 0.9238
-59.8440 -16.1998 1.0822 0.7803
-59.6745 -43.1429 1.2853 0.7448
-20.8183 -31.5541 0.6598 0.8596
-12.6074 -25.2764 0.4930 0.8931
-10.1000 -28.3596 0.5255 0.8865
-7.0336 -31.2193 0.5586 0.8798
35.0447 -87.4643 1.6447 0.6859
31.6021 -34.4229 0.8157 0.8295
48.4301 -24.3871 0.9465 0.8050
57.3397 15.0535 1.0348 0.7889
50.7695 20.1177 0.9532 0.8037
36.2618 19.7070 0.7204 0.8478
7.4464 8.6393 0.1991 0.9554
5.8017 8.6494 0.1818 0.9592
4.3911 8.6381 0.1691 0.9620
3.1531 8.6444 0.1606 0.9639
2.0138 8.6305 0.1547 0.9652
-1.1575 8.6921 0.1531 0.9655
-4.6821 8.6941 0.1724 0.9613
-6.1287 8.6847 0.1855 0.9584
-7.8959 8.7336 0.2055 0.9540
-10.0702 8.7469 0.2328 0.9480
-17.0948 8.7723 0.3354 0.9260
-23.9295 8.8321 0.4452 0.9030
-21.5134 -31.5499 0.6665 0.8583
-11.6476 -31.1911 0.5812 0.8753
-7.5352 -31.2163 0.5605 0.8794
-4.0339 -34.5234 0.6067 0.8702
27.4695 -51.9538 1.0258 0.7905
31.5978 -35.4902 0.8294 0.8269
31.6444 -27.9123 0.7365 0.8447
46.5977 -24.3625 0.9178 0.8103
57.3339 14.1205 1.0307 0.7896
52.1059 19.7328 0.9725 0.8002
38.5464 20.1929 0.7596 0.8402
12.7435 8.7762 0.2701 0.9400
7.6779 8.6378 0.2017 0.9548
5.9942 8.6482 0.1837 0.9588
4.5578 8.6372 0.1705 0.9617
3.3034 8.6443 0.1615 0.9637
1.0762 8.6380 0.1519 0.9658
0.0296 8.6848 0.1516 0.9659
-1.0227 8.6913 0.1528 0.9656
-7.6557 8.7321 0.2027 0.9546
-9.7631 8.7450 0.2288 0.9489
-16.4798 8.7769 0.3259 0.9280
-22.8328 8.8254 0.4273 0.9067
-58.3006 -13.8877 1.0461 0.7868
-28.1163 -31.1495 0.7324 0.8455
-23.5806 -33.4725 0.7147 0.8489
-18.9945 -35.3394 0.7003 0.8517
-12.1918 -31.1878 0.5845 0.8746
-8.0404 -31.2132 0.5626 0.8790
-5.3558 -40.4710 0.7126 0.8493
33.8354 -39.1915 0.9038 0.8129
31.6391 -28.7778 0.7465 0.8427
47.7283 -18.8679 0.8958 0.8144
88.0158 9.3365 1.5449 0.7018
58.9261 13.5627 1.0554 0.7851
10.0656 8.6232 0.2314 0.9484
7.9158 8.6364 0.2045 0.9542
6.1908 8.6470 0.1856 0.9583
3.4551 8.6434 0.1625 0.9634
2.2931 8.6290 0.1558 0.9649
9.1037 64.9747 1.1452 0.7691
0.1621 8.6840 0.1516 0.9658
-4.3441 8.6918 0.1696 0.9619
-5.7380 8.6818 0.1816 0.9592
-9.4664 8.7432 0.2249 0.9498
-12.1369 8.7596 0.2613 0.9419
-15.8829 8.7726 0.3167 0.9300
-21.8013 8.8113 0.4104 0.9102
-5.9849 -40.4672 0.7140 0.8490
27.4647 -56.0169 1.0890 0.7791
27.5286 -42.3503 0.8817 0.8170
31.6336 -29.6674 0.7570 0.8407
89.0478 -24.7581 1.6133 0.6909
63.2204 13.5388 1.1285 0.7721
41.5478 20.1744 0.8062 0.8313
10.3798 8.6213 0.2355 0.9475
8.1603 8.6349 0.2074 0.9536
4.9065 8.6479 0.1736 0.9610
3.6086 8.6426 0.1635 0.9632
-0.7545 8.6897 0.1522 0.9657
-2.9566 8.6974 0.1603 0.9639
-4.1791 8.6907 0.1683 0.9622
-9.1795 8.7415 0.2213 0.9506
-11.7515 8.7573 0.2558 0.9431
-15.3185 8.7685 0.3081 0.9318
-20.8599 8.8035 0.3952 0.9134
-40.8011 -8.4128 0.7272 0.8465
-52.8258 -25.1546 1.0213 0.7913
-83.3344 -52.8228 1.7222 0.6739
-23.4196 -31.1783 0.6806 0.8556
-20.1642 -34.9172 0.7038 0.8510
-9.0625 -31.2069 0.5672 0.8781
-6.3557 -38.8667 0.6874 0.8542
-3.5014 -84.2135 1.4712 0.7138
41.2578 -87.5014 1.6886 0.6791
31.7856 -39.1724 0.8805 0.8172
83.9589 -24.7294 1.5277 0.7046
47.8740 9.4907 0.8519 0.8226
32.2446 20.0954 0.6632 0.8590
10.7055 8.6192 0.2399 0.9465
3.7641 8.6417 0.1645 0.9630
2.5769 8.6274 0.1572 0.9646
0.2828 5.7440 0.1004 0.9773
-1.6894 8.6954 0.1546 0.9652
-2.8097 8.6986 0.1596 0.9641
-5.3631 8.6790 0.1781 0.9600
-6.9723 8.7279 0.1950 0.9563
-8.9017 8.7397 0.2177 0.9513
-14.7895 8.7679 0.3001 0.9335
-65.8254 -30.1214 1.2636 0.7486
-20.3851 -34.0879 0.6933 0.8531
-9.5801 -31.2037 0.5698 0.8776
-6.3341 -35.3410 0.6267 0.8662
28.8025 -91.5512 1.6752 0.6812
39.6330 -87.4917 1.6765 0.6810
27.5107 -45.2892 0.9249 0.8090
30.7992 -39.1632 0.8697 0.8193
31.6222 -31.5242 0.7794 0.8364
40.3467 -24.3374 0.8225 0.8282
57.0896 -25.6479 1.0924 0.7785
79.3737 -24.7011 1.4510 0.7171
27.4352 8.5164 0.5014 0.8914
44.7253 20.0549 0.8556 0.8219
8.6709 8.6317 0.2136 0.9522
6.8072 8.6432 0.1920 0.9569
3.9216 8.6408 0.1656 0.9627
-3.2033 -21.8892 -0.3861 0.9153
-0.6976 -28.1550 -0.4916 0.8934
28.2300 -80.6150 -1.4909 0.7106
23.1129 -35.4390 -0.7385 0.8443
47.2086 -13.0482 -0.8549 0.8221
94.8145 8.7428 -1.6620 0.6832
24.3190 8.4121 -0.4492 0.9022
37.9671 18.5072 -0.7373 0.8445
32.2493 20.8578 -0.6704 0.8576
10.3479 8.6214 -0.2351 0.9475
2.4090 8.5880 -0.1557 0.9649
1.3246 8.5935 -0.1518 0.9658
0.2815 8.6833 -0.1516 0.9658
-0.7679 8.6897 -0.1523 0.9657
-1.8415 8.6964 -0.1552 0.9651
-7.2167 8.7294 -0.1977 0.9557
-11.7892 8.7575 -0.2563 0.9429
-15.3274 8.7427 -0.3080 0.9318
-20.8033 8.7423 -0.3939 0.9137
-30.9047 8.7962 -0.5609 0.8794
-38.1314 -7.9227 -0.6798 0.8557
-64.6159 -30.8895 -1.2501 0.7509
-15.2092 -20.3122 -0.4429 0.9035
-11.3588 -19.7389 -0.3975 0.9129
-5.9458 -20.5913 -0.3741 0.9178
-1.0865 -27.1256 -0.4739 0.8971
29.0970 -87.3405 -1.6069 0.6919
37.5955 -79.4210 -1.5338 0.7036
31.6286 -30.4898 -0.7668 0.8388
41.9383 -24.3472 -0.8464 0.8237
48.4691 -20.8049 -0.9207 0.8098
85.1401 -24.9366 -1.5485 0.7012
49.2301 9.8375 -0.8763 0.8180
32.2450 20.1640 -0.6638 0.8589
10.6725 8.6194 -0.2395 0.9466
8.3864 8.6335 -0.2101 0.9530
6.5764 8.6446 -0.1896 0.9575
3.7390 8.6199 -0.1640 0.9631
1.4590 8.5926 -0.1521 0.9657
-1.7031 8.6955 -0.1547 0.9652
-2.8208 8.6877 -0.1594 0.9641
-6.9942 8.7280 -0.1952 0.9562
-14.8371 8.7657 -0.3008 0.9334
-19.9659 8.7511 -0.3805 0.9165
-57.2537 9.9466 -1.0143 0.7926
-89.8666 4.6299 -1.5707 0.6977
-66.3322 -4.5884 -1.1606 0.7664
-49.9849 -9.5924 -0.8884 0.8158
-75.8665 -24.3136 -1.3906 0.7271
-62.9819 -38.7196 -1.2905 0.7440
-11.7489 -19.7146 -0.4006 0.9123
-6.2618 -20.5066 -0.3743 0.9178
-3.8826 -21.8541 -0.3874 0.9150
39.7955 -87.4962 -1.6778 0.6808
22.3272 -36.6302 -0.7488 0.8423
30.7264 -38.9486 -0.8659 0.8200
31.6228 -31.4290 -0.7782 0.8366
40.4874 -24.3383 -0.8246 0.8278
57.0902 -25.5438 -1.0917 0.7786
87.8484 5.4038 -1.5363 0.7032
49.2253 9.0578 -0.8737 0.8185
32.6474 19.7292 -0.6658 0.8585
8.6447 8.6319 -0.2132 0.9523
6.7861 8.6433 -0.1918 0.9570
2.6985 8.6016 -0.1574 0.9646
1.5941 8.5917 -0.1525 0.9656
-0.5012 8.6881 -0.1519 0.9658
-2.6668 8.6610 -0.1582 0.9644
-5.1818 8.6490 -0.1760 0.9605
-11.0615 8.7530 -0.2462 0.9451
-14.3455 8.7732 -0.2935 0.9349
-19.2176 8.7751 -0.3688 0.9190
-27.8576 8.8562 -0.5102 0.8896
-89.7887 17.0141 -1.5951 0.6938
-57.2912 3.8289 -1.0022 0.7948
-50.4220 -8.8809 -0.8937 0.8148
-60.8798 -18.4913 -1.1106 0.7753
-66.8285 -29.4771 -1.2749 0.7466
-62.6102 -37.1869 -1.2711 0.7473
-12.2441 -19.8505 -0.4071 0.9109
-8.8727 -19.2370 -0.3698 0.9187
-3.1244 -16.1516 -0.2872 0.9363
27.8277 -92.8907 -1.6926 0.6785
29.7669 -38.9396 -0.8555 0.8219
31.6595 -25.4475 -0.7090 0.8500
52.4002 -24.4115 -1.0090 0.7935
76.2347 -24.8776 -1.3997 0.7256
94.6460 -18.6834 -1.6839 0.6798
74.0925 3.4238 -1.2947 0.7432
49.2206 8.2826 -0.8712 0.8190
28.7996 8.5080 -0.5242 0.8868
33.7899 19.7222 -0.6829 0.8551
8.9071 8.6266 -0.2164 0.9516
7.0007 8.6420 -0.1941 0.9565
4.0548 8.6178 -0.1662 0.9626
-0.3682 8.6873 -0.1518 0.9658
-2.5343 8.7006 -0.1582 0.9644
-5.0088 8.6573 -0.1746 0.9608
-8.3971 8.7366 -0.2115 0.9527
-10.7173 8.7498 -0.2415 0.9462
-26.3693 8.8282 -0.4854 0.8947
-89.8901 18.4583 -1.6017 0.6927
-57.4914 4.7243 -1.0069 0.7939
-60.0641 -17.2472 -1.0908 0.7788
-12.6928 -19.8921 -0.4119 0.9099
-9.2294 -19.2333 -0.3724 0.9182
-6.8742 -20.2756 -0.3737 0.9179
-2.0738 -24.1105 -0.4224 0.9077
36.6081 -87.4766 -1.6552 0.6843
28.8300 -38.9309 -0.8456 0.8238
37.7982 -24.3217 -0.7846 0.8354
50.3328 -24.3898 -0.9763 0.7995
48.5884 7.4159 -0.8579 0.8215
30.4682 8.4978 -0.5521 0.8811
48.3084 20.0005 -0.9126 0.8113
12.4693 9.1606 -0.2701 0.9400
9.1855 8.6286 -0.2200 0.9508
4.2161 8.6167 -0.1674 0.9623
-1.2929 8.6930 -0.1534 0.9655
-2.3907 8.6997 -0.1575 0.9645
-4.8386 8.6655 -0.1732 0.9611
-6.2936 8.6356 -0.1865 0.9582
-8.1429 8.7351 -0.2084 0.9533
-10.3885 8.7489 -0.2371 0.9471
-13.3995 8.7674 -0.2795 0.9379
-25.1229 8.8394 -0.4649 0.8989
-89.7707 19.8657 -1.6048 0.6922
-75.7447 -10.9700 -1.3359 0.7362
-59.7591 -16.1768 -1.0806 0.7806
-61.2969 -33.9209 -1.2228 0.7556
-18.0519 -21.2698 -0.4870 0.8944
-9.7019 -19.4513 -0.3794 0.9167
-7.1525 -20.0833 -0.3721 0.9182
-4.7932 -21.2750 -0.3807 0.9165
31.8650 -79.5286 -1.4955 0.7098
57.8537 -13.2664 -1.0360 0.7886
57.7904 15.1718 -1.0429 0.7874
50.3686 19.9590 -0.9457 0.8051
36.2618 19.7070 -0.7204 0.8478
12.6064 8.9684 -0.2700 0.9400
7.4464 8.6393 -0.1991 0.9554
5.8017 8.6494 -0.1818 0.9592
3.1452 8.6226 -0.1602 0.9639
-1.1575 8.6921 -0.1531 0.9655
-2.2483 8.6989 -0.1568 0.9647
-3.3999 8.6766 -0.1627 0.9634
-6.0934 8.6347 -0.1845 0.9586
-7.8959 8.7336 -0.2055 0.9540
-10.0702 8.7469 -0.2328 0.9480
-16.9752 8.7109 -0.3330 0.9265
-23.9295 8.8321 -0.4452 0.9030
-24.1220 2.7254 -0.4237 0.9074
-75.7643 -9.7950 -1.3335 0.7367
-60.7520 -32.4187 -1.2020 0.7592
-63.9516 -44.7656 -1.3626 0.7318
-19.2843 -22.0315 -0.5111 0.8895
-13.5267 -19.8373 -0.4191 0.9084
-7.4383 -19.9189 -0.3711 0.9185
-5.0938 -21.1022 -0.3789 0.9168
-2.6245 -22.4606 -0.3947 0.9135
33.4680 -87.3674 -1.6331 0.6878
26.8388 -50.7610 -1.0023 0.7948
23.1083 -33.2817 -0.7072 0.8504
31.6444 -27.9123 -0.7365 0.8447
24.3969 -16.7726 -0.5168 0.8883
57.4341 14.1451 -1.0325 0.7893
52.1059 19.7328 -0.9725 0.8002
38.5464 20.1929 -0.7596 0.8402
9.7623 8.6250 -0.2274 0.9492
7.6779 8.6378 -0.2017 0.9548
2.1425 8.5881 -0.1545 0.9652
1.0762 8.6380 -0.1519 0.9658
0.0296 8.6848 -0.1516 0.9659
-2.1070 8.6980 -0.1562 0.9648
-3.2507 8.6836 -0.1618 0.9636
-4.4998 8.6701 -0.1705 0.9617
-5.8975 8.6337 -0.1825 0.9590
-7.6557 8.7321 -0.2027 0.9546
-12.5390 8.7621 -0.2670 0.9406
-52.7072 13.3628 -0.9491 0.8045
-58.1294 -13.8470 -1.0430 0.7874
-63.7811 -43.2113 -1.3447 0.7348
-61.1142 -53.1701 -1.4139 0.7232
-20.5137 -22.7268 -0.5344 0.8847
-8.6402 -33.5419 -0.6046 0.8706
-0.5710 -51.7310 -0.9030 0.8130
31.9450 -87.3580 -1.6236 0.6893
27.4575 -53.9054 -1.0559 0.7850
33.5747 -38.8896 -0.8968 0.8142
34.2153 -24.2997 -0.7325 0.8454
44.9204 -24.3655 -0.8920 0.8151
60.8304 14.0010 -1.0895 0.7790
40.0022 20.1839 -0.7821 0.8359
4.7290 8.6396 -0.1719 0.9614
2.2820 8.5871 -0.1551 0.9651
9.1037 64.9747 -1.1452 0.7691
0.1621 8.6840 -0.1516 0.9658
-0.8884 8.6905 -0.1525 0.9657
-1.9668 8.6971 -0.1556 0.9650
-4.3328 8.6692 -0.1692 0.9620
-5.7057 8.6328 -0.1806 0.9594
-7.4220 8.7306 -0.2000 0.9552
-12.1369 8.7596 -0.2613 0.9419
-15.8057 8.7299 -0.3152 0.9303
-21.5419 8.7065 -0.4056 0.9112
-58.8895 -13.0818 -1.0530 0.7856
-75.8160 -26.7447 -1.4033 0.7250
-63.5489 -41.6537 -1.3263 0.7379
-7.9517 -19.4605 -0.3669 0.9193
-9.1871 -33.5386 -0.6070 0.8701
-3.2417 -21.9186 -0.3867 0.9152
-0.7377 -28.0483 -0.4898 0.8938
28.1180 -80.6888 -1.4915 0.7105
26.4594 -53.9665 -1.0491 0.7863
32.6165 -38.9662 -0.8870 0.8160
33.1235 -24.2930 -0.7170 0.8485
47.1972 -13.1223 -0.8551 0.8220
24.4364 8.4111 -0.4511 0.9018
32.2489 20.7879 -0.6697 0.8577
4.9065 8.6479 -0.1736 0.9610
1.3380 8.5934 -0.1518 0.9658
0.2947 8.6832 -0.1517 0.9658
-0.7545 8.6897 -0.1522 0.9657
-1.8277 8.6963 -0.1551 0.9651
-9.1795 8.7415 -0.2213 0.9506
-20.7240 8.7461 -0.3926 0.9139
-30.7220 8.7948 -0.5578 0.8800
-56.0312 8.9433 -0.9904 0.7969
-75.9380 -25.4921 -1.3982 0.7258
-52.7901 -25.1376 -1.0206 0.7914
-24.9540 -26.0051 -0.6291 0.8657
-15.2963 -20.3639 -0.4446 0.9031
-11.3755 -19.6984 -0.3970 0.9130
-3.5550 -21.7399 -0.3845 0.9156
-1.1227 -27.0010 -0.4717 0.8975
28.9489 -87.3396 -1.6061 0.6920
37.4109 -79.3428 -1.5311 0.7040
23.0004 -36.5939 -0.7544 0.8412
31.6280 -30.5821 -0.7679 0.8386
32.0770 -24.2866 -0.7023 0.8513
41.7902 -24.3463 -0.8442 0.8241
48.2980 -20.8185 -0.9180 0.8103
84.6523 -24.9336 -1.5404 0.7025
49.2297 9.7595 -0.8760 0.8181
25.8545 8.4603 -0.4748 0.8969
39.7555 18.5599 -0.7658 0.8390
32.2446 20.0954 -0.6632 0.8590
10.7055 8.6192 -0.2399 0.9465
8.4118 8.6333 -0.2104 0.9529
27.2222 46.3197 -0.9378 0.8066
3.7545 8.6198 -0.1641 0.9631
2.5674 8.5954 -0.1566 0.9647
-1.6894 8.6954 -0.1546 0.9652
-6.9723 8.7279 -0.1950 0.9563
-8.9017 8.7397 -0.2177 0.9513
-11.3818 8.7550 -0.2506 0.9442
-14.7895 8.7679 -0.3001 0.9335
-26.9405 8.1589 -0.4913 0.8935
-67.4020 -4.5594 -1.1792 0.7632
-49.9502 -9.5070 -0.8875 0.8159
-6.3226 -20.5936 -0.3760 0.9174
39.6345 -87.4952 -1.6766 0.6809
30.6297 -38.9477 -0.8649 0.8202
31.6222 -31.5242 -0.7794 0.8364
74.3108 4.4577 -1.2994 0.7424
49.2249 8.9804 -0.8734 0.8186
27.3659 8.4949 -0.5002 0.8917
32.7588 19.7285 -0.6675 0.8581
11.0437 8.6172 -0.2445 0.9455
6.8072 8.6432 -0.1920 0.9569
-3.1702 -21.6631 -1.1474 0.9160
-0.6875 -27.7466 -1.4546 0.8948
4.5641 -47.5145 -2.5016 0.8260
10.2444 -46.6210 -2.5016 0.8260
21.0651 -42.7992 -2.5000 0.8261
31.5299 -29.4800 -2.2622 0.8412
47.2035 -7.0919 -2.5016 0.8260
47.7137 -1.3644 -2.5016 0.8260
26.7371 9.2485 -1.4827 0.8929
26.7492 13.0390 -1.5595 0.8876
26.8268 17.3507 -1.6744 0.8799
10.3479 8.6214 -0.7059 0.9475
8.1356 8.6350 -0.6218 0.9536
4.8886 8.6471 -0.5206 0.9610
2.4031 8.5670 -0.4663 0.9650
0.2815 8.6833 -0.4553 0.9658
-0.7679 8.6897 -0.4572 0.9657
-11.7892 8.7575 -0.7697 0.9429
-25.1331 7.1535 -1.3695 0.9006
-44.8275 7.0850 -2.3785 0.8338
-45.1062 1.6343 -2.3655 0.8346
-44.8185 -3.7881 -2.3572 0.8351
-43.7837 -14.7721 -2.4217 0.8310
-40.2773 -25.6164 -2.5016 0.8260
-11.1209 -19.3253 -1.1685 0.9146
-8.1653 -19.2246 -1.0946 0.9197
-5.8500 -20.2598 -1.1051 0.9190
-1.0671 -26.6414 -1.3973 0.8987
3.8387 -47.5786 -2.5016 0.8260
15.0869 -45.2863 -2.5016 0.8260
20.4228 -43.1436 -2.5016 0.8260
23.0743 -36.5878 -2.2670 0.8409
41.5330 -12.1646 -2.2681 0.8408
47.6874 -2.0922 -2.5016 0.8260
43.9600 8.7844 -2.3494 0.8356
26.7822 12.5530 -1.5501 0.8883
26.8157 16.7688 -1.6575 0.8810
8.3864 8.6335 -0.6308 0.9529
6.5764 8.6446 -0.5692 0.9574
1.4521 8.5519 -0.4546 0.9659
0.2743 5.7496 -0.3017 0.9772
-0.6344 8.6889 -0.4566 0.9657
-1.7031 8.6955 -0.4644 0.9651
-2.8208 8.6877 -0.4787 0.9641
-5.3433 8.6176 -0.5314 0.9602
-6.9942 8.7280 -0.5862 0.9562
-11.4180 8.7552 -0.7541 0.9440
-44.7392 7.7725 -2.3798 0.8337
-40.4454 -7.7618 -2.1583 0.8479
-43.3744 -19.9279 -2.5016 0.8260
-37.3625 -29.7070 -2.5016 0.8260
-31.4798 -31.9165 -2.3494 0.8356
-6.2206 -20.3717 -1.1163 0.9182
-3.8032 -21.4070 -1.1395 0.9166
8.8173 -46.9118 -2.5016 0.8260
14.3942 -45.5112 -2.5016 0.8260
27.7656 -35.1955 -2.3494 0.8356
31.5600 -24.5844 -2.0966 0.8519
40.9199 -18.3087 -2.3494 0.8356
39.2106 -12.1368 -2.1511 0.8484
46.9651 -8.5287 -2.5016 0.8260
47.6432 2.9307 -2.5016 0.8260
27.8228 12.5267 -1.5991 0.8850
26.8051 16.1986 -1.6414 0.8821
6.7861 8.6433 -0.5759 0.9569
5.2457 8.6515 -0.5302 0.9603
0.3611 5.7313 -0.3010 0.9773
-0.5012 8.6881 -0.4561 0.9657
-2.6668 8.6610 -0.4749 0.9644
-3.8572 8.6551 -0.4966 0.9628
-6.7730 8.7215 -0.5787 0.9567
-11.0615 8.7530 -0.7392 0.9451
-14.3455 8.7732 -0.8813 0.9349
-25.0906 7.9766 -1.3798 0.8999
-44.6399 8.4588 -2.3811 0.8336
-45.0706 3.0121 -2.3673 0.8345
-44.9540 -2.4211 -2.3594 0.8350
-42.8941 -13.0284 -2.3494 0.8356
-43.6734 -19.2638 -2.5016 0.8260
-41.0402 -24.3755 -2.5016 0.8260
-37.8114 -29.1335 -2.5016 0.8260
-12.0137 -19.4770 -1.1993 0.9124
-6.5133 -20.2203 -1.1133 0.9184
-3.1244 -16.1514 -0.8622 0.9362
-1.7111 -24.2142 -1.2722 0.9073
2.2401 -44.7731 -2.3494 0.8356
13.6982 -45.7255 -2.5016 0.8260
31.5552 -25.3636 -2.1217 0.8503
36.1491 -22.4883 -2.2312 0.8432
46.8295 -9.2443 -2.5016 0.8260
47.6013 -3.5461 -2.5016 0.8260
47.6823 2.2034 -2.5016 0.8260
28.7997 8.5080 -1.5738 0.8867
26.7250 11.5453 -1.5257 0.8899
8.9071 8.6266 -0.6498 0.9515
7.0007 8.6420 -0.5829 0.9564
0.6800 8.6808 -0.4563 0.9657
-3.7030 8.6624 -0.4937 0.9630
-4.9957 8.6347 -0.5228 0.9608
-6.4602 8.5859 -0.5631 0.9579
-8.3971 8.7366 -0.6351 0.9526
-13.8610 8.7702 -0.8596 0.9364
-25.0880 8.3993 -1.3865 0.8994
-44.5299 9.1438 -2.3824 0.8335
-41.4073 -23.7465 -2.5016 0.8260
-34.5405 -32.9456 -2.5016 0.8260
-12.5598 -19.6837 -1.2237 0.9107
-9.1355 -19.0376 -1.1066 0.9189
-6.7720 -19.9742 -1.1053 0.9190
-4.3958 -21.0007 -1.1245 0.9176
-1.9988 -23.2380 -1.2223 0.9108
1.5568 -44.8020 -2.3494 0.8356
7.3818 -47.1590 -2.5016 0.8260
22.1533 -38.9728 -2.3494 0.8356
37.6337 -24.2159 -2.3453 0.8359
40.3422 -19.5487 -2.3494 0.8356
38.5078 -13.2197 -2.1337 0.8495
46.6830 -9.9577 -2.5016 0.8260
30.4682 8.4978 -1.6577 0.8810
28.3126 15.9511 -1.7031 0.8780
9.1855 8.6286 -0.6605 0.9508
7.2207 8.6407 -0.5901 0.9559
5.6131 8.6505 -0.5404 0.9595
2.9870 8.5939 -0.4768 0.9642
1.8576 8.5489 -0.4585 0.9656
-4.8261 8.6430 -0.5188 0.9611
-8.1429 8.7351 -0.6258 0.9533
-10.3885 8.7489 -0.7118 0.9471
-13.3995 8.7674 -0.8392 0.9379
-17.4864 8.6388 -1.0222 0.9249
-44.2054 -6.4022 -2.3409 0.8362
-44.2409 -17.9223 -2.5016 0.8260
-41.7647 -23.1121 -2.5016 0.8260
-18.0377 -21.2531 -1.4609 0.8944
-9.5208 -19.0882 -1.1179 0.9181
-2.2505 -22.1931 -1.1691 0.9145
0.8731 -44.8206 -2.3494 0.8356
6.6615 -47.2661 -2.5016 0.8260
21.5561 -39.3062 -2.3494 0.8356
26.1261 -36.4290 -2.3494 0.8356
36.3895 -24.2082 -2.2905 0.8394
44.4139 6.0869 -2.3494 0.8356
43.4051 11.3952 -2.3518 0.8355
26.7752 14.5513 -1.5971 0.8851
12.6064 8.9684 -0.8108 0.9399
9.4692 8.6268 -0.6713 0.9500
7.4464 8.6393 -0.5977 0.9553
5.8017 8.6494 -0.5458 0.9591
3.1373 8.6009 -0.4798 0.9640
-0.1029 8.6857 -0.4552 0.9658
-1.1575 8.6921 -0.4596 0.9655
-3.3999 8.6766 -0.4884 0.9634
-6.0584 8.5851 -0.5507 0.9588
-7.8959 8.7336 -0.6170 0.9539
-10.0702 8.7469 -0.6990 0.9480
-12.9595 8.7647 -0.8199 0.9393
-22.3535 8.2504 -1.2487 0.9090
-24.1274 2.7260 -1.2725 0.9073
-43.4453 -11.0522 -2.3494 0.8356
-44.5091 -17.2453 -2.5016 0.8260
-42.1125 -22.4722 -2.5016 0.8260
-39.1047 -27.3730 -2.5016 0.8260
-35.5295 -31.8765 -2.5016 0.8260
-19.2263 -21.9653 -1.5298 0.8897
-7.3274 -19.6219 -1.0977 0.9195
-4.9987 -20.7081 -1.1164 0.9182
17.0753 -44.5746 -2.5016 0.8260
21.4554 -40.5793 -2.4056 0.8321
31.5401 -27.8203 -2.2041 0.8450
24.3868 -16.7656 -1.5510 0.8882
46.3575 -11.3773 -2.5016 0.8260
43.5275 10.7201 -2.3493 0.8356
12.7435 8.7762 -0.8109 0.9399
9.7623 8.6250 -0.6827 0.9492
7.6779 8.6378 -0.6057 0.9548
5.9942 8.6482 -0.5515 0.9587
3.2870 8.6014 -0.4826 0.9638
2.1341 8.5545 -0.4621 0.9653
1.0762 8.6381 -0.4562 0.9657
0.0296 8.6848 -0.4552 0.9658
-1.0227 8.6913 -0.4586 0.9656
-2.1070 8.6980 -0.4690 0.9648
-3.2507 8.6836 -0.4859 0.9635
-4.4880 8.6473 -0.5106 0.9617
-7.6557 8.7321 -0.6086 0.9545
-9.7631 8.7450 -0.6869 0.9489
-12.5390 8.7621 -0.8017 0.9406
-16.3274 8.6957 -0.9695 0.9286
-22.1341 8.5553 -1.2436 0.9093
-45.0991 0.3258 -2.3636 0.8347
-42.9793 -4.8911 -2.2670 0.8409
-40.9124 -9.7458 -2.2041 0.8450
-44.7280 -16.5497 -2.4994 0.8261
-36.0118 -31.3307 -2.5016 0.8260
-20.3187 -22.5108 -1.5892 0.8856
-13.9414 -19.7898 -1.2687 0.9076
-10.3996 -19.3486 -1.1512 0.9158
-5.3147 -20.6321 -1.1166 0.9182
-2.8989 -21.9055 -1.1580 0.9153
-0.3822 -34.6300 -1.8150 0.8705
16.3934 -44.8299 -2.5016 0.8260
21.4293 -42.0708 -2.4744 0.8277
23.1069 -34.3880 -2.1713 0.8471
31.5348 -28.6830 -2.2340 0.8430
39.4055 -21.3741 -2.3494 0.8356
41.6897 -16.4807 -2.3494 0.8356
47.2964 -6.4429 -2.5016 0.8260
44.5790 4.7289 -2.3494 0.8356
43.6868 10.0552 -2.3494 0.8356
26.7570 13.5008 -1.5707 0.8869
12.8602 8.5704 -0.8099 0.9400
10.0656 8.6232 -0.6946 0.9483
6.5779 46.9478 -2.4845 0.8271
0.1621 8.6840 -0.4552 0.9658
-2.1048 5.8949 -0.3280 0.9752
-4.3215 8.6466 -0.5066 0.9620
-7.4220 8.7306 -0.6005 0.9551
-9.4664 8.7432 -0.6753 0.9497
-15.7895 8.7210 -0.9453 0.9303
-21.3484 8.6283 -1.2067 0.9119
-26.7224 7.2106 -1.4505 0.8951
-40.0025 -8.8863 -2.1475 0.8486
-44.4928 -15.6952 -2.4726 0.8278
-39.9217 -26.1671 -2.5016 0.8260
-14.4083 -19.8039 -1.2835 0.9066
-10.7224 -19.2395 -1.1543 0.9156
-7.8957 -19.3234 -1.0940 0.9198
4.4918 -47.5214 -2.5016 0.8260
10.1735 -46.6365 -2.5016 0.8260
21.0079 -42.8477 -2.5009 0.8260
23.0719 -35.4942 -2.2186 0.8440
28.7741 -34.3760 -2.3494 0.8356
45.9888 -12.7863 -2.5016 0.8260
47.1926 -7.1636 -2.5016 0.8260
47.7116 -1.4370 -2.5016 0.8260
43.8352 9.3874 -2.3494 0.8356
26.8157 9.2301 -1.4863 0.8926
26.7484 12.9883 -1.5583 0.8877
26.8257 17.2921 -1.6727 0.8800
8.1603 8.6349 -0.6226 0.9535
6.3917 8.6458 -0.5635 0.9578
4.9065 8.6479 -0.5211 0.9610
3.5905 8.5992 -0.4884 0.9634
1.3317 8.5528 -0.4536 0.9659
0.2947 8.6832 -0.4553 0.9658
-4.1575 8.6458 -0.5028 0.9623
-5.5036 8.6098 -0.5355 0.9599
-11.7515 8.7573 -0.7681 0.9430
-20.5573 8.6758 -1.1694 0.9145
-25.0542 7.1723 -1.3658 0.9009
-44.8192 7.1537 -2.3786 0.8338
-38.0652 -7.8486 -2.0369 0.8558
-43.7033 -14.6710 -2.4160 0.8314
-43.0966 -20.5217 -2.5016 0.8260
-36.9509 -30.2174 -2.5016 0.8260
-24.9480 -25.9988 -1.8884 0.8656
-8.1724 -19.1602 -1.0917 0.9200
-5.8999 -20.3162 -1.1087 0.9188
-3.5320 -21.5994 -1.1470 0.9161
-1.1043 -26.5598 -1.3931 0.8990
9.4607 -46.7863 -2.5016 0.8260
20.3573 -43.1746 -2.5016 0.8260
23.0612 -36.6905 -2.2711 0.8406
31.2727 -30.2386 -2.2798 0.8401
31.9374 -24.1808 -2.0994 0.8518
41.2743 -12.1570 -2.2550 0.8417
47.6841 -2.1648 -2.5016 0.8260
47.5984 3.5847 -2.5016 0.8260
43.9733 8.7175 -2.3494 0.8356
25.3931 8.3093 -1.4002 0.8985
26.8147 16.7114 -1.6559 0.8811
8.4118 8.6333 -0.6317 0.9529
6.5971 8.6445 -0.5699 0.9574
23.7830 40.4676 -2.4600 0.8286
3.7450 8.5980 -0.4915 0.9631
2.5611 8.5743 -0.4690 0.9648
-0.6210 8.6888 -0.4565 0.9657
-2.8097 8.6986 -0.4791 0.9640
-5.3257 8.6185 -0.5310 0.9602
-6.9723 8.7279 -0.5854 0.9562
-8.9017 8.7397 -0.6538 0.9513
-14.7896 8.7679 -0.9011 0.9335
-19.8137 8.7204 -1.1345 0.9169
-44.7298 7.8409 -2.3799 0.8337
-44.8855 -3.0363 -2.3577 0.8351
-40.4965 -7.7077 -2.1604 0.8478
-40.7015 -24.9369 -2.5016 0.8260
-11.6394 -19.4634 -1.1885 0.9132
-8.5053 -19.1268 -1.0970 0.9196
3.0399 -47.6363 -2.5016 0.8260
19.6961 -43.4801 -2.5016 0.8260
23.2738 -38.3142 -2.3494 0.8356
27.7120 -35.2377 -2.3494 0.8356
31.5595 -24.6613 -2.0990 0.8518
38.9893 -12.1335 -2.1400 0.8491
46.9521 -8.6003 -2.5016 0.8260
47.6455 -2.8921 -2.5016 0.8260
47.6476 2.8582 -2.5016 0.8260
44.1012 8.0457 -2.3494 0.8356
27.9347 12.5260 -1.6044 0.8846
26.8040 16.1424 -1.6398 0.8822
11.0437 8.6172 -0.7341 0.9454
8.6709 8.6317 -0.6412 0.9522
6.8072 8.6432 -0.5766 0.9569
5.2645 8.6527 -0.5308 0.9602
-3.1430 -21.4769 -1.8990 0.9165
6.1366 -27.9270 -2.5016 0.8915
9.4502 -26.9865 -2.5016 0.8915
15.6198 -23.9499 -2.5016 0.8915
18.3864 -21.8979 -2.5016 0.8915
24.9444 -13.9770 -2.5016 0.8915
26.4440 -10.8761 -2.5016 0.8915
27.5600 -7.6174 -2.5016 0.8915
24.1788 11.7860 -2.3533 0.8976
13.5855 8.7866 -1.4155 0.9371
3.5693 8.5852 -0.8134 0.9634
1.3121 8.5125 -0.7535 0.9660
-0.7679 8.6897 -0.7632 0.9656
-1.8415 8.6964 -0.7777 0.9649
-5.5066 8.5858 -0.8924 0.9599
-7.2167 8.7294 -0.9909 0.9555
-9.2077 8.7416 -1.1108 0.9503
-11.7892 8.7575 -1.2849 0.9427
-15.2012 8.6707 -1.5311 0.9321
-25.5199 7.2636 -2.3214 0.8989
-23.8440 3.7686 -2.1120 0.9076
-27.9954 -5.8167 -2.5016 0.8915
-24.1271 -15.3448 -2.5016 0.8915
-11.0559 -19.2124 -1.9393 0.9148
-5.7953 -20.0703 -1.8277 0.9195
-3.4519 -21.3131 -1.8889 0.9170
2.0750 -25.7180 -2.2573 0.9016
5.7098 -28.0174 -2.5016 0.8915
15.2526 -24.1854 -2.5016 0.8915
18.0501 -22.1759 -2.5016 0.8915
20.5857 -19.8445 -2.5016 0.8915
22.8088 -17.2148 -2.5001 0.8916
24.7282 -14.3559 -2.5016 0.8915
28.2079 -4.6791 -2.5016 0.8915
26.3331 5.2620 -2.3494 0.8978
24.3413 11.4090 -2.3519 0.8977
8.3864 8.6335 -1.0530 0.9528
6.5764 8.6446 -0.9503 0.9573
5.0539 8.6295 -0.8749 0.9606
2.5404 8.5525 -0.7806 0.9648
1.4453 8.5114 -0.7553 0.9659
0.2743 5.7496 -0.5036 0.9772
-4.0131 8.6478 -0.8341 0.9624
-5.3291 8.5947 -0.8848 0.9602
-8.9290 8.7399 -1.0931 0.9511
-19.6645 8.6190 -1.8784 0.9174
-25.1421 7.5726 -2.2973 0.8999
-25.1270 1.2945 -2.2012 0.9039
-28.4551 -1.9683 -2.4954 0.8918
-28.0809 -5.3889 -2.5016 0.8915
-25.9823 -11.9372 -2.5016 0.8915
-24.3584 -14.9749 -2.5016 0.8915
-15.4260 -19.9596 -2.2070 0.9037
-11.4816 -19.2661 -1.9622 0.9139
-8.4004 -18.9686 -1.8150 0.9201
-6.0821 -19.9181 -1.8220 0.9198
-1.3715 -24.7796 -2.1713 0.9052
1.6848 -25.7850 -2.2607 0.9014
5.2818 -28.1012 -2.5016 0.8915
11.8380 -26.0276 -2.5016 0.8915
14.8819 -24.4153 -2.5016 0.8915
20.2806 -20.1563 -2.5016 0.8915
24.5063 -14.7315 -2.5016 0.8915
26.0999 -11.6778 -2.5016 0.8915
27.3147 -8.4547 -2.5016 0.8915
28.5434 -1.6890 -2.5016 0.8915
28.5394 1.7555 -2.5016 0.8915
26.4103 4.8597 -2.3494 0.8978
25.6343 8.0001 -2.3494 0.8978
24.4978 11.0296 -2.3505 0.8977
23.1004 13.9599 -2.3614 0.8973
11.0094 8.6174 -1.2232 0.9454
5.2457 8.6515 -0.8852 0.9602
2.6851 8.5591 -0.7848 0.9646
0.3611 5.7312 -0.5024 0.9772
-5.1545 8.6035 -0.8775 0.9605
-6.7730 8.7215 -0.9661 0.9566
-8.6590 8.7382 -1.0763 0.9518
-11.0615 8.7530 -1.2341 0.9449
-25.1448 7.9938 -2.3084 0.8995
-26.3842 4.9995 -2.3494 0.8978
-27.7893 -1.4966 -2.4348 0.8943
-24.5840 -14.6015 -2.5016 0.8915
-22.6499 -17.4516 -2.5016 0.8915
-19.1467 -18.8288 -2.3494 0.8978
-16.2581 -20.3857 -2.2813 0.9006
-6.3672 -19.7669 -1.8169 0.9200
-1.6800 -23.7739 -2.0851 0.9087
1.3419 -26.8201 -2.3494 0.8978
4.8524 -28.1785 -2.5016 0.8915
8.2055 -27.3906 -2.5016 0.8915
14.5076 -24.6395 -2.5016 0.8915
17.3651 -22.7163 -2.5016 0.8915
24.2787 -15.1037 -2.5016 0.8915
25.9187 -12.0747 -2.5016 0.8915
28.0520 -5.5375 -2.5016 0.8915
28.5628 1.3199 -2.5016 0.8915
25.7534 7.6081 -2.3494 0.8978
24.6517 10.6496 -2.3494 0.8978
11.3596 8.6152 -1.2473 0.9444
8.9071 8.6266 -1.0848 0.9514
5.4281 8.6517 -0.8936 0.9598
4.0501 8.6078 -0.8323 0.9625
2.8314 8.5657 -0.7893 0.9644
1.7146 8.5147 -0.7599 0.9657
0.6800 8.6808 -0.7618 0.9656
-1.4289 8.6938 -0.7708 0.9652
-2.5343 8.7006 -0.7928 0.9643
-3.7030 8.6624 -0.8242 0.9629
-4.9827 8.6121 -0.8705 0.9608
-10.7173 8.7498 -1.2104 0.9460
-24.5953 8.2343 -2.2692 0.9011
-23.4927 1.9305 -2.0623 0.9097
-26.3344 -11.1390 -2.5016 0.8915
-9.1011 -18.9659 -1.8405 0.9190
-6.6610 -19.6470 -1.8150 0.9201
-4.3604 -20.8313 -1.8620 0.9181
-1.9650 -22.8447 -2.0060 0.9120
0.9326 -26.8375 -2.3494 0.8978
11.0384 -26.3767 -2.5016 0.8915
17.0166 -22.9785 -2.5016 0.8915
24.0454 -15.4724 -2.5016 0.8915
27.0441 -9.2842 -2.5016 0.8915
28.5796 0.8840 -2.5016 0.8915
25.8664 7.2143 -2.3494 0.8978
23.4886 13.2333 -2.3587 0.8974
12.4693 9.1606 -1.3537 0.9398
9.1855 8.6286 -1.1026 0.9507
7.2207 8.6407 -0.9852 0.9558
4.2155 8.6155 -0.8391 0.9622
2.9795 8.5724 -0.7940 0.9642
-0.2355 8.6865 -0.7602 0.9657
-4.8135 8.6205 -0.8638 0.9611
-6.2306 8.5492 -0.9255 0.9584
-10.3885 8.7489 -1.1882 0.9469
-17.1948 8.4947 -1.6779 0.9259
-26.2193 5.8022 -2.3494 0.8978
-27.5999 -7.4713 -2.5016 0.8915
-20.9263 -19.3591 -2.4941 0.8918
-12.8226 -19.4352 -2.0371 0.9107
-9.4839 -19.0142 -1.8590 0.9182
-6.9601 -19.5430 -1.8150 0.9201
-4.6577 -20.6736 -1.8540 0.9184
-2.2292 -21.9833 -1.9331 0.9151
7.3660 -27.6282 -2.5016 0.8915
10.6347 -26.5420 -2.5016 0.8915
16.6640 -23.2355 -2.5016 0.8915
21.7295 -18.5851 -2.5016 0.8915
23.8066 -15.8374 -2.5016 0.8915
28.4362 -2.9932 -2.5016 0.8915
28.3285 3.8824 -2.5016 0.8915
12.6064 8.9684 -1.3535 0.9398
7.4464 8.6393 -0.9979 0.9552
5.8017 8.6494 -0.9112 0.9590
1.9897 8.5273 -0.7661 0.9655
-2.2483 8.6989 -0.7861 0.9646
-3.3999 8.6766 -0.8153 0.9633
-4.6449 8.6252 -0.8571 0.9614
-7.8959 8.7336 -1.0301 0.9538
-10.0702 8.7469 -1.1670 0.9479
-16.6277 8.5326 -1.6351 0.9277
-26.1302 6.2021 -2.3496 0.8978
-26.8528 -0.2157 -2.3494 0.8978
-27.7107 -7.0495 -2.5016 0.8915
-26.6620 -10.3304 -2.5016 0.8915
-21.2792 -19.0914 -2.5011 0.8916
-9.8744 -19.0634 -1.8783 0.9174
-4.9526 -20.5172 -1.8466 0.9187
-2.5464 -21.7933 -1.9196 0.9157
0.1133 -26.8534 -2.3494 0.8978
10.2285 -26.7012 -2.5016 0.8915
13.3650 -25.2775 -2.5016 0.8915
19.0135 -21.3557 -2.5016 0.8915
25.3391 -13.2479 -2.5016 0.8915
27.7692 -6.8153 -2.5016 0.8915
28.3872 -3.4267 -2.5016 0.8915
28.5933 0.0116 -2.5016 0.8915
25.1131 9.5105 -2.3494 0.8978
7.6779 8.6378 -1.0111 0.9547
5.9942 8.6482 -0.9206 0.9586
2.1289 8.5337 -0.7695 0.9653
1.0762 8.6380 -0.7616 0.9657
-1.0227 8.6913 -0.7656 0.9655
-3.2507 8.6836 -0.8112 0.9635
-4.4770 8.6261 -0.8503 0.9617
-5.8528 8.5683 -0.9078 0.9592
-7.6557 8.7321 -1.0160 0.9544
-16.0886 8.5686 -1.5948 0.9294
-23.5676 3.0275 -2.0788 0.9090
-25.4288 -13.0749 -2.5016 0.8915
-23.6721 -16.0377 -2.5016 0.8915
-10.2734 -19.1137 -1.8985 0.9166
6.5197 -27.8401 -2.5016 0.8915
12.9778 -25.4785 -2.5016 0.8915
18.6854 -21.6433 -2.5016 0.8915
23.3014 -16.5487 -2.5004 0.8916
25.1340 -13.6330 -2.5016 0.8915
26.5909 -10.5119 -2.5016 0.8915
27.6620 -7.2382 -2.5016 0.8915
28.5901 -0.4247 -2.5016 0.8915
24.0274 12.1235 -2.3546 0.8976
12.8602 8.5704 -1.3521 0.9398
10.0656 8.6232 -1.1596 0.9482
6.1908 8.6470 -0.9304 0.9582
4.7290 8.6396 -0.8617 0.9612
0.1621 8.6840 -0.7599 0.9657
-0.8884 8.6905 -0.7643 0.9655
-2.1044 5.8938 -0.5475 0.9752
-4.3150 8.6337 -0.8444 0.9620
-7.4220 8.7306 -1.0025 0.9550
-9.4664 8.7432 -1.1274 0.9496
-15.5753 8.6027 -1.5567 0.9310
-20.8844 8.4407 -1.9707 0.9135
-25.9549 7.0035 -2.3520 0.8977
-26.8469 0.6037 -2.3494 0.8978
-27.9129 -6.2006 -2.5016 0.8915
-25.6253 -12.6854 -2.5016 0.8915
-21.8557 -18.4365 -2.5016 0.8915
-14.2732 -19.6181 -2.1226 0.9072
-10.6810 -19.1651 -1.9195 0.9157
-5.5355 -20.2080 -1.8331 0.9193
-3.1739 -21.4605 -1.8980 0.9166
6.0941 -27.9363 -2.5016 0.8915
9.4091 -27.0008 -2.5016 0.8915
15.5834 -23.9736 -2.5016 0.8915
20.8563 -19.5599 -2.5016 0.8915
24.9231 -14.0149 -2.5016 0.8915
27.5484 -7.6593 -2.5016 0.8915
28.2695 -4.2912 -2.5016 0.8915
28.4765 2.5821 -2.5016 0.8915
13.6032 8.7687 -1.4160 0.9371
10.3798 8.6213 -1.1805 0.9473
8.1603 8.6349 -1.0394 0.9534
4.9065 8.6479 -0.8699 0.9609
2.4114 8.5466 -0.7769 0.9650
-0.7545 8.6897 -0.7631 0.9656
-1.8277 8.6963 -0.7774 0.9649
-2.0277 5.9649 -0.5512 0.9750
-4.1552 8.6412 -0.8389 0.9622
-5.4888 8.5867 -0.8916 0.9599
-9.1795 8.7415 -1.1090 0.9504
-20.1914 8.5213 -1.9174 0.9158
-23.8588 3.8082 -2.1138 0.9075
-26.8345 1.0132 -2.3494 0.8978
-28.0042 -5.7741 -2.5016 0.8915
-22.1344 -18.1009 -2.5016 0.8915
-14.7846 -19.6826 -2.1537 0.9059
-11.0979 -19.2177 -1.9415 0.9147
-5.8240 -20.0550 -1.8271 0.9196
-1.0710 -25.7590 -2.2556 0.9017
2.0347 -25.7072 -2.2561 0.9016
5.6672 -28.0261 -2.5016 0.8915
15.2159 -24.2086 -2.5016 0.8915
18.0164 -22.2033 -2.5016 0.8915
20.5555 -19.8758 -2.5016 0.8915
24.7064 -14.3935 -2.5016 0.8915
28.5639 -1.2968 -2.5016 0.8915
26.3410 5.2220 -2.3494 0.8978
24.3572 11.3712 -2.3518 0.8977
10.7055 8.6192 -1.2024 0.9463
8.4118 8.6333 -1.0546 0.9528
6.5971 8.6445 -0.9514 0.9573
0.2828 5.7438 -0.5031 0.9772
-1.6894 8.6954 -0.7750 0.9651
-3.9975 8.6486 -0.8336 0.9625
-5.3115 8.5956 -0.8840 0.9602
-11.3818 8.7550 -1.2563 0.9440
-25.0990 1.3314 -2.1990 0.9040
-28.4511 -1.9246 -2.4948 0.8918
-26.0004 -11.8977 -2.5016 0.8915
-24.3811 -14.9378 -2.5016 0.8915
-22.4080 -17.7611 -2.5016 0.8915
-18.8862 -19.0900 -2.3494 0.8978
-8.4293 -18.9558 -1.8150 0.9201
-1.4033 -24.6757 -2.1623 0.9055
1.7102 -26.7991 -2.3494 0.8978
11.7984 -26.0456 -2.5016 0.8915
14.8447 -24.4379 -2.5016 0.8915
17.6755 -22.4756 -2.5016 0.8915
22.5211 -17.5984 -2.5006 0.8916
27.3018 -8.4963 -2.5016 0.8915
28.1254 -5.1518 -2.5016 0.8915
28.5420 1.7121 -2.5016 0.8915
6.8072 8.6432 -0.9625 0.9568
5.2645 8.6527 -0.8861 0.9601
3.9035 8.6009 -0.8263 0.9628
-2.7706 -18.9326 -2.3494 0.9258
-0.4740 -19.1284 -2.3494 0.9258
1.9423 -20.2197 -2.4941 0.9214
4.3726 -19.8991 -2.5016 0.9212
8.9970 -18.2797 -2.5016 0.9212
11.1297 -17.0652 -2.5016 0.9212
17.7738 -9.9591 -2.5016 0.9212
18.8424 -7.7496 -2.5016 0.9212
19.6375 -5.4277 -2.5016 0.9212
20.1477 -3.0270 -2.5016 0.9212
19.5457 4.2169 -2.4551 0.9226
13.5855 8.7866 -1.9866 0.9369
8.1356 8.6350 -1.4567 0.9533
4.8756 8.6242 -1.2164 0.9609
3.5574 8.5565 -1.1378 0.9633
-1.8415 8.6964 -1.0915 0.9648
-2.0272 5.9336 -0.7699 0.9750
-5.4670 8.5240 -1.2434 0.9600
-7.2167 8.7294 -1.3907 0.9554
-9.2077 8.7416 -1.5589 0.9501
-11.7892 8.7575 -1.8032 0.9425
-15.2012 8.6707 -2.1488 0.9319
-17.6400 7.4129 -2.3494 0.9258
-18.4033 5.2380 -2.3494 0.9258
-18.8997 2.9871 -2.3494 0.9258
-18.3815 -8.7872 -2.5016 0.9212
-17.1915 -10.9337 -2.5016 0.9212
-15.7520 -12.9216 -2.5016 0.9212
-14.0839 -14.7219 -2.5016 0.9212
-11.5073 -15.3682 -2.3573 0.9255
-9.5436 -16.5843 -2.3494 0.9258
-7.4802 -17.6116 -2.3494 0.9258
-5.3082 -18.3832 -2.3494 0.9258
-3.0592 -18.8881 -2.3494 0.9258
-0.7658 -19.1189 -2.3494 0.9258
1.5751 -19.5228 -2.4049 0.9241
4.0685 -19.9635 -2.5016 0.9212
14.6681 -14.1400 -2.5016 0.9212
16.2620 -12.2736 -2.5016 0.9212
17.6198 -10.2291 -2.5016 0.9212
18.7220 -8.0362 -2.5016 0.9212
20.3542 -0.8930 -2.5016 0.9212
20.3139 1.5610 -2.5016 0.9212
19.8283 3.9622 -2.4827 0.9217
18.1763 5.9784 -2.3494 0.9258
17.3256 8.1206 -2.3494 0.9258
13.9764 8.7399 -2.0240 0.9357
10.6725 8.6194 -1.6844 0.9462
8.3864 8.6335 -1.4779 0.9527
6.5764 8.6446 -1.3337 0.9572
5.0539 8.6295 -1.2279 0.9605
1.4388 8.4733 -1.0553 0.9660
0.2743 5.7495 -0.7068 0.9771
-1.7031 8.6955 -1.0880 0.9649
-5.2921 8.5350 -1.2331 0.9603
-6.9942 8.7280 -1.3733 0.9559
-11.4180 8.7552 -1.7667 0.9437
-14.8017 8.7448 -2.1109 0.9331
-18.3213 5.5182 -2.3494 0.9258
-18.8519 3.2751 -2.3494 0.9258
-20.3468 1.0482 -2.5016 0.9212
-20.3253 -1.4060 -2.5016 0.9212
-20.0087 -3.8398 -2.5016 0.9212
-17.3563 -10.6702 -2.5016 0.9212
-14.3069 -14.5054 -2.5016 0.9212
-11.9569 -15.4709 -2.4008 0.9242
-9.7955 -16.4368 -2.3494 0.9258
-7.7480 -17.4954 -2.3494 0.9258
-5.5880 -18.3001 -2.3494 0.9258
1.2476 -19.0935 -2.3494 0.9258
3.7635 -20.0232 -2.5016 0.9212
8.4351 -18.5457 -2.5016 0.9212
12.6188 -15.9956 -2.5016 0.9212
16.0728 -12.5203 -2.5016 0.9212
17.4617 -10.4968 -2.5016 0.9212
18.5972 -8.3209 -2.5016 0.9212
19.4628 -6.0243 -2.5016 0.9212
20.0460 -3.6403 -2.5016 0.9212
20.3383 -1.2035 -2.5016 0.9212
20.3354 1.2509 -2.5016 0.9212
19.9934 3.6790 -2.4961 0.9213
17.4474 7.8554 -2.3494 0.9258
16.3763 9.8964 -2.3494 0.9258
11.0094 8.6174 -1.7166 0.9452
6.7861 8.6433 -1.3493 0.9567
2.6739 8.5234 -1.0968 0.9646
-0.5012 8.6881 -1.0685 0.9655
-3.8430 8.6233 -1.1592 0.9627
-5.1199 8.5458 -1.2232 0.9606
-6.4981 8.3675 -1.3008 0.9582
-8.6590 8.7382 -1.5105 0.9516
-11.0615 8.7530 -1.7320 0.9447
-14.3455 8.7732 -2.0647 0.9345
-17.4056 7.9477 -2.3494 0.9258
-18.2350 5.7971 -2.3494 0.9258
-18.7997 3.5624 -2.3494 0.9258
-20.3171 1.3578 -2.5002 0.9212
-20.3444 -1.0957 -2.5016 0.9212
-18.6410 -8.2223 -2.5016 0.9212
-17.5170 -10.4041 -2.5016 0.9212
-12.4387 -15.5966 -2.4495 0.9228
-10.0451 -16.2854 -2.3494 0.9258
-1.3487 -19.0867 -2.3494 0.9258
5.8468 -19.5169 -2.5016 0.9212
10.3372 -17.5566 -2.5016 0.9212
15.8799 -12.7640 -2.5016 0.9212
18.4681 -8.6036 -2.5016 0.9212
19.3686 -6.3205 -2.5016 0.9212
19.9881 -3.9457 -2.5016 0.9212
20.3175 -1.5136 -2.5016 0.9212
20.3521 0.9405 -2.5016 0.9212
20.0914 3.3809 -2.5016 0.9212
7.0007 8.6420 -1.3656 0.9562
4.0340 8.5735 -1.1634 0.9625
2.8193 8.5290 -1.1030 0.9644
-2.5343 8.7006 -1.1127 0.9641
-3.6902 8.6323 -1.1527 0.9629
-6.3327 8.4165 -1.2933 0.9584
-10.7173 8.7498 -1.6988 0.9458
-13.8610 8.7702 -2.0140 0.9360
-17.2823 8.2123 -2.3494 0.9258
-18.1444 6.0746 -2.3494 0.9258
-18.7432 3.8488 -2.3494 0.9258
-20.2567 1.6646 -2.4956 0.9214
-19.5825 -5.6231 -2.5016 0.9212
-18.7643 -7.9370 -2.5016 0.9212
-12.9088 -15.6889 -2.4946 0.9214
-1.6398 -19.0638 -2.3494 0.9258
7.8653 -18.7944 -2.5016 0.9212
14.0058 -14.7963 -2.5016 0.9212
15.6833 -13.0049 -2.5016 0.9212
18.3347 -8.8844 -2.5016 0.9212
20.1406 3.0740 -2.5016 0.9212
11.9755 3.3400 -1.5265 0.9511
16.6706 9.3921 -2.3494 0.9258
12.4693 9.1606 -1.8998 0.9395
5.6131 8.6505 -1.2662 0.9593
4.1977 8.5792 -1.1727 0.9622
-0.2355 8.6865 -1.0670 0.9656
-1.2929 8.6930 -1.0791 0.9652
-2.3907 8.6997 -1.1078 0.9643
-3.5390 8.6412 -1.1465 0.9631
-6.1691 8.4647 -1.2861 0.9587
-10.3885 8.7489 -1.6676 0.9467
-13.3995 8.7674 -1.9661 0.9375
-17.1550 8.4750 -2.3494 0.9258
-18.0496 6.3507 -2.3494 0.9258
-20.3683 -0.4745 -2.5016 0.9212
-20.1635 -2.9202 -2.5016 0.9212
-17.8263 -9.8649 -2.5016 0.9212
-13.1681 -15.5154 -2.4987 0.9213
-10.5373 -15.9714 -2.3494 0.9258
-7.4921 -15.0209 -2.0610 0.9346
-4.2055 -18.6664 -2.3494 0.9258
2.8433 -20.1744 -2.5016 0.9212
5.2486 -19.6862 -2.5016 0.9212
11.8737 -16.5562 -2.5016 0.9212
18.1970 -9.1631 -2.5016 0.9212
19.1668 -6.9086 -2.5016 0.9212
20.2619 -2.1328 -2.5016 0.9212
18.5071 4.8587 -2.3494 0.9258
17.7886 7.0488 -2.3494 0.9258
16.8119 9.1367 -2.3494 0.9258
12.6064 8.9684 -1.8996 0.9396
7.4464 8.6393 -1.4004 0.9551
5.8017 8.6494 -1.2788 0.9589
4.3641 8.5849 -1.1825 0.9619
0.9471 8.6792 -1.0720 0.9654
-1.1575 8.6921 -1.0767 0.9653
-2.2483 8.6989 -1.1032 0.9644
-4.6188 8.5767 -1.1961 0.9615
-7.8959 8.7336 -1.4456 0.9537
-10.0702 8.7469 -1.6378 0.9477
-17.0237 8.7358 -2.3494 0.9258
-17.9506 6.6254 -2.3494 0.9258
-19.1324 2.1616 -2.3641 0.9253
-17.9747 -9.5917 -2.5016 0.9212
-16.6910 -11.6835 -2.5016 0.9212
-10.7798 -15.8087 -2.3494 0.9258
-8.8006 -16.9903 -2.3494 0.9258
-6.6938 -17.9252 -2.3494 0.9258
-4.4898 -18.6000 -2.3494 0.9258
0.0807 -19.1341 -2.3494 0.9258
2.5352 -20.2155 -2.5016 0.9212
7.2882 -19.0256 -2.5016 0.9212
11.6198 -16.7354 -2.5016 0.9212
19.7866 -4.8562 -2.5016 0.9212
20.3738 0.0083 -2.5016 0.9212
20.2250 2.4580 -2.5016 0.9212
17.8941 6.7766 -2.3494 0.9258
16.9494 8.8791 -2.3494 0.9258
9.7623 8.6250 -1.5995 0.9489
7.6779 8.6378 -1.4190 0.9545
5.9942 8.6482 -1.2920 0.9585
4.5332 8.5907 -1.1927 0.9616
3.2657 8.5458 -1.1233 0.9638
2.1209 8.5015 -1.0758 0.9653
1.0762 8.6381 -1.0688 0.9655
-5.8077 8.5024 -1.2643 0.9594
-9.7631 8.7450 -1.6093 0.9485
-20.3733 0.1472 -2.5016 0.9212
-18.1190 -9.3164 -2.5016 0.9212
-13.6513 -15.1240 -2.5016 0.9212
-11.0197 -15.6424 -2.3494 0.9258
-9.0588 -16.8540 -2.3494 0.9258
-6.9665 -17.8210 -2.3494 0.9258
-4.7731 -18.5294 -2.3494 0.9258
-0.2111 -19.1331 -2.3494 0.9258
2.2237 -20.2263 -2.4984 0.9213
4.6455 -19.8371 -2.5016 0.9212
9.2472 -18.1544 -2.5016 0.9212
11.3631 -16.9107 -2.5016 0.9212
13.3141 -15.4217 -2.5016 0.9212
16.6109 -11.7971 -2.5016 0.9212
20.3716 -0.3026 -2.5016 0.9212
19.2484 4.4303 -2.4252 0.9235
17.0829 8.6195 -2.3494 0.9258
10.0656 8.6232 -1.6274 0.9480
6.1908 8.6470 -1.3058 0.9580
4.7054 8.5965 -1.2033 0.9613
2.6907 19.2042 -2.3810 0.9248
-0.8884 8.6905 -1.0726 0.9654
-1.9668 8.6971 -1.0948 0.9647
-2.1040 5.8926 -0.7683 0.9751
-4.2964 8.5962 -1.1800 0.9620
-5.6271 8.5139 -1.2531 0.9597
-7.4220 8.7306 -1.4070 0.9549
-17.7401 7.1699 -2.3494 0.9258
-18.4735 4.9848 -2.3494 0.9258
-20.3687 0.4580 -2.5016 0.9212
-19.8890 -4.4182 -2.5016 0.9212
-7.2375 -17.7126 -2.3494 0.9258
1.9059 -20.1632 -2.4868 0.9216
4.3423 -19.9057 -2.5016 0.9212
14.8609 -13.9372 -2.5016 0.9212
16.4290 -12.0491 -2.5016 0.9212
17.7587 -9.9861 -2.5016 0.9212
20.1431 -3.0576 -2.5016 0.9212
20.3646 -0.6133 -2.5016 0.9212
20.2906 1.8399 -2.5016 0.9212
19.5760 4.1922 -2.4581 0.9225
17.2124 8.3578 -2.3494 0.9258
13.6032 8.7687 -1.9872 0.9369
10.3798 8.6213 -1.6568 0.9471
4.8950 8.6277 -1.2180 0.9608
2.4019 8.5127 -1.0860 0.9650
1.3164 8.4549 -1.0506 0.9661
0.2947 8.6832 -1.0668 0.9656
-0.7545 8.6897 -1.0710 0.9655
-4.1382 8.6058 -1.1725 0.9622
-5.4494 8.5251 -1.2423 0.9600
-7.1943 8.7292 -1.3889 0.9554
-15.1607 8.6782 -2.1449 0.9320
-17.6287 7.4398 -2.3494 0.9258
-18.3953 5.2660 -2.3494 0.9258
-18.8951 3.0159 -2.3494 0.9258
-20.3040 -1.6851 -2.5016 0.9212
-19.9541 -4.1143 -2.5016 0.9212
-18.3948 -8.7592 -2.5016 0.9212
-11.5514 -15.3783 -2.3616 0.9254
-5.3362 -18.3751 -2.3494 0.9258
-3.0879 -18.8834 -2.3494 0.9258
1.5407 -19.4666 -2.3977 0.9243
4.0381 -19.9696 -2.5016 0.9212
6.4100 -19.3392 -2.5016 0.9212
10.8419 -17.2495 -2.5016 0.9212
17.6042 -10.2559 -2.5016 0.9212
20.3529 -0.9240 -2.5016 0.9212
20.3163 1.5300 -2.5016 0.9212
19.8448 3.9341 -2.4841 0.9217
18.1854 5.9507 -2.3494 0.9258
10.7055 8.6192 -1.6876 0.9461
6.5971 8.6445 -1.3352 0.9571
9.7859 16.6512 -2.3714 0.9251
2.5444 8.5183 -1.0916 0.9648
1.4521 8.4739 -1.0556 0.9659
0.2827 5.7438 -0.7061 0.9771
-0.6210 8.6888 -1.0696 0.9655
-1.6894 8.6954 -1.0876 0.9649
-3.9820 8.6151 -1.1653 0.9625
-6.9723 8.7279 -1.3716 0.9560
-8.9017 8.7397 -1.5317 0.9510
-11.3818 8.7550 -1.7631 0.9438
-14.7627 8.7520 -2.1072 0.9332
-20.3274 -1.3750 -2.5016 0.9212
-19.4113 -6.1884 -2.5016 0.9212
-18.5263 -8.4775 -2.5016 0.9212
-15.9666 -12.6554 -2.5016 0.9212
-14.3290 -14.4836 -2.5016 0.9212
-7.7746 -17.4836 -2.3494 0.9258
-3.3756 -18.8342 -2.3494 0.9258
-1.0864 -19.1034 -2.3494 0.9258
8.4068 -18.5585 -2.5016 0.9212
10.5774 -17.4129 -2.5016 0.9212
12.5945 -16.0147 -2.5016 0.9212
16.0537 -12.5447 -2.5016 0.9212
18.5845 -8.3492 -2.5016 0.9212
20.0404 -3.6708 -2.5016 0.9212
20.3364 -1.2344 -2.5016 0.9212
20.3373 1.2200 -2.5016 0.9212
20.0097 3.6505 -2.4974 0.9213
18.2740 5.6726 -2.3494 0.9258
17.4594 7.8288 -2.3494 0.9258
16.3913 9.8714 -2.3494 0.9258
11.0437 8.6172 -1.7199 0.9451
5.2645 8.6527 -1.2436 0.9600
3.8887 8.5683 -1.1553 0.9628
-0.3912 -15.7896 -2.5016 0.9380
1.5102 -15.7220 -2.5016 0.9380
3.3898 -15.4264 -2.5016 0.9380
6.9747 -14.1710 -2.5016 0.9380
8.6281 -13.2295 -2.5016 0.9380
10.1563 -12.0960 -2.5016 0.9380
11.5371 -10.7870 -2.5016 0.9380
12.7505 -9.3214 -2.5016 0.9380
14.6072 -6.0077 -2.5016 0.9380
14.0185 4.8491 -2.3494 0.9417
10.3479 8.6214 -2.1332 0.9469
3.5250 8.4785 -1.4543 0.9635
0.2815 8.6833 -1.3760 0.9654
-0.7679 8.6897 -1.3817 0.9653
-2.0265 5.9316 -0.9928 0.9749
-7.2167 8.7294 -1.7939 0.9552
-12.8848 7.3494 -2.3494 0.9417
-13.6750 5.7467 -2.3494 0.9417
-14.2668 4.0607 -2.3494 0.9417
-15.7383 -1.3302 -2.5016 0.9380
-15.4641 -3.2130 -2.5016 0.9380
-14.2499 -6.8121 -2.5016 0.9380
-13.3273 -8.4762 -2.5016 0.9380
-12.2114 -10.0172 -2.5016 0.9380
-9.4667 -12.6430 -2.5016 0.9380
-7.8778 -13.6896 -2.5016 0.9380
-6.1598 -14.5028 -2.4956 0.9382
3.1540 -15.4763 -2.5016 0.9380
4.9921 -14.9847 -2.5016 0.9380
6.7577 -14.2757 -2.5016 0.9380
9.9706 -12.2496 -2.5016 0.9380
11.3712 -10.9618 -2.5016 0.9380
14.5138 -6.2299 -2.5016 0.9380
15.1576 -4.4395 -2.5016 0.9380
15.5815 -2.5846 -2.5016 0.9380
15.7792 -0.6923 -2.5016 0.9380
15.4882 3.0950 -2.5016 0.9380
14.0908 4.6347 -2.3494 0.9417
5.7010 3.5651 -1.0650 0.9731
10.6725 8.6194 -2.1728 0.9460
5.0539 8.6295 -1.5839 0.9603
2.5080 8.4433 -1.3950 0.9650
0.2743 5.7495 -0.9117 0.9770
-0.6344 8.6889 -1.3799 0.9653
-5.2423 8.4547 -1.5756 0.9605
-8.9290 8.7399 -1.9789 0.9507
-12.7712 7.5451 -2.3494 0.9417
-13.5858 5.9547 -2.3494 0.9417
-14.2032 4.2779 -2.3494 0.9417
-15.5577 2.7028 -2.5010 0.9381
-15.7735 0.8126 -2.5016 0.9380
-15.5114 -2.9767 -2.5016 0.9380
-15.0409 -4.8203 -2.5016 0.9380
-12.3628 -9.8297 -2.5016 0.9380
-11.0911 -11.2450 -2.5016 0.9380
