ply
format ascii 1.0
element vertex 1549
property float32 x
property float32 y
property float32 z
property float32 I
end_header
-20.5169 8.7661 -0.3894 0.9146
-57.0064 9.3407 -1.0083 0.7937
-90.8075 3.7909 -1.5864 0.6952
-76.7790 -6.0755 -1.3444 0.7348
-64.3360 -40.4892 -1.3269 0.7378
-15.2166 -20.1409 -0.4406 0.9039
-6.1215 -20.8975 -0.3801 0.9166
-3.6867 -22.2401 -0.3935 0.9138
-1.6024 -36.7429 -0.6420 0.8632
25.4785 -54.2372 -1.0460 0.7868
22.1344 -35.3165 -0.7275 0.8464
30.6541 -29.6987 -0.7450 0.8430
32.0212 -24.2862 -0.7015 0.8515
41.7241 -24.3459 -0.8432 0.8243
48.2039 9.5672 -0.8578 0.8215
25.8724 8.4768 -0.4752 0.8968
31.6197 19.7355 -0.6506 0.8615
10.6484 8.5877 -0.2388 0.9467
8.3956 8.6334 -0.2102 0.9530
6.5818 8.6446 -0.1896 0.9575
3.7512 8.6457 -0.1645 0.9630
2.5622 8.6276 -0.1571 0.9646
1.4578 8.5956 -0.1522 0.9657
0.4071 8.5993 -0.1503 0.9661
-1.7090 8.6955 -0.1547 0.9652
-2.8333 8.7025 -0.1597 0.9640
-8.9542 8.7401 -0.2184 0.9512
-11.4551 8.7554 -0.2517 0.9440
-27.3261 8.1708 -0.4978 0.8922
-78.5440 -5.6267 -1.3745 0.7298
-41.9816 -8.1700 -0.7465 0.8427
-64.1183 -39.6886 -1.3162 0.7396
-23.7327 -24.2239 -0.5919 0.8731
-11.4813 -19.4267 -0.3939 0.9137
-8.6317 -19.6930 -0.3753 0.9176
-1.5703 -30.7435 -0.5373 0.8841
28.0747 -87.3342 -1.6012 0.6928
26.5449 -43.0631 -0.8830 0.8168
30.6514 -30.1420 -0.7504 0.8420
31.5267 -24.2832 -0.6946 0.8528
47.4353 -20.8970 -0.9048 0.8127
81.8035 -24.7920 -1.4920 0.7104
26.6537 8.5135 -0.4884 0.8941
40.1007 18.3839 -0.7700 0.8382
32.1451 19.7323 -0.6584 0.8599
11.5085 9.1407 -0.2565 0.9429
6.6836 8.6439 -0.1907 0.9572
3.8296 8.6494 -0.1651 0.9629
2.6321 8.6271 -0.1574 0.9646
1.5243 8.5987 -0.1524 0.9657
0.4713 8.5989 -0.1503 0.9661
-0.5737 8.6886 -0.1520 0.9658
-3.9697 8.7018 -0.1669 0.9625
-6.8347 8.6381 -0.1923 0.9569
-11.2786 8.7544 -0.2492 0.9445
-14.6601 8.7751 -0.2982 0.9339
-19.7775 8.8008 -0.3779 0.9170
-65.2308 3.6973 -1.1404 0.7700
-50.9412 -9.5202 -0.9046 0.8128
-51.1558 -23.2219 -0.9806 0.7987
-64.1550 -39.0534 -1.3110 0.7405
-15.7240 -20.1802 -0.4465 0.9027
-4.0081 -22.1308 -0.3926 0.9140
-1.6472 -28.1349 -0.4919 0.8934
36.1001 -79.9206 -1.5307 0.7041
30.6486 -30.5916 -0.7559 0.8409
31.0418 -24.2802 -0.6879 0.8541
40.3173 -24.3372 -0.8220 0.8283
79.1957 -24.6472 -1.4477 0.7176
73.2944 4.4282 -1.2817 0.7455
48.1993 8.8222 -0.8553 0.8220
27.3659 8.5168 -0.5003 0.8917
40.8287 18.3509 -0.7813 0.8360
32.6832 19.7290 -0.6664 0.8584
8.6480 8.6319 -0.2133 0.9523
6.7866 8.6433 -0.1918 0.9570
5.2452 8.6528 -0.1766 0.9603
3.9086 8.6531 -0.1657 0.9627
2.7024 8.6267 -0.1578 0.9645
1.5910 8.6018 -0.1527 0.9656
-0.5087 8.6882 -0.1519 0.9658
-3.8933 8.7054 -0.1665 0.9626
-5.2140 8.6741 -0.1767 0.9603
-8.6898 8.7384 -0.2151 0.9519
-11.1054 8.7533 -0.2468 0.9450
-28.0921 8.8577 -0.5141 0.8888
-90.7683 16.9634 -1.6118 0.6911
-58.2738 3.7386 -1.0193 0.7917
-7.3349 -38.8469 -0.6901 0.8537
27.7372 -90.9106 -1.6591 0.6837
28.5204 -64.4147 -1.2296 0.7544
30.6458 -31.0479 -0.7615 0.8399
30.6869 -24.3731 -0.6840 0.8549
39.6400 -24.3330 -0.8119 0.8302
56.5586 -25.9289 -1.0860 0.7796
78.3851 -25.0370 -1.4363 0.7195
73.1008 3.8703 -1.2778 0.7461
41.5413 18.3004 -0.7923 0.8339
8.7770 8.6311 -0.2149 0.9519
2.7730 8.6262 -0.1582 0.9644
0.5999 8.5981 -0.1504 0.9661
-0.4437 8.6878 -0.1518 0.9658
-2.6194 8.7011 -0.1586 0.9643
-3.8074 8.6865 -0.1655 0.9628
-8.5604 8.7376 -0.2135 0.9522
-10.9356 8.7522 -0.2445 0.9455
-14.1717 8.7721 -0.2909 0.9355
-18.7678 8.6888 -0.3610 0.9206
-27.3381 8.8445 -0.5015 0.8914
-90.9032 -4.4731 -1.5886 0.6948
-67.6863 -29.5176 -1.2889 0.7442
-12.1215 -19.5015 -0.4008 0.9122
-9.0912 -19.5416 -0.3762 0.9174
-6.7144 -20.6231 -0.3786 0.9169
-2.0411 -27.7648 -0.4859 0.8946
29.6494 -38.9416 -0.8543 0.8222
30.6430 -31.5112 -0.7672 0.8387
38.9792 -24.3290 -0.8020 0.8321
93.6672 -18.5905 -1.6668 0.6825
48.1948 8.0813 -0.8530 0.8224
28.8444 8.5078 -0.5249 0.8866
42.2927 18.2567 -0.8041 0.8317
11.6993 8.8733 -0.2563 0.9429
8.9079 8.6303 -0.2165 0.9516
4.0515 8.6246 -0.1663 0.9626
2.8439 8.6258 -0.1585 0.9643
1.7252 8.6082 -0.1532 0.9655
0.6642 8.5977 -0.1505 0.9661
-1.4411 8.6939 -0.1538 0.9654
-2.5487 8.7007 -0.1583 0.9644
-12.4924 29.0886 -0.5526 0.8810
-6.5253 8.6369 -0.1889 0.9576
-8.4331 8.7369 -0.2120 0.9526
-13.9363 8.7707 -0.2874 0.9362
-26.6724 8.8490 -0.4905 0.8937
-58.2657 4.6106 -1.0202 0.7915
-76.7795 -12.5806 -1.3581 0.7325
-61.2172 -17.8087 -1.1128 0.7749
-76.7898 -32.8091 -1.4576 0.7160
-63.5010 -36.7364 -1.2805 0.7457
-65.6339 -49.3955 -1.4338 0.7199
-16.5685 -20.3111 -0.4575 0.9004
-6.9144 -20.7121 -0.3811 0.9164
-2.1913 -27.0508 -0.4737 0.8971
30.6401 -31.9814 -0.7731 0.8376
30.6822 -25.1239 -0.6922 0.8533
38.3342 -24.3250 -0.7925 0.8339
51.2048 -24.4041 -0.9901 0.7970
73.2089 2.7833 -1.2788 0.7460
29.6396 8.5029 -0.5382 0.8839
9.0409 8.6295 -0.2182 0.9512
7.1028 8.6414 -0.1952 0.9562
5.5122 8.6512 -0.1791 0.9598
22.9050 47.8298 -0.9257 0.8088
0.7287 8.5973 -0.1506 0.9661
-1.3746 8.6935 -0.1536 0.9654
-2.4784 8.7003 -0.1579 0.9645
-3.6459 8.6668 -0.1641 0.9631
-4.9528 8.6726 -0.1743 0.9608
-8.3075 8.7361 -0.2104 0.9529
-10.6053 8.7502 -0.2400 0.9465
-26.0103 8.8449 -0.4795 0.8959
-90.7550 19.0689 -1.6187 0.6900
-90.8946 -3.1167 -1.5875 0.6950
-61.0490 -17.2676 -1.1074 0.7758
-63.1349 -35.8996 -1.2677 0.7478
-65.5491 -48.5713 -1.4240 0.7215
-16.8799 -20.3811 -0.4619 0.8995
-12.7062 -19.7789 -0.4103 0.9102
-7.0662 -20.6534 -0.3810 0.9164
-4.6046 -21.7141 -0.3874 0.9150
-2.2995 -25.9812 -0.4553 0.9009
36.4153 -87.4754 -1.6539 0.6845
26.5217 -46.8452 -0.9396 0.8063
28.7369 -38.9331 -0.8446 0.8240
30.6372 -32.4589 -0.7791 0.8365
50.2255 -24.3981 -0.9746 0.7998
11.8152 8.6869 -0.2560 0.9430
1.8603 8.6146 -0.1538 0.9654
0.7932 8.5969 -0.1507 0.9661
-0.2492 8.6866 -0.1517 0.9658
-1.3083 8.6931 -0.1534 0.9654
-2.4083 8.6998 -0.1576 0.9645
-6.3322 8.6462 -0.1871 0.9580
-10.4446 8.7492 -0.2378 0.9470
-25.3771 8.8410 -0.4691 0.8981
-25.3575 2.3871 -0.4446 0.9031
-60.6630 -16.6715 -1.0981 0.7775
-62.8258 -35.1072 -1.2562 0.7498
-17.2514 -20.5166 -0.4679 0.8983
-12.7901 -19.5872 -0.4083 0.9107
-15.5624 -31.5863 -0.6146 0.8686
-4.7933 -21.8024 -0.3896 0.9146
-2.5017 -26.0549 -0.4569 0.9006
26.2494 -96.2153 -1.7408 0.6710
30.6342 -32.9439 -0.7852 0.8353
30.6775 -25.8929 -0.7007 0.8516
49.2762 -24.3923 -0.9597 0.8025
57.3127 -12.7124 -1.0247 0.7907
35.5845 19.7111 -0.7101 0.8498
5.6944 8.6500 -0.1808 0.9594
3.0588 8.6244 -0.1597 0.9641
1.9283 8.6177 -0.1541 0.9653
0.8577 8.5964 -0.1508 0.9660
-0.1845 8.6862 -0.1517 0.9658
-1.2421 8.6927 -0.1533 0.9655
-4.7824 8.6717 -0.1729 0.9612
-6.2371 8.6508 -0.1862 0.9582
-10.2868 8.7483 -0.2357 0.9474
-17.4889 8.7384 -0.3413 0.9248
-24.7707 8.8373 -0.4591 0.9001
-76.7596 -10.8223 -1.3531 0.7334
-76.8651 -30.8291 -1.4456 0.7180
-17.8076 -20.8607 -0.4787 0.8961
-17.7437 -35.3470 -0.6904 0.8537
-12.0295 -33.5212 -0.6216 0.8672
0.6779 -38.7033 -0.6757 0.8565
25.7463 -47.0986 -0.9369 0.8068
27.8447 -38.9248 -0.8354 0.8257
30.6312 -33.4366 -0.7915 0.8341
36.4878 -24.3137 -0.7653 0.8391
48.3555 -24.3866 -0.9453 0.8052
56.9521 -13.0782 -1.0200 0.7915
56.8096 14.9319 -1.0253 0.7906
36.2112 19.7073 -0.7196 0.8480
31.2789 22.2873 -0.6704 0.8576
5.7869 8.6495 -0.1817 0.9592
1.9966 8.6210 -0.1545 0.9652
-0.1198 8.6858 -0.1516 0.9658
-1.1760 8.6923 -0.1531 0.9655
-2.2691 8.6990 -0.1569 0.9647
-6.1429 8.6553 -0.1853 0.9584
-7.9414 8.7338 -0.2060 0.9539
45.9754 -12.8194 -2.5014 0.8260
47.4753 4.2910 -2.4982 0.8262
24.1645 8.3178 -1.3393 0.9027
25.8226 12.5438 -1.5045 0.8914
25.8147 16.6517 -1.6099 0.8842
6.3816 8.6458 -0.5632 0.9579
1.3222 8.5689 -0.4544 0.9659
0.2814 8.6786 -0.4551 0.9658
-2.9777 8.7033 -0.4821 0.9638
-4.2018 8.6910 -0.5059 0.9621
-7.1119 8.5870 -0.5843 0.9563
-11.8189 8.7577 -0.7709 0.9428
-15.4371 8.7778 -0.9307 0.9313
-20.8212 8.7133 -1.1829 0.9136
-26.0736 7.3749 -1.4201 0.8971
-44.7432 -3.8761 -2.3537 0.8354
-43.0092 -20.6950 -2.5014 0.8260
-10.9035 -19.0928 -1.1523 0.9157
-8.2987 -19.7273 -1.1216 0.9178
4.0308 -47.5587 -2.5014 0.8260
28.8756 -27.5617 -2.0920 0.8522
38.8834 -22.3017 -2.3492 0.8356
45.8786 -13.1614 -2.5014 0.8260
47.6947 -1.8132 -2.5014 0.8260
47.5661 3.9422 -2.5014 0.8260
43.9012 9.0536 -2.3492 0.8356
24.8352 8.3423 -1.3730 0.9004
25.8094 16.3774 -1.6020 0.8848
4.9852 8.6544 -0.5234 0.9608
3.6734 8.6421 -0.4921 0.9631
2.4865 8.6072 -0.4695 0.9648
0.3414 8.5595 -0.4489 0.9663
-0.7039 8.6894 -0.4569 0.9657
-5.4673 8.6516 -0.5364 0.9598
-7.0055 8.5879 -0.5808 0.9566
-31.3888 23.6230 -2.0588 0.8544
-15.1739 8.7783 -0.9187 0.9322
-26.0723 7.5847 -1.4230 0.8969
-44.7566 7.3335 -2.3769 0.8339
-44.7763 -3.5431 -2.3540 0.8353
-38.9574 -7.8830 -2.0830 0.8528
-44.8390 -14.8761 -2.4759 0.8276
-40.3953 -25.4224 -2.5014 0.8260
-22.2381 -23.0393 -1.6782 0.8796
-11.1664 -19.2193 -1.1649 0.9148
-6.0975 -20.8156 -1.1367 0.9168
-1.5087 -34.5952 -1.8148 0.8705
3.6764 -47.5874 -2.5014 0.8260
14.9450 -45.3290 -2.5014 0.8260
20.2566 -43.1212 -2.4968 0.8263
30.5499 -29.5977 -2.2292 0.8433
31.8818 -24.1805 -2.0971 0.8519
41.1543 -17.7652 -2.3492 0.8356
47.0720 -7.8930 -2.5014 0.8260
47.5941 3.5878 -2.5014 0.8260
25.5405 8.3680 -1.4085 0.8979
26.8089 12.5329 -1.5509 0.8882
10.6484 8.5877 -0.7169 0.9467
3.7512 8.6457 -0.4939 0.9630
2.5560 8.6067 -0.4705 0.9647
1.4543 8.5751 -0.4558 0.9658
-0.6387 8.6890 -0.4566 0.9657
-2.8333 8.7025 -0.4796 0.9640
-6.9036 8.5930 -0.5777 0.9568
-8.9542 8.7401 -0.6558 0.9511
-11.4551 8.7554 -0.7556 0.9439
-14.9137 8.7767 -0.9069 0.9330
-20.0818 8.7576 -1.1482 0.9160
-44.7131 7.6688 -2.3775 0.8338
-41.1807 -8.0141 -2.1987 0.8453
-43.3127 -20.0519 -2.5014 0.8260
-40.5835 -25.1208 -2.5014 0.8260
-23.1104 -23.5888 -1.7307 0.8761
-6.2763 -20.8490 -1.1411 0.9165
-1.4539 -28.4652 -1.4937 0.8921
3.3218 -47.6134 -2.5014 0.8260
14.6070 -45.4391 -2.5014 0.8260
23.5213 -38.1580 -2.3492 0.8356
27.9442 -35.0486 -2.3492 0.8356
30.5472 -30.0395 -2.2453 0.8423
34.1419 -15.0408 -1.9552 0.8612
40.0216 -12.1293 -2.1916 0.8458
47.0119 -8.2434 -2.5014 0.8260
47.6195 3.2332 -2.5014 0.8260
26.0084 15.9653 -1.5994 0.8849
8.5209 8.6327 -0.6357 0.9526
5.1578 8.6533 -0.5279 0.9605
2.6258 8.6062 -0.4716 0.9646
1.5206 8.5782 -0.4566 0.9657
0.4691 8.5586 -0.4492 0.9662
-5.2882 8.6508 -0.5314 0.9602
-8.8210 8.7392 -0.6508 0.9515
-14.6601 8.7751 -0.8954 0.9339
-19.2583 8.5698 -1.1047 0.9190
-45.0703 2.5544 -2.3658 0.8346
-40.7695 -24.8178 -2.5014 0.8260
-37.4850 -29.5457 -2.5014 0.8260
-11.4690 -19.0800 -1.1667 0.9147
-8.6830 -19.4154 -1.1146 0.9183
-6.3536 -20.5500 -1.1273 0.9175
-3.9699 -21.9198 -1.1675 0.9146
8.6808 -46.9331 -2.5014 0.8260
22.1757 -36.5823 -2.2419 0.8425
27.6823 -35.2560 -2.3492 0.8356
38.3753 -23.1650 -2.3492 0.8356
33.8800 -15.2277 -1.9467 0.8618
38.9231 -12.1136 -2.1364 0.8494
47.6423 -2.8784 -2.5014 0.8260
27.3659 8.5168 -1.5020 0.8915
25.7247 11.5622 -1.4781 0.8932
11.5722 9.0515 -0.7700 0.9429
0.5331 8.5582 -0.4494 0.9662
-0.5087 8.6882 -0.4561 0.9657
-1.5747 8.6947 -0.4631 0.9652
-2.6903 8.7016 -0.4773 0.9642
-3.8933 8.7054 -0.4998 0.9625
-5.1998 8.6505 -0.5290 0.9604
-6.7032 8.6029 -0.5716 0.9573
-11.1054 8.7533 -0.7411 0.9449
-14.4129 8.7736 -0.8843 0.9346
-45.0681 2.8913 -2.3668 0.8345
-44.8948 -2.5446 -2.3566 0.8352
-41.5834 -7.4513 -2.2140 0.8443
-43.6416 -13.4041 -2.3926 0.8329
-37.7040 -29.2656 -2.5014 0.8260
-11.7492 -19.2204 -1.1806 0.9137
-6.5217 -20.5498 -1.1299 0.9173
-1.8186 -27.5437 -1.4466 0.8953
2.6122 -47.6576 -2.5014 0.8260
27.4189 -35.4610 -2.3492 0.8356
30.1359 -30.5313 -2.2482 0.8421
37.2235 -22.8497 -2.2890 0.8395
40.7471 -18.6803 -2.3492 0.8356
38.0113 -12.1412 -2.0912 0.8523
46.8839 -8.9428 -2.5014 0.8260
47.6195 -3.2331 -2.5014 0.8260
47.6624 2.5234 -2.5014 0.8260
44.1514 7.7418 -2.3492 0.8356
28.0873 8.5124 -1.5381 0.8891
6.8908 8.6427 -0.5793 0.9567
5.3334 8.6523 -0.5327 0.9601
3.9882 8.6568 -0.4995 0.9625
2.7663 8.6052 -0.4737 0.9644
1.6540 8.5844 -0.4582 0.9656
0.5971 8.5578 -0.4496 0.9662
-0.4437 8.6878 -0.4559 0.9658
-1.5078 8.6943 -0.4625 0.9653
-2.6194 8.7011 -0.4762 0.9643
-3.8074 8.6865 -0.4970 0.9627
-5.1123 8.6501 -0.5266 0.9606
-6.6046 8.6078 -0.5686 0.9575
-26.0671 8.4333 -1.4358 0.8961
-37.4586 7.2897 -2.0000 0.8583
-45.0632 3.2283 -2.3677 0.8345
-44.9257 -2.2107 -2.3573 0.8351
-43.7500 -19.0791 -2.5014 0.8260
-41.1346 -24.2077 -2.5014 0.8260
-37.9210 -28.9840 -2.5014 0.8260
-32.0775 -31.3100 -2.3492 0.8356
-15.9636 -19.8700 -1.3358 0.9029
-12.0062 -19.3160 -1.1919 0.9129
-8.9380 -19.2124 -1.1105 0.9186
-6.6641 -20.4688 -1.1281 0.9174
-4.2595 -21.6724 -1.1575 0.9153
-1.9828 -26.9722 -1.4174 0.8973
13.5880 -45.7541 -2.5014 0.8260
18.9978 -43.7853 -2.5014 0.8260
27.1540 -35.6643 -2.3492 0.8356
38.0260 -23.7340 -2.3492 0.8356
40.6068 -18.9833 -2.3492 0.8356
46.8160 -9.2918 -2.5014 0.8260
47.5941 -3.5878 -2.5014 0.8260
44.2078 7.4128 -2.3492 0.8356
28.8444 8.5078 -1.5761 0.8865
25.7174 11.1015 -1.4680 0.8939
25.7846 15.0452 -1.5645 0.8873
11.6993 8.8733 -0.7695 0.9429
5.4224 8.6517 -0.5351 0.9599
2.8370 8.6047 -0.4748 0.9644
1.7210 8.5875 -0.4590 0.9655
0.6611 8.5574 -0.4498 0.9662
-0.3789 8.6874 -0.4557 0.9658
-1.4412 8.6939 -0.4618 0.9653
-5.0270 8.6522 -0.5244 0.9607
-6.5069 8.6126 -0.5657 0.9577
-10.7689 8.7512 -0.7272 0.9459
-18.3098 8.6429 -1.0611 0.9221
-44.5130 9.0071 -2.3801 0.8337
-45.0559 3.5653 -2.3687 0.8344
-44.9459 -1.8764 -2.3576 0.8351
-42.0940 -6.8973 -2.2355 0.8429
-43.0408 -12.5210 -2.3492 0.8356
-43.8909 -18.7527 -2.5014 0.8260
-41.3138 -23.9007 -2.5014 0.8260
-38.1358 -28.7007 -2.5014 0.8260
-16.4467 -20.1618 -1.3636 0.9010
-12.2647 -19.4081 -1.2032 0.9121
-9.1081 -19.2027 -1.1138 0.9184
-4.4023 -21.5498 -1.1527 0.9157
7.6300 -47.1153 -2.5014 0.8260
21.8205 -37.8806 -2.2910 0.8394
30.5779 -25.0384 -2.0712 0.8536
35.3439 -22.4275 -2.1937 0.8456
40.4643 -19.2852 -2.3492 0.8356
37.5205 -12.6033 -2.0743 0.8534
46.7455 -9.6402 -2.5014 0.8260
47.5661 -3.9422 -2.5014 0.8260
47.6947 1.8133 -2.5014 0.8260
44.2618 7.0833 -2.3492 0.8356
29.6396 8.5029 -1.6160 0.8838
25.7138 10.8734 -1.4631 0.8942
25.7799 14.7862 -1.5575 0.8878
7.1028 8.6414 -0.5862 0.9562
5.5122 8.6512 -0.5376 0.9597
1.7883 8.5907 -0.4599 0.9655
0.7252 8.5570 -0.4501 0.9662
-3.6459 8.6668 -0.4928 0.9630
-8.3075 8.7361 -0.6318 0.9529
-13.7065 8.7693 -0.8528 0.9369
-44.4627 9.3422 -2.3811 0.8336
-44.9687 -1.5420 -2.3581 0.8351
-44.2879 -6.9184 -2.3492 0.8356
-43.1328 -12.2001 -2.3492 0.8356
-44.0293 -18.4253 -2.5014 0.8260
-41.4907 -23.5923 -2.5014 0.8260
-38.3485 -28.4159 -2.5014 0.8260
-4.5807 -21.6014 -1.1573 0.9154
1.4525 -44.8015 -2.3492 0.8356
7.2788 -47.1709 -2.5014 0.8260
30.5330 -32.3485 -2.3312 0.8368
30.5756 -25.4193 -2.0838 0.8528
40.3196 -19.5861 -2.3492 0.8356
46.6724 -9.9881 -2.5014 0.8260
47.5354 -4.2964 -2.5014 0.8260
47.7069 1.4578 -2.5014 0.8260
44.3133 6.7535 -2.3492 0.8356
30.4763 8.4977 -1.6581 0.8810
20.8081 8.6168 -1.1803 0.9137
9.1759 8.6286 -0.6601 0.9508
7.2108 8.6407 -0.5898 0.9559
1.8559 8.5938 -0.4608 0.9654
-3.5867 8.7071 -0.4935 0.9630
-10.4446 8.7492 -0.7141 0.9469
-23.6914 8.2537 -1.3148 0.9044
-44.4099 9.6771 -2.3820 0.8336
-44.9889 -1.2071 -2.3586 0.8350
-38.5591 -28.1295 -2.5014 0.8260
-34.8921 -32.5671 -2.5014 0.8260
-12.6258 -19.3356 -1.2102 0.9117
-9.4369 -19.1537 -1.1190 0.9180
-2.4027 -25.0232 -1.3174 0.9042
1.1188 -44.8110 -2.3492 0.8356
21.7930 -39.1707 -2.3492 0.8356
21.2107 -29.1890 -1.8910 0.8654
30.5245 -32.8259 -2.3492 0.8356
30.5732 -25.8048 -2.0967 0.8519
40.1726 -19.8858 -2.3492 0.8356
46.5967 -10.3355 -2.5014 0.8260
47.5021 -4.6504 -2.5014 0.8260
47.7164 1.1024 -2.5014 0.8260
44.3624 6.4232 -2.3492 0.8356
25.7707 14.2750 -1.5439 0.8887
11.8675 8.5900 -0.7678 0.9430
5.6944 8.6500 -0.5427 0.9594
1.9237 8.5970 -0.4617 0.9653
0.8537 8.5561 -0.4506 0.9661
-0.1845 8.6862 -0.4553 0.9658
-2.3386 8.6994 -0.4721 0.9646
-6.2198 8.6268 -0.5574 0.9583
-8.0617 8.7346 -0.6229 0.9535
-17.4057 8.6969 -1.0197 0.9250
-45.0064 -0.8721 -2.3591 0.8350
-44.3860 -6.2579 -2.3492 0.8356
-44.2989 -17.7674 -2.5014 0.8260
-35.1336 -32.3063 -2.5014 0.8260
-17.5544 -20.5640 -1.4170 0.8974
-12.9284 -19.4804 -1.2253 0.9106
-9.5387 -19.0020 -1.1143 0.9184
-4.8509 -21.3064 -1.1452 0.9162
-2.5628 -24.7517 -1.3041 0.9051
0.6755 -38.5703 -2.0217 0.8568
17.6849 -44.3319 -2.5014 0.8260
26.0796 -36.4573 -2.3492 0.8356
27.9617 -30.5226 -2.1693 0.8472
36.3290 -24.2078 -2.2879 0.8396
37.5295 -13.5469 -2.0910 0.8523
46.5184 -10.6822 -2.5014 0.8260
47.7233 0.7470 -2.5014 0.8260
44.4090 6.0926 -2.3492 0.8356
25.7035 10.1982 -1.4492 0.8952
5.7869 8.6495 -0.5454 0.9592
4.3867 8.6581 -0.5087 0.9619
0.9181 8.5556 -0.4510 0.9661
-0.1198 8.6858 -0.4552 0.9658
-1.1760 8.6923 -0.4597 0.9655
-2.2691 8.6990 -0.4711 0.9646
-4.6963 8.6677 -0.5166 0.9613
-6.1260 8.6314 -0.5547 0.9585
-10.1318 8.7473 -0.7015 0.9478
28.2645 -4.3075 -2.5014 0.8915
13.4029 8.6455 -1.3954 0.9380
8.1288 8.6122 -1.0361 0.9536
6.3816 8.6458 -0.9401 0.9578
3.5961 8.6384 -0.8186 0.9631
2.4115 8.5869 -0.7803 0.9648
0.2814 8.6786 -0.7597 0.9657
-0.7691 8.6898 -0.7632 0.9656
-1.8441 8.6964 -0.7778 0.9649
-2.9777 8.7033 -0.8048 0.9637
-4.2018 8.6910 -0.8446 0.9620
-5.5428 8.6280 -0.8972 0.9597
-7.0878 8.5579 -0.9722 0.9564
-24.8641 3.8841 -2.2017 0.9039
-28.4842 -2.4676 -2.5014 0.8915
-18.5034 -19.4579 -2.3492 0.8978
-5.8545 -20.5522 -1.8696 0.9178
2.4145 -28.4887 -2.5014 0.8915
5.8268 -27.9908 -2.5014 0.8915
9.1544 -27.0857 -2.5014 0.8915
12.3488 -25.7866 -2.5014 0.8915
15.3635 -24.1122 -2.5014 0.8915
20.6626 -19.7224 -2.4990 0.8916
22.5666 -16.8522 -2.4641 0.8931
24.8011 -14.2248 -2.5014 0.8915
27.4824 -7.8840 -2.5014 0.8915
28.2317 -4.5179 -2.5014 0.8915
28.5702 -1.0861 -2.5014 0.8915
26.2978 5.4233 -2.3492 0.8978
8.2721 8.6342 -1.0461 0.9531
4.9852 8.6544 -0.8738 0.9607
2.4805 8.5864 -0.7819 0.9647
0.3398 8.5195 -0.7459 0.9663
-1.7765 8.6959 -0.7765 0.9650
-2.9053 8.7029 -0.8027 0.9638
-6.9852 8.5631 -0.9668 0.9566
-21.7113 16.3398 -2.3773 0.8966
-15.1739 8.7783 -1.5337 0.9320
-19.1150 8.1671 -1.8186 0.9199
-25.8123 7.5090 -2.3519 0.8977
-26.4979 4.3417 -2.3492 0.8978
-26.8278 1.1200 -2.3492 0.8978
-25.8551 -12.2045 -2.5014 0.8915
-24.1977 -15.2286 -2.5014 0.8915
-18.6478 -19.3196 -2.3492 0.8978
-11.0896 -19.0872 -1.9313 0.9152
12.1564 -25.8778 -2.5014 0.8915
22.4318 -17.0132 -2.4631 0.8931
24.6944 -14.4091 -2.5014 0.8915
28.5100 2.1492 -2.5014 0.8915
26.3375 5.2273 -2.3492 0.8978
25.5166 8.3602 -2.3492 0.8978
10.6484 8.5877 -1.1968 0.9466
8.3956 8.6334 -1.0536 0.9528
6.5818 8.6446 -0.9506 0.9573
5.0711 8.6539 -0.8775 0.9605
2.5509 8.5894 -0.7839 0.9647
1.4508 8.5547 -0.7591 0.9658
0.4033 8.5191 -0.7462 0.9663
-2.8333 8.7025 -0.8007 0.9639
-5.3680 8.6362 -0.8896 0.9600
-6.8838 8.5683 -0.9616 0.9568
-8.9542 8.7401 -1.0947 0.9510
-11.4551 8.7554 -1.2614 0.9438
-25.7619 7.7030 -2.3525 0.8977
-26.4648 4.5390 -2.3492 0.8978
-25.9979 1.2794 -2.2773 0.9008
-27.2027 -8.8006 -2.5014 0.8915
-25.9453 -12.0116 -2.5014 0.8915
-24.3104 -15.0479 -2.5014 0.8915
-22.3220 -17.8653 -2.5014 0.8915
-15.0260 -19.5836 -2.1596 0.9056
-11.2960 -19.1132 -1.9424 0.9147
-6.1412 -20.4001 -1.8639 0.9180
5.4092 -28.0745 -2.5014 0.8915
15.0026 -24.3384 -2.5014 0.8915
17.8237 -22.3552 -2.5014 0.8915
22.3015 -17.1776 -2.4628 0.8931
24.5864 -14.5927 -2.5014 0.8915
26.1645 -11.5264 -2.5014 0.8915
28.1612 -4.9380 -2.5014 0.8915
25.5781 8.1699 -2.3492 0.8978
8.5209 8.6327 -1.0612 0.9525
6.6836 8.6439 -0.9559 0.9571
5.1578 8.6533 -0.8813 0.9604
3.8296 8.6494 -0.8276 0.9627
0.4669 8.5186 -0.7464 0.9663
-1.6418 8.6951 -0.7742 0.9651
-2.7617 8.7020 -0.7987 0.9640
-5.2817 8.6403 -0.8860 0.9602
-6.7835 8.5734 -0.9565 0.9571
-8.8210 8.7392 -1.0864 0.9514
-11.2786 8.7544 -1.2491 0.9443
-14.6601 8.7751 -1.4948 0.9337
-25.7099 7.8965 -2.3530 0.8976
-25.5460 1.4479 -2.2386 0.9024
-28.5234 -1.8299 -2.5006 0.8916
-28.1043 -5.2523 -2.5014 0.8915
-27.2675 -8.5977 -2.5014 0.8915
-15.2845 -19.6162 -2.1757 0.9050
-8.5517 -19.1217 -1.8326 0.9193
-6.2839 -20.3245 -1.8612 0.9181
-1.5694 -26.8053 -2.3492 0.8978
1.7732 -28.4689 -2.4955 0.8918
11.7695 -26.0560 -2.5014 0.8915
17.6567 -22.4873 -2.5014 0.8915
20.2356 -20.1980 -2.5014 0.8915
27.2993 -8.4961 -2.5014 0.8915
28.1236 -5.1476 -2.5014 0.8915
28.5388 -1.7242 -2.5014 0.8915
26.4124 4.8344 -2.3492 0.8978
24.5017 11.0125 -2.3502 0.8978
11.5722 9.0515 -1.2854 0.9427
8.6480 8.6319 -1.0690 0.9521
6.7866 8.6433 -0.9614 0.9568
5.2452 8.6528 -0.8852 0.9602
3.9086 8.6531 -0.8307 0.9626
2.6928 8.5960 -0.7881 0.9645
1.5834 8.5608 -0.7617 0.9656
0.5306 8.5182 -0.7467 0.9663
-2.6903 8.7016 -0.7968 0.9641
-3.8933 8.7054 -0.8343 0.9624
-6.6841 8.5784 -0.9514 0.9573
-8.6898 8.7384 -1.0782 0.9517
-11.1054 8.7533 -1.2371 0.9448
-18.4477 8.3742 -1.7725 0.9219
-25.6565 8.0897 -2.3536 0.8976
-26.3942 4.9327 -2.3492 0.8978
-25.2554 1.6203 -2.2141 0.9034
-28.5016 -1.6155 -2.4976 0.8917
-27.3308 -8.3944 -2.5014 0.8915
-11.7160 -19.1662 -1.9653 0.9138
-4.0602 -21.5038 -1.9146 0.9159
8.3435 -27.3464 -2.5014 0.8915
17.4887 -22.6182 -2.5014 0.8915
20.0846 -20.3481 -2.5014 0.8915
24.3463 -14.9450 -2.4993 0.8916
28.0845 -5.3570 -2.5014 0.8915
26.4477 4.6375 -2.3492 0.8978
25.6970 7.7880 -2.3492 0.8978
24.5758 10.8266 -2.3495 0.8978
8.7770 8.6311 -1.0770 0.9518
6.8908 8.6427 -0.9671 0.9566
3.9882 8.6568 -0.8339 0.9625
2.7644 8.5994 -0.7903 0.9644
1.6500 8.5639 -0.7630 0.9656
-0.4437 8.6878 -0.7611 0.9657
-1.5078 8.6943 -0.7720 0.9652
-2.6194 8.7011 -0.7950 0.9642
-10.9356 8.7522 -1.2254 0.9453
-14.1717 8.7721 -1.4582 0.9353
-18.2325 8.4409 -1.7578 0.9225
-26.3568 5.1292 -2.3492 0.8978
-24.8843 1.7827 -2.1827 0.9047
-27.3926 -8.1906 -2.5014 0.8915
-26.2072 -11.4288 -2.5014 0.8915
-24.6406 -14.5010 -2.5014 0.8915
-22.7155 -17.3621 -2.5014 0.8915
-15.8132 -19.6828 -2.2089 0.9036
-11.9298 -19.1931 -1.9771 0.9133
-6.5681 -20.1737 -1.8562 0.9183
-4.2107 -21.4240 -1.9102 0.9161
4.7806 -28.1884 -2.5014 0.8915
11.3801 -26.2284 -2.5014 0.8915
17.3197 -22.7478 -2.5014 0.8915
19.9324 -20.4972 -2.5014 0.8915
27.1698 -8.9018 -2.5014 0.8915
28.5100 -2.1492 -2.5014 0.8915
27.2445 4.5684 -2.4169 0.8950
25.7543 7.5963 -2.3492 0.8978
24.6524 10.6418 -2.3492 0.8978
23.2966 13.5935 -2.3598 0.8974
11.6993 8.8733 -1.2847 0.9427
6.9962 8.6420 -0.9728 0.9563
5.4224 8.6517 -0.8933 0.9598
1.7169 8.5669 -0.7644 0.9655
0.6581 8.5179 -0.7474 0.9663
-0.3789 8.6874 -0.7608 0.9657
-2.5487 8.7007 -0.7932 0.9643
-5.0270 8.6522 -0.8755 0.9606
-8.4331 8.7369 -1.0624 0.9524
-25.5452 8.4750 -2.3547 0.8976
-26.3178 5.3254 -2.3492 0.8978
-24.4720 1.9365 -2.1477 0.9061
-27.4528 -7.9863 -2.5014 0.8915
-22.8442 -17.1924 -2.5014 0.8915
-19.3543 -18.6118 -2.3492 0.8978
1.0249 -25.6962 -2.2499 0.9019
4.5705 -28.2232 -2.5014 0.8915
7.9352 -27.4676 -2.5014 0.8915
11.1844 -26.3125 -2.5014 0.8915
14.2710 -24.7745 -2.5014 0.8915
19.7792 -20.6451 -2.5014 0.8915
27.1027 -9.1039 -2.5014 0.8915
25.8102 7.4043 -2.3492 0.8978
24.7310 10.4578 -2.3492 0.8978
23.3907 13.4158 -2.3591 0.8974
11.7628 8.7842 -1.2844 0.9428
9.0409 8.6295 -1.0935 0.9511
5.5122 8.6512 -0.8975 0.9596
0.7222 8.5209 -0.7482 0.9662
-1.3746 8.6935 -0.7700 0.9653
-3.6459 8.6668 -0.8226 0.9630
-4.9434 8.6561 -0.8721 0.9608
-6.3923 8.5932 -0.9370 0.9579
-8.3075 8.7361 -1.0547 0.9527
-13.7065 8.7693 -1.4236 0.9368
-17.6947 8.5143 -1.7180 0.9242
-27.5115 -7.7816 -2.5014 0.8915
-26.3746 -11.0372 -2.5014 0.8915
-24.8539 -14.1323 -2.5014 0.8915
-22.9716 -17.0218 -2.5014 0.8915
-16.6146 -20.0608 -2.2789 0.9007
-9.1072 -18.8372 -1.8305 0.9194
-4.5095 -21.2655 -1.9019 0.9164
10.9880 -26.3950 -2.5014 0.8915
14.0860 -24.8802 -2.5014 0.8915
16.9790 -23.0033 -2.5014 0.8915
19.6249 -20.7919 -2.5014 0.8915
21.7214 -18.0583 -2.4713 0.8928
23.9677 -15.4604 -2.4953 0.8918
25.7171 -12.4926 -2.5014 0.8915
27.0341 -9.3055 -2.5014 0.8915
28.4748 -2.5736 -2.5014 0.8915
28.5775 0.8732 -2.5014 0.8915
25.8646 7.2118 -2.3492 0.8978
24.8082 10.2733 -2.3492 0.8978
11.8152 8.6869 -1.2830 0.9428
7.2108 8.6407 -0.9846 0.9558
4.2126 8.6310 -0.8403 0.9622
2.9815 8.6096 -0.7971 0.9641
0.7864 8.5239 -0.7489 0.9662
-1.3083 8.6931 -0.7691 0.9653
-2.4083 8.6998 -0.7898 0.9644
-3.5867 8.7071 -0.8239 0.9629
-6.2970 8.5980 -0.9324 0.9581
-8.1838 8.7353 -1.0472 0.9531
-13.4821 8.7679 -1.4070 0.9375
-23.1148 2.1760 -2.0312 0.9110
-24.9584 -13.9468 -2.5014 0.8915
-19.6294 -18.3215 -2.3492 0.8978
-17.0598 -20.2888 -2.3191 0.8990
-12.5869 -19.2760 -2.0141 0.9117
-9.2925 -18.8605 -1.8395 0.9190
-6.9916 -19.9491 -1.8494 0.9186
-4.6580 -21.1868 -1.8979 0.9166
-2.3721 -24.7040 -2.1713 0.9052
0.6702 -26.8428 -2.3492 0.8978
4.1496 -28.2881 -2.5014 0.8915
7.5251 -27.5828 -2.5014 0.8915
10.7911 -26.4762 -2.5014 0.8915
13.9004 -24.9844 -2.5014 0.8915
21.6119 -18.2412 -2.4743 0.8927
23.8401 -15.6307 -2.4941 0.8918
26.9641 -9.5066 -2.5014 0.8915
28.5832 0.6604 -2.5014 0.8915
25.9176 7.0190 -2.3492 0.8978
24.8840 10.0882 -2.3492 0.8978
23.5746 13.0586 -2.3578 0.8974
11.8675 8.5900 -1.2817 0.9429
7.3201 8.6400 -0.9907 0.9555
0.8508 8.5269 -0.7497 0.9662
-2.3386 8.6994 -0.7881 0.9645
-3.5109 8.7066 -0.8213 0.9630
-23.2910 8.3094 -2.1635 0.9055
-26.1923 5.9121 -2.3492 0.8978
-23.0757 2.3459 -2.0293 0.9111
-26.8975 -0.5212 -2.3537 0.8976
-28.3109 -3.9915 -2.5014 0.8915
-27.6244 -7.3709 -2.5014 0.8915
-26.5361 -10.6431 -2.5014 0.8915
-25.0616 -13.7605 -2.5014 0.8915
-17.4333 -20.4222 -2.3492 0.8978
-9.4795 -18.8841 -1.8486 0.9187
-7.1322 -19.8745 -1.8474 0.9187
-4.8058 -21.1083 -1.8940 0.9167
-2.5110 -24.2511 -2.1330 0.9067
0.4702 -26.8471 -2.3492 0.8978
7.3195 -27.6381 -2.5014 0.8915
25.5282 -12.8744 -2.5014 0.8915
27.8656 -6.3989 -2.5014 0.8915
28.4333 -2.9975 -2.5014 0.8915
28.5874 0.4475 -2.5014 0.8915
28.3255 3.8860 -2.5014 0.8915
25.9692 6.8258 -2.3492 0.8978
24.9585 9.9026 -2.3492 0.8978
4.3867 8.6581 -0.8492 0.9618
1.9869 8.5793 -0.7705 0.9653
-0.1198 8.6858 -0.7600 0.9657
-2.2691 8.6990 -0.7865 0.9645
-4.6963 8.6677 -0.8625 0.9612
-7.9414 8.7338 -1.0328 0.9537
-10.1318 8.7473 -1.1711 0.9477
19.6235 -5.4716 -2.5014 0.9212
20.1396 -3.0693 -2.5014 0.9212
20.2894 1.8338 -2.5014 0.9212
18.0908 6.2271 -2.3492 0.9258
17.2095 8.3599 -2.3492 0.9258
10.3701 8.6213 -1.6558 0.9471
6.3816 8.6458 -1.3194 0.9576
1.3147 8.5201 -1.0585 0.9659
-1.8441 8.6964 -1.0915 0.9648
-2.9777 8.7033 -1.1294 0.9636
-4.1845 8.6552 -1.1804 0.9620
-18.9033 2.9530 -2.3492 0.9258
-20.2961 -1.7582 -2.5014 0.9212
-17.1605 -10.9791 -2.5014 0.9212
-11.4193 -15.3510 -2.3492 0.9258
-8.5669 -15.0012 -2.1211 0.9327
-0.6912 -19.1200 -2.3492 0.9258
4.1518 -19.9445 -2.5014 0.9212
8.7990 -18.3739 -2.5014 0.9212
10.9471 -17.1809 -2.5014 0.9212
12.9359 -15.7380 -2.5014 0.9212
18.7635 -7.9344 -2.5014 0.9212
19.5822 -5.6176 -2.5014 0.9212
17.2713 8.2314 -2.3492 0.9258
10.5275 8.6203 -1.6707 0.9466
4.9852 8.6544 -1.2263 0.9605
-0.7039 8.6894 -1.0704 0.9655
-1.7765 8.6959 -1.0898 0.9649
-2.9053 8.7029 -1.1266 0.9637
-4.1075 8.6598 -1.1768 0.9621
-9.0896 8.7409 -1.5484 0.9504
-15.3298 11.5371 -2.3558 0.9256
-15.1739 8.7783 -2.1524 0.9318
-17.5939 7.5172 -2.3492 0.9258
-20.3086 -1.6070 -2.5014 0.9212
-19.9674 -4.0404 -2.5014 0.9212
-19.3357 -6.4150 -2.5014 0.9212
-18.4228 -8.6962 -2.5014 0.9212
-17.2418 -10.8510 -2.5014 0.9212
-11.5333 -15.2655 -2.3492 0.9258
-9.6115 -16.5430 -2.3492 0.9258
-5.3785 -18.3610 -2.3492 0.9258
-3.1288 -18.8749 -2.3492 0.9258
-0.8336 -19.1144 -2.3492 0.9258
1.5692 -20.3116 -2.5014 0.9212
16.2317 -12.3108 -2.5014 0.9212
17.5957 -10.2670 -2.5014 0.9212
19.5399 -5.7634 -2.5014 0.9212
19.8409 3.9379 -2.4837 0.9217
18.1815 5.9570 -2.3492 0.9258
10.6484 8.5877 -1.6797 0.9464
8.3956 8.6334 -1.4786 0.9526
5.0711 8.6539 -1.2316 0.9604
2.5452 8.5705 -1.0977 0.9646
1.4459 8.5257 -1.0618 0.9658
-1.7090 8.6955 -1.0881 0.9649
-4.0336 8.6702 -1.1741 0.9622
-5.3359 8.5845 -1.2411 0.9601
-14.9137 8.7767 -2.1247 0.9326
-17.5374 7.6480 -2.3492 0.9258
-18.3306 5.4810 -2.3492 0.9258
-20.3200 -1.4557 -2.5014 0.9212
-19.9970 -3.8915 -2.5014 0.9212
-15.9052 -12.7297 -2.5014 0.9212
-14.2570 -14.5520 -2.5014 0.9212
-11.6467 -15.1792 -2.3492 0.9258
-9.7345 -16.4710 -2.3492 0.9258
-5.5151 -18.3204 -2.3492 0.9258
-3.2693 -18.8511 -2.3492 0.9258
-0.9760 -19.1076 -2.3492 0.9258
6.2347 -19.3946 -2.5014 0.9212
10.6900 -17.3421 -2.5014 0.9212
14.5254 -14.2840 -2.5014 0.9212
17.5188 -10.3978 -2.5014 0.9212
18.6432 -8.2130 -2.5014 0.9212
19.4964 -5.9088 -2.5014 0.9212
20.0660 -3.5185 -2.5014 0.9212
20.3436 -1.0771 -2.5014 0.9212
20.3253 1.3800 -2.5014 0.9212
17.3920 7.9732 -2.3492 0.9258
16.3055 10.0092 -2.3492 0.9258
5.1578 8.6533 -1.2369 0.9602
-2.7617 8.7020 -1.1210 0.9639
-5.2509 8.5899 -1.2361 0.9602
-8.8210 8.7392 -1.5246 0.9512
-18.2893 5.6174 -2.3492 0.9258
-18.8326 3.3746 -2.3492 0.9258
-20.3394 1.1528 -2.5014 0.9212
-19.4291 -6.1262 -2.5014 0.9212
-18.5502 -8.4208 -2.5014 0.9212
-17.4015 -10.5929 -2.5014 0.9212
-15.9996 -12.6109 -2.5014 0.9212
-14.3649 -14.4454 -2.5014 0.9212
-11.8451 -15.2020 -2.3663 0.9253
-7.8110 -17.4655 -2.3492 0.9258
-1.1183 -19.0998 -2.3492 0.9258
6.0900 -19.4405 -2.5014 0.9212
12.5811 -16.0231 -2.5014 0.9212
16.0465 -12.5512 -2.5014 0.9212
17.4408 -10.5280 -2.5014 0.9212
18.5815 -8.3516 -2.5014 0.9212
19.4518 -6.0537 -2.5014 0.9212
20.0392 -3.6679 -2.5014 0.9212
20.3350 -1.2286 -2.5014 0.9212
20.3350 1.2286 -2.5014 0.9212
16.3796 9.8874 -2.3492 0.9258
11.5722 9.0515 -1.8039 0.9425
5.2452 8.6528 -1.2424 0.9600
3.8984 8.6305 -1.1628 0.9626
2.6865 8.5760 -1.1035 0.9644
1.5779 8.5313 -1.0653 0.9656
-1.5747 8.6947 -1.0849 0.9650
-5.1666 8.5951 -1.2313 0.9604
-6.6246 8.5020 -1.3234 0.9575
-11.1054 8.7533 -1.7362 0.9446
-17.4215 7.9084 -2.3492 0.9258
-18.2470 5.7534 -2.3492 0.9258
-18.8069 3.5148 -2.3492 0.9258
-20.3303 1.3043 -2.5014 0.9212
-16.0931 -12.4914 -2.5014 0.9212
-14.4721 -14.3380 -2.5014 0.9212
-5.7874 -18.2362 -2.3492 0.9258
-1.2605 -19.0910 -2.3492 0.9258
3.5559 -20.0593 -2.5014 0.9212
5.9451 -19.4853 -2.5014 0.9212
12.4614 -16.1163 -2.5014 0.9212
14.3111 -14.4988 -2.5014 0.9212
20.3436 1.0771 -2.5014 0.9212
18.3101 5.5492 -2.3492 0.9258
16.4528 9.7652 -2.3492 0.9258
2.7578 8.5787 -1.1064 0.9643
1.6443 8.5341 -1.0671 0.9656
-0.4437 8.6878 -1.0681 0.9655
-5.0829 8.6003 -1.2266 0.9605
-6.5282 8.5083 -1.3168 0.9577
-10.9356 8.7522 -1.7198 0.9451
-14.1717 8.7721 -2.0464 0.9350
-17.3621 8.0380 -2.3492 0.9258
-18.7802 3.6547 -2.3492 0.9258
-20.3200 1.4557 -2.5014 0.9212
-20.3475 -1.0013 -2.5014 0.9212
-20.0789 -3.4438 -2.5014 0.9212
-14.5786 -14.2298 -2.5014 0.9212
-12.2960 -15.3049 -2.4106 0.9239
-10.1001 -16.2494 -2.3492 0.9258
-8.0703 -17.3472 -2.3492 0.9258
-5.9230 -18.1926 -2.3492 0.9258
-1.4027 -19.0810 -2.3492 0.9258
5.7997 -19.5291 -2.5014 0.9212
10.2998 -17.5766 -2.5014 0.9212
14.2026 -14.6051 -2.5014 0.9212
15.8577 -12.7888 -2.5014 0.9212
17.2821 -10.7866 -2.5014 0.9212
18.4550 -8.6275 -2.5014 0.9212
19.3595 -6.3429 -2.5014 0.9212
19.9823 -3.9660 -2.5014 0.9212
20.3145 -1.5314 -2.5014 0.9212
20.0916 3.3690 -2.5014 0.9212
17.5658 7.5827 -2.3492 0.9258
16.5251 9.6423 -2.3492 0.9258
11.6993 8.8733 -1.8029 0.9425
1.7109 8.5368 -1.0690 0.9655
0.6560 8.4912 -1.0457 0.9663
-2.5487 8.7007 -1.1132 0.9641
-4.9998 8.6055 -1.2220 0.9607
-10.7689 8.7512 -1.7038 0.9456
-17.3018 8.1671 -2.3492 0.9258
-18.1592 6.0246 -2.3492 0.9258
-20.3086 1.6070 -2.5014 0.9212
-20.3544 -0.8498 -2.5014 0.9212
-20.1040 -3.2941 -2.5014 0.9212
-19.5612 -5.6906 -2.5014 0.9212
-18.7338 -8.0042 -2.5014 0.9212
-17.6338 -10.2015 -2.5014 0.9212
-14.6841 -14.1208 -2.5014 0.9212
-12.5279 -15.3578 -2.4335 0.9232
-8.1993 -17.2866 -2.3492 0.9258
-6.0584 -18.1480 -2.3492 0.9258
-3.8294 -18.7454 -2.3492 0.9258
3.2567 -20.1101 -2.5014 0.9212
5.6541 -19.5718 -2.5014 0.9212
7.9693 -18.7487 -2.5014 0.9212
12.2199 -16.3002 -2.5014 0.9212
15.7620 -12.9066 -2.5014 0.9212
18.3902 -8.7648 -2.5014 0.9212
19.9522 -4.1147 -2.5014 0.9212
20.3574 0.7740 -2.5014 0.9212
18.3907 5.2758 -2.3492 0.9258
16.5965 9.5190 -2.3492 0.9258
9.0409 8.6295 -1.5346 0.9509
7.1028 8.6414 -1.3735 0.9559
5.5122 8.6512 -1.2595 0.9595
8.3515 17.4394 -2.3742 0.9250
2.9013 8.5842 -1.1126 0.9641
-2.4784 8.7003 -1.1108 0.9642
-8.3075 8.7361 -1.4802 0.9526
-17.2405 8.2957 -2.3492 0.9258
-18.1139 6.1597 -2.3492 0.9258
-20.2781 1.7567 -2.4992 0.9212
-20.1280 -3.1443 -2.5014 0.9212
-19.6030 -5.5447 -2.5014 0.9212
-16.3682 -12.1287 -2.5014 0.9212
-14.7889 -14.0111 -2.5014 0.9212
-10.3410 -16.0971 -2.3492 0.9258
-6.1934 -18.1024 -2.3492 0.9258
-3.9690 -18.7163 -2.3492 0.9258
3.1068 -20.1338 -2.5014 0.9212
5.5082 -19.6133 -2.5014 0.9212
7.8294 -18.8075 -2.5014 0.9212
10.0368 -17.7281 -2.5014 0.9212
12.0982 -16.3907 -2.5014 0.9212
17.1195 -11.0429 -2.5014 0.9212
18.3245 -8.9015 -2.5014 0.9212
19.9210 -4.2632 -2.5014 0.9212
20.2894 -1.8338 -2.5014 0.9212
20.3626 0.6222 -2.5014 0.9212
20.1396 3.0693 -2.5014 0.9212
11.8152 8.6869 -1.8006 0.9426
9.1759 8.6286 -1.5465 0.9505
7.2108 8.6407 -1.3818 0.9557
5.6029 8.6506 -1.2655 0.9593
2.9736 8.5870 -1.1158 0.9640
1.8448 8.5424 -1.0730 0.9654
-0.2492 8.6866 -1.0670 0.9656
-1.3083 8.6931 -1.0794 0.9652
-10.4446 8.7492 -1.6729 0.9466
-13.4821 8.7679 -1.9747 0.9372
-17.1782 8.4239 -2.3492 0.9258
-18.0675 6.2944 -2.3492 0.9258
-20.3647 -0.5464 -2.5014 0.9212
-20.1508 -2.9943 -2.5014 0.9212
-19.6438 -5.3985 -2.5014 0.9212
-17.7838 -9.9377 -2.5014 0.9212
-14.8929 -13.9005 -2.5014 0.9212
-10.4606 -16.0196 -2.3492 0.9258
-6.3280 -18.0557 -2.3492 0.9258
-4.1082 -18.6862 -2.3492 0.9258
2.9568 -20.1564 -2.5014 0.9212
5.3619 -19.6538 -2.5014 0.9212
7.6891 -18.8653 -2.5014 0.9212
9.9045 -17.8023 -2.5014 0.9212
15.5680 -13.1400 -2.5014 0.9212
17.0368 -11.1701 -2.5014 0.9212
19.2130 -6.7738 -2.5014 0.9212
19.8887 -4.4114 -2.5014 0.9212
20.3667 0.4705 -2.5014 0.9212
20.1619 2.9192 -2.5014 0.9212
16.7364 9.2707 -2.3492 0.9258
4.3062 8.6586 -1.1874 0.9618
3.0465 8.5897 -1.1191 0.9639
0.8481 8.4997 -1.0488 0.9662
-0.1845 8.6862 -1.0668 0.9656
-1.2421 8.6927 -1.0782 0.9652
-2.3386 8.6994 -1.1061 0.9643
-3.5109 8.7066 -1.1527 0.9629
-4.7542 8.6206 -1.2088 0.9611
-6.1520 8.5326 -1.2916 0.9585
-8.0617 8.7346 -1.4595 0.9532
-13.2628 8.7665 -1.9521 0.9379
-18.0201 6.4289 -2.3492 0.9258
-18.6630 4.2125 -2.3492 0.9258
-20.2132 2.0549 -2.4947 0.9214
-20.3683 -0.3947 -2.5014 0.9212
-18.9080 -7.5836 -2.5014 0.9212
-17.8574 -9.8049 -2.5014 0.9212
-8.5835 -17.0991 -2.3492 0.9258
-6.4624 -18.0080 -2.3492 0.9258
0.3350 -19.1296 -2.3492 0.9258
7.5484 -18.9221 -2.5014 0.9212
9.7716 -17.8756 -2.5014 0.9212
16.9531 -11.2967 -2.5014 0.9212
19.1619 -6.9168 -2.5014 0.9212
19.8553 -4.5595 -2.5014 0.9212
20.2598 -2.1358 -2.5014 0.9212
20.1830 2.7690 -2.5014 0.9212
12.6067 8.9827 -1.9007 0.9395
9.4523 8.6269 -1.5713 0.9497
7.4308 8.6394 -1.3992 0.9551
5.7869 8.6495 -1.2778 0.9589
4.3867 8.6581 -1.1917 0.9616
0.9124 8.5026 -1.0500 0.9661
-0.1198 8.6858 -1.0666 0.9656
-1.1760 8.6923 -1.0770 0.9653
-3.4355 8.7062 -1.1492 0.9630
-4.6735 8.6256 -1.2046 0.9612
-6.0601 8.5386 -1.2856 0.9587
-7.5520 8.3055 -1.3783 0.9558
-10.1318 8.7473 -1.6435 0.9475
15.7290 1.4216 -2.5014 0.9380
15.4434 3.3050 -2.5014 0.9380
6.6431 2.2867 -1.1127 0.9719
10.3701 8.6213 -2.1359 0.9468
8.1288 8.6122 -1.8757 0.9532
2.3845 8.4905 -1.3968 0.9649
0.2814 8.6786 -1.3753 0.9654
-1.8441 8.6964 -1.4080 0.9646
-2.9777 8.7033 -1.4569 0.9634
-6.8644 8.2881 -1.7045 0.9574
-11.9170 8.8304 -2.3492 0.9417
-15.6038 2.4375 -2.5014 0.9380
-15.7838 0.5412 -2.5014 0.9380
-15.7341 -1.3630 -2.5014 0.9380
-15.4556 -3.2474 -2.5014 0.9380
-14.9522 -5.0846 -2.5014 0.9380
-14.2313 -6.8477 -2.5014 0.9380
-12.1818 -10.0510 -2.5014 0.9380
-7.8320 -13.7143 -2.5014 0.9380
-4.3160 -15.1513 -2.4952 0.9382
3.2186 -15.4616 -2.5014 0.9380
6.8212 -14.2440 -2.5014 0.9380
10.0283 -12.2005 -2.5014 0.9380
11.4243 -10.9044 -2.5014 0.9380
12.6540 -9.4497 -2.5014 0.9380
14.5460 -6.1510 -2.5014 0.9380
15.1807 -4.3550 -2.5014 0.9380
15.5946 -2.4956 -2.5014 0.9380
15.7817 -0.6000 -2.5014 0.9380
15.7391 1.3044 -2.5014 0.9380
15.4676 3.1898 -2.5014 0.9380
6.7758 2.2760 -1.1321 0.9715
12.5235 7.9468 -2.3492 0.9417
10.5275 8.6203 -2.1551 0.9464
8.2721 8.6342 -1.8939 0.9527
0.3308 8.2957 -1.3150 0.9669
-6.7816 8.3135 -1.6993 0.9575
-11.8509 8.9189 -2.3492 0.9417
-12.8385 7.4273 -2.3492 0.9417
-13.6393 5.8275 -2.3492 0.9417
-14.2417 4.1431 -2.3492 0.9417
-15.5852 2.5537 -2.5014 0.9380
-15.7793 0.6587 -2.5014 0.9380
-15.7438 -1.2458 -2.5014 0.9380
-15.4793 -3.1322 -2.5014 0.9380
-14.2819 -6.7416 -2.5014 0.9380
-12.2564 -9.9600 -2.5014 0.9380
-10.9681 -11.3632 -2.5014 0.9380
-7.9339 -13.6556 -2.5014 0.9380
1.2165 -15.7461 -2.5014 0.9380
6.7150 -14.2944 -2.5014 0.9380
9.9372 -12.2749 -2.5014 0.9380
11.3427 -10.9892 -2.5014 0.9380
13.6408 -7.9593 -2.5014 0.9380
14.4998 -6.2592 -2.5014 0.9380
15.1479 -4.4679 -2.5014 0.9380
15.7484 1.1872 -2.5014 0.9380
12.5824 7.8533 -2.3492 0.9417
10.6484 8.5877 -2.1667 0.9461
5.0711 8.6539 -1.5886 0.9602
-1.7090 8.6955 -1.4036 0.9647
-4.0336 8.6702 -1.5146 0.9620
-5.2857 8.5038 -1.5858 0.9603
-6.6994 8.3387 -1.6942 0.9576
-12.7828 7.5227 -2.3492 0.9417
-13.5955 5.9290 -2.3492 0.9417
-15.5658 2.6697 -2.5014 0.9380
-15.7527 -1.1285 -2.5014 0.9380
-15.0263 -4.8613 -2.5014 0.9380
-6.3314 -14.4448 -2.4979 0.9381
-4.5409 -15.0842 -2.4950 0.9382
-0.8056 -15.7725 -2.5014 0.9380
1.0992 -15.7548 -2.5014 0.9380
2.9880 -15.5078 -2.5014 0.9380
4.8333 -15.0353 -2.5014 0.9380
6.6083 -14.3440 -2.5014 0.9380
8.2872 -13.4441 -2.5014 0.9380
13.5811 -8.0607 -2.5014 0.9380
14.4528 -6.3670 -2.5014 0.9380
15.1142 -4.5806 -2.5014 0.9380
15.5557 -2.7277 -2.5014 0.9380
15.5134 2.9591 -2.5014 0.9380
3.8144 8.6150 -1.4922 0.9626
2.5928 8.4981 -1.4072 0.9647
0.4564 8.3258 -1.3207 0.9668
-0.5737 8.6886 -1.3791 0.9654
-1.6418 8.6951 -1.4015 0.9648
-6.6176 8.3637 -1.6892 0.9577
-11.2654 8.7441 -2.2587 0.9439
-12.7264 7.6177 -2.3492 0.9417
-13.5510 6.0301 -2.3492 0.9417
-14.1784 4.3547 -2.3492 0.9417
-15.7678 0.8937 -2.5014 0.9380
-15.5243 -2.9013 -2.5014 0.9380
-13.4902 -8.2120 -2.5014 0.9380
-11.1361 -11.1985 -2.5014 0.9380
-9.7069 -12.4578 -2.5014 0.9380
-2.8132 -15.5332 -2.5002 0.9381
-0.9231 -15.7661 -2.5014 0.9380
0.9818 -15.7625 -2.5014 0.9380
2.8724 -15.5297 -2.5014 0.9380
13.5207 -8.1617 -2.5014 0.9380
15.0797 -4.6931 -2.5014 0.9380
15.5350 -2.8434 -2.5014 0.9380
7.1972 2.2399 -1.1938 0.9699
11.6828 9.1380 -2.3492 0.9417
5.2452 8.6528 -1.6026 0.9598
3.8984 8.6305 -1.4999 0.9624
1.5646 8.4589 -1.3625 0.9658
0.5195 8.3409 -1.3236 0.9667
-1.5747 8.6947 -1.3995 0.9648
-2.6903 8.7016 -1.4426 0.9638
-8.6898 8.7384 -1.9519 0.9513
-11.0971 8.7467 -2.2379 0.9444
-14.1456 4.4602 -2.3492 0.9417
-15.7678 -0.8937 -2.5014 0.9380
-15.5455 -2.7856 -2.5014 0.9380
-15.0970 -4.6369 -2.5014 0.9380
-12.4759 -9.6837 -2.5014 0.9380
-9.7994 -12.3852 -2.5014 0.9380
-8.2370 -13.4749 -2.5014 0.9380
-6.5483 -14.3543 -2.4989 0.9381
-2.9282 -15.5084 -2.4997 0.9381
-1.0405 -15.7587 -2.5014 0.9380
2.7566 -15.5506 -2.5014 0.9380
9.6604 -12.4939 -2.5014 0.9380
13.4595 -8.2621 -2.5014 0.9380
14.3563 -6.5816 -2.5014 0.9380
15.5134 -2.9591 -2.5014 0.9380
15.7568 -1.0698 -2.5014 0.9380
7.3782 2.2361 -1.2211 0.9693
6.1105 2.6919 -1.0576 0.9733
12.7547 7.5702 -2.3492 0.9417
3.9833 8.6463 -1.5078 0.9622
2.7335 8.5032 -1.4146 0.9645
1.6303 8.4615 -1.3648 0.9657
0.5830 8.3560 -1.3267 0.9666
-0.4437 8.6878 -1.3778 0.9654
-1.5078 8.6943 -1.3976 0.9649
-2.6194 8.7011 -1.4392 0.9639
-3.8074 8.6865 -1.5022 0.9623
-6.4552 8.4131 -1.6795 0.9580
-10.9356 8.7522 -2.2184 0.9449
-14.1120 4.5655 -2.3492 0.9417
-15.4921 3.0149 -2.4997 0.9381
-15.7740 -0.7762 -2.5014 0.9380
-13.6110 -8.0101 -2.5014 0.9380
-9.8914 -12.3118 -2.5014 0.9380
-8.3372 -13.4131 -2.5014 0.9380
-6.6566 -14.3084 -2.4995 0.9381
-3.0430 -15.4829 -2.4992 0.9381
0.7469 -15.7754 -2.5014 0.9380
4.4961 -15.1396 -2.5014 0.9380
6.2862 -14.4881 -2.5014 0.9380
7.9847 -13.6259 -2.5014 0.9380
11.0103 -11.3223 -2.5014 0.9380
12.2934 -9.9143 -2.5014 0.9380
14.3069 -6.6883 -2.5014 0.9380
15.0081 -4.9172 -2.5014 0.9380
15.7768 0.7175 -2.5014 0.9380
15.5756 2.6117 -2.5014 0.9380
5.4224 8.6517 -1.6172 0.9595
1.6963 8.4642 -1.3672 0.9656
-0.3789 8.6874 -1.3773 0.9654
-1.4412 8.6939 -1.3958 0.9649
-8.4331 8.7369 -1.9232 0.9520
-10.7689 8.7512 -2.1978 0.9454
-12.5531 7.9001 -2.3492 0.9417
-14.0776 4.6704 -2.3492 0.9417
-15.1644 -4.4115 -2.5014 0.9380
-13.6703 -7.9085 -2.5014 0.9380
-9.9828 -12.2378 -2.5014 0.9380
-6.7646 -14.2618 -2.5001 0.9381
-3.1576 -15.4567 -2.4987 0.9381
0.6294 -15.7805 -2.5014 0.9380
2.5247 -15.5900 -2.5014 0.9380
4.3832 -15.1726 -2.5014 0.9380
7.8830 -13.6850 -2.5014 0.9380
10.9257 -11.4040 -2.5014 0.9380
12.2192 -10.0056 -2.5014 0.9380
14.2567 -6.7947 -2.5014 0.9380
15.4676 -3.1898 -2.5014 0.9380
15.7391 -1.3044 -2.5014 0.9380
6.1600 2.6048 -1.0593 0.9733
6.0200 3.4528 -1.0992 0.9723
7.1028 8.6414 -1.7717 0.9557
6.4336 13.4345 -2.3592 0.9415
1.7625 8.4668 -1.3698 0.9656
-0.3141 8.6870 -1.3768 0.9654
-2.4784 8.7003 -1.4328 0.9640
-6.2757 8.4364 -1.6654 0.9583
-14.0424 4.7752 -2.3492 0.9417
-15.4238 3.2407 -2.4962 0.9382
-15.7341 1.3630 -2.5014 0.9380
-15.7838 -0.5412 -2.5014 0.9380
-15.6038 -2.4376 -2.5014 0.9380
-15.1969 -4.2984 -2.5014 0.9380
-14.5688 -6.0967 -2.5014 0.9380
-10.0737 -12.1631 -2.5014 0.9380
-5.0992 -14.9041 -2.4949 0.9382
-3.2720 -15.4297 -2.4982 0.9381
6.0696 -14.5802 -2.5014 0.9380
7.7809 -13.7433 -2.5014 0.9380
9.3789 -12.7066 -2.5014 0.9380
14.2057 -6.9007 -2.5014 0.9380
14.9332 -5.1402 -2.5014 0.9380
15.7289 -1.4216 -2.5014 0.9380
15.7857 0.4824 -2.5014 0.9380
15.6128 2.3794 -2.5014 0.9380
6.1854 2.5614 -1.0603 0.9733
11.8152 8.6869 -2.3227 0.9423
9.1759 8.6286 -1.9950 0.9503
7.2108 8.6407 -1.7825 0.9554
5.6029 8.6506 -1.6324 0.9591
4.2126 8.6311 -1.5212 0.9619
1.8290 8.4694 -1.3723 0.9655
0.7751 8.4015 -1.3363 0.9664
-3.5867 8.7071 -1.4915 0.9626
-4.7910 8.5364 -1.5504 0.9611
-6.1833 8.4428 -1.6575 0.9585
-12.4340 8.0863 -2.3492 0.9417
-13.3171 6.5305 -2.3492 0.9417
-14.0065 4.8796 -2.3492 0.9417
-15.7236 1.4802 -2.5014 0.9380
-15.2285 -4.1851 -2.5014 0.9380
-13.7866 -7.7040 -2.5014 0.9380
-11.5454 -10.7761 -2.5014 0.9380
-10.1640 -12.0878 -2.5014 0.9380
-8.6348 -13.2235 -2.5014 0.9380
-6.9797 -14.1663 -2.5013 0.9380
-3.3862 -15.4020 -2.4977 0.9381
0.3942 -15.7882 -2.5014 0.9380
2.2922 -15.6258 -2.5014 0.9380
4.1567 -15.2362 -2.5014 0.9380
5.9608 -14.6250 -2.5014 0.9380
9.2840 -12.7761 -2.5014 0.9380
10.7546 -11.5654 -2.5014 0.9380
13.2074 -8.6594 -2.5014 0.9380
15.4183 -3.4199 -2.5014 0.9380
15.7179 -1.5387 -2.5014 0.9380
15.6301 2.2631 -2.5014 0.9380
15.0806 4.0841 -2.4746 0.9387
11.8675 8.5900 -2.3204 0.9424
9.3130 8.6278 -2.0107 0.9499
7.3201 8.6400 -1.7936 0.9552
5.6944 8.6500 -1.6403 0.9589
4.3062 8.6586 -1.5316 0.9616
1.8957 8.4720 -1.3750 0.9655
-0.1845 8.6862 -1.3761 0.9654
-1.2421 8.6927 -1.3908 0.9651
-2.3386 8.6994 -1.4268 0.9642
-3.5109 8.7066 -1.4869 0.9627
-7.4752 8.0991 -1.7456 0.9563
-15.2232 3.4362 -2.4718 0.9388
-15.7121 1.5973 -2.5014 0.9380
-15.6384 -2.2048 -2.5014 0.9380
-15.2592 -4.0716 -2.5014 0.9380
-14.6580 -5.8790 -2.5014 0.9380
-8.7330 -13.1588 -2.5014 0.9380
-5.3213 -14.8282 -2.4952 0.9382
-3.5002 -15.3735 -2.4972 0.9381
5.8517 -14.6689 -2.5014 0.9380
7.5753 -13.8577 -2.5014 0.9380
9.1885 -12.8449 -2.5014 0.9380
13.1425 -8.7575 -2.5014 0.9380
14.1013 -7.1116 -2.5014 0.9380
14.8549 -5.3621 -2.5014 0.9380
15.3924 -3.5346 -2.5014 0.9380
15.7911 0.2472 -2.5014 0.9380
5.9763 3.2525 -1.0777 0.9728
5.7869 8.6495 -1.6483 0.9587
-0.1198 8.6858 -1.3758 0.9654
-2.2691 8.6990 -1.4239 0.9642
-4.6370 8.5583 -1.5417 0.9613
-6.0010 8.4554 -1.6422 0.9589
12.7216 -1.9388 -2.5014 0.9489
12.5835 2.6929 -2.5014 0.9489
6.3670 2.1916 -1.3089 0.9729
5.4954 2.6695 -1.1876 0.9754
9.2933 7.7261 -2.3492 0.9519
6.3816 8.6458 -2.0888 0.9572
4.9000 8.6549 -1.9333 0.9603
2.3637 8.4165 -1.6993 0.9650
1.2885 8.3500 -1.6423 0.9662
0.2814 8.6786 -1.6878 0.9652
-2.9777 8.7033 -1.7880 0.9632
-4.1788 8.6433 -1.8661 0.9616
-5.4063 8.4156 -1.9443 0.9601
-7.7088 9.3077 -2.3492 0.9519
-8.7733 8.3119 -2.3492 0.9519
-9.7102 7.1952 -2.3492 0.9519
-10.5058 5.9738 -2.3492 0.9519
-12.3820 3.5022 -2.5012 0.9489
-12.7143 1.9862 -2.5014 0.9489
-12.8205 -1.1106 -2.5014 0.9489
-11.5959 -5.5797 -2.5014 0.9489
-10.8398 -6.9352 -2.5014 0.9489
-9.9260 -8.1898 -2.5014 0.9489
-6.3816 -11.1746 -2.5014 0.9489
-3.5255 -12.3761 -2.5014 0.9489
-2.0098 -12.7105 -2.5014 0.9489
1.0867 -12.8225 -2.5014 0.9489
2.6226 -12.5984 -2.5014 0.9489
4.1203 -12.1910 -2.5014 0.9489
5.5581 -11.6063 -2.5014 0.9489
6.9150 -10.8527 -2.5014 0.9489
11.1627 -6.4024 -2.5014 0.9489
11.8523 -5.0119 -2.5014 0.9489
12.3695 -3.5485 -2.5014 0.9489
12.7068 -2.0335 -2.5014 0.9489
12.8592 -0.4888 -2.5014 0.9489
12.6033 2.5991 -2.5014 0.9489
5.5168 2.6293 -1.1879 0.9754
8.3608 8.7267 -2.3492 0.9519
4.9852 8.6544 -1.9414 0.9601
3.6488 8.5842 -1.8131 0.9627
0.3242 8.1293 -1.5814 0.9674
-0.7039 8.6894 -1.6946 0.9651
-4.1060 8.6568 -1.8624 0.9617
-11.1136 4.7484 -2.3492 0.9519
-12.8284 -1.0151 -2.5014 0.9489
-12.2138 -4.0522 -2.5014 0.9489
0.9912 -12.8302 -2.5014 0.9489
2.5287 -12.6176 -2.5014 0.9489
5.4715 -11.6473 -2.5014 0.9489
6.8339 -10.9039 -2.5014 0.9489
9.2423 -8.9542 -2.5014 0.9489
11.1147 -6.4854 -2.5014 0.9489
11.8147 -5.1001 -2.5014 0.9489
12.3428 -3.6405 -2.5014 0.9489
12.8552 -0.5846 -2.5014 0.9489
12.8321 0.9673 -2.5014 0.9489
6.6098 2.1656 -1.3520 0.9721
9.4074 7.5868 -2.3492 0.9519
8.4255 8.6642 -2.3492 0.9519
3.7312 8.5995 -1.8221 0.9625
1.4211 8.3794 -1.6521 0.9660
0.3855 8.1437 -1.5847 0.9673
-1.7090 8.6955 -1.7226 0.9645
-2.8333 8.7025 -1.7790 0.9634
-4.0336 8.6702 -1.8588 0.9618
-5.2490 8.4448 -1.9328 0.9603
-7.5693 9.4215 -2.3492 0.9519
-8.6485 8.4416 -2.3492 0.9519
-10.4157 6.1296 -2.3492 0.9519
-11.0779 4.8310 -2.3492 0.9519
-12.3144 3.6821 -2.4984 0.9490
-12.6833 2.1753 -2.5014 0.9489
-12.8529 0.6325 -2.5014 0.9489
-12.8356 -0.9195 -2.5014 0.9489
-12.6315 -2.4582 -2.5014 0.9489
-12.2437 -3.9611 -2.5014 0.9489
-10.0469 -8.0410 -2.5014 0.9489
-9.0057 -9.1921 -2.5014 0.9489
-6.5474 -11.0783 -2.5014 0.9489
-5.1660 -11.7860 -2.5014 0.9489
-3.7094 -12.3222 -2.5014 0.9489
-0.6564 -12.8517 -2.5014 0.9489
3.9383 -12.2510 -2.5014 0.9489
5.3845 -11.6878 -2.5014 0.9489
8.0223 -10.0618 -2.5014 0.9489
9.1753 -9.0228 -2.5014 0.9489
11.0661 -6.5680 -2.5014 0.9489
11.7764 -5.1879 -2.5014 0.9489
12.6751 -2.2225 -2.5014 0.9489
12.8505 -0.6804 -2.5014 0.9489
12.8389 0.8717 -2.5014 0.9489
5.5614 2.5496 -1.1892 0.9754
5.3876 3.3072 -1.2288 0.9746
8.4898 8.6012 -2.3492 0.9519
6.6836 8.6439 -2.1239 0.9565
3.8144 8.6150 -1.8314 0.9623
2.5700 8.4235 -1.7119 0.9647
1.4863 8.3845 -1.6552 0.9659
-1.6418 8.6951 -1.7200 0.9646
-5.1710 8.4592 -1.9272 0.9604
-9.5470 7.4103 -2.3492 0.9519
-10.3697 6.2070 -2.3492 0.9519
-11.0416 4.9134 -2.3492 0.9519
-12.2797 3.7716 -2.4970 0.9490
-12.6667 2.2697 -2.5014 0.9489
-12.8478 0.7282 -2.5014 0.9489
-12.8421 -0.8239 -2.5014 0.9489
-12.6495 -2.3640 -2.5014 0.9489
-11.7177 -5.3192 -2.5014 0.9489
-10.1065 -7.9660 -2.5014 0.9489
-9.0739 -9.1248 -2.5014 0.9489
-6.6297 -11.0292 -2.5014 0.9489
-5.2536 -11.7472 -2.5014 0.9489
-3.8011 -12.2943 -2.5014 0.9489
-0.7521 -12.8465 -2.5014 0.9489
9.1079 -9.0909 -2.5014 0.9489
11.0169 -6.6503 -2.5014 0.9489
11.7374 -5.2755 -2.5014 0.9489
12.2872 -3.8240 -2.5014 0.9489
12.8450 -0.7760 -2.5014 0.9489
12.8450 0.7761 -2.5014 0.9489
5.5841 2.5098 -1.1900 0.9754
5.3799 3.2476 -1.2215 0.9747
8.5537 8.5378 -2.3492 0.9519
5.2452 8.6528 -1.9668 0.9596
3.8984 8.6305 -1.8408 0.9621
2.6395 8.4258 -1.7163 0.9647
-3.8895 8.6969 -1.8519 0.9619
-8.5218 8.5696 -2.3492 0.9519
-9.4916 7.4812 -2.3492 0.9519
-10.3232 6.2841 -2.3492 0.9519
-11.0047 4.9955 -2.3492 0.9519
-12.6495 2.3640 -2.5014 0.9489
-12.8421 0.8239 -2.5014 0.9489
-12.6667 -2.2697 -2.5014 0.9489
-12.3013 -3.7782 -2.5014 0.9489
-11.7570 -5.2317 -2.5014 0.9489
-11.0416 -6.6092 -2.5014 0.9489
-10.1656 -7.8904 -2.5014 0.9489
-9.1416 -9.0569 -2.5014 0.9489
-7.9847 -10.0917 -2.5014 0.9489
-6.7117 -10.9796 -2.5014 0.9489
-5.3410 -11.7078 -2.5014 0.9489
-0.8478 -12.8405 -2.5014 0.9489
0.7043 -12.8492 -2.5014 0.9489
2.2461 -12.6709 -2.5014 0.9489
6.5886 -11.0538 -2.5014 0.9489
9.0399 -9.1585 -2.5014 0.9489
10.9670 -6.7321 -2.5014 0.9489
12.2583 -3.9154 -2.5014 0.9489
12.8389 -0.8717 -2.5014 0.9489
12.6751 2.2225 -2.5014 0.9489
7.0446 2.1350 -1.4308 0.9705
9.5746 7.3747 -2.3492 0.9519
2.7093 8.4281 -1.7208 0.9646
0.5712 8.1869 -1.5952 0.9671
-2.6194 8.7011 -1.7663 0.9636
-3.8074 8.6865 -1.8436 0.9621
-6.3218 8.2393 -2.0187 0.9586
-8.4577 8.6328 -2.3492 0.9519
