ply
format ascii 1.0
element vertex 1580
property float32 x
property float32 y
property float32 z
property float32 I
end_header
24.0016 -52.8537 9.1939 0.7905
32.6857 -41.4512 8.3608 0.8075
59.8989 -46.6458 12.0244 0.7353
59.9195 -35.9929 11.0709 0.7535
72.6781 13.4807 11.7074 0.7413
60.0540 18.8483 9.9691 0.7750
44.5542 20.1559 7.7452 0.8203
8.6045 8.6321 1.9304 0.9518
5.2146 8.6530 1.6001 0.9599
29.0879 64.8516 11.2574 0.7499
2.6901 8.6685 1.4375 0.9639
1.5803 8.6753 1.3966 0.9649
0.5169 8.6819 1.3775 0.9654
-0.5328 8.6883 1.3787 0.9654
-1.5999 8.6949 1.4003 0.9648
-2.7175 8.7017 1.4439 0.9638
-6.8413 8.7271 1.7563 0.9561
-8.7419 8.7387 1.9577 0.9512
-79.6563 48.1585 14.7428 0.6859
-78.0200 24.3345 12.9443 0.7182
-68.2181 -12.4520 10.9832 0.7552
-1.9745 -31.6407 5.0212 0.8795
24.7223 -41.1236 7.5997 0.8234
60.0517 18.4716 9.9510 0.7753
44.7503 19.9376 7.7594 0.8200
34.9408 20.9375 6.4516 0.8479
35.4817 27.5700 7.1168 0.8336
8.7027 8.6316 1.9414 0.9516
29.5327 64.8489 11.2860 0.7493
1.6315 8.6750 1.3981 0.9649
-0.4830 8.6880 1.3782 0.9654
-3.8619 8.7015 1.5078 0.9622
-6.7608 8.7266 1.7484 0.9563
-8.6419 8.7381 1.9465 0.9514
-79.5397 48.7105 14.7725 0.6854
-78.0477 24.8333 12.9722 0.7177
-77.1369 -13.6253 12.4064 0.7282
-79.6550 -35.2163 13.7941 0.7028
-19.4128 -31.5979 5.8737 0.8605
-14.5127 -31.6278 5.5115 0.8686
-10.1200 -31.6495 5.2628 0.8741
-6.0441 -31.6395 5.1018 0.8777
-2.1560 -31.6396 5.0228 0.8795
22.8822 -51.9573 8.9919 0.7946
24.4514 -41.2043 7.5887 0.8236
42.2250 -42.9395 9.5383 0.7836
59.9137 -36.9271 11.1470 0.7520
76.6647 -24.6344 12.7540 0.7217
34.9391 20.6662 6.4294 0.8484
35.3792 27.1678 7.0650 0.8347
-3.8056 8.7084 1.5052 0.9622
-6.6810 8.7261 1.7406 0.9565
-81.2603 26.3673 13.5310 0.7075
-57.2713 -17.0807 9.4657 0.7850
-79.7484 -34.7146 13.7757 0.7031
-19.6613 -31.5964 5.8942 0.8601
-6.2314 -31.6384 5.1073 0.8776
22.6257 -52.1805 9.0081 0.7943
24.2181 -41.3473 7.5894 0.8236
29.9810 -39.3910 7.8404 0.8183
60.2152 -28.1525 10.5280 0.7640
75.1597 -24.6252 12.5268 0.7259
60.0471 17.7219 9.9161 0.7760
35.4777 26.9227 7.0539 0.8350
0.6663 8.6809 1.3790 0.9654
-0.3835 8.6874 1.3773 0.9654
-2.5544 8.7007 1.4362 0.9639
-6.6019 8.7256 1.7330 0.9567
-78.1292 25.8455 13.0340 0.7166
-56.2413 -16.4244 9.2798 0.7888
-64.6581 -37.5007 11.8386 0.7388
-56.8939 -42.9192 11.2876 0.7493
-10.5191 -31.6470 5.2820 0.8737
-6.4191 -31.6372 5.1129 0.8774
-2.5191 -31.6374 5.0267 0.8794
23.2085 -54.3735 9.3636 0.7871
24.0673 -41.6334 7.6166 0.8230
29.7971 -39.6168 7.8514 0.8181
41.9039 -43.5981 9.5777 0.7828
59.8639 -37.8469 11.2174 0.7506
73.8594 -24.6672 12.3333 0.7295
45.0498 19.1529 7.7533 0.8202
34.9358 20.1292 6.3861 0.8493
35.4757 26.6032 7.0232 0.8356
35.5215 34.0436 7.7927 0.8193
5.4868 8.6513 1.6226 0.9594
4.1243 8.6597 1.5192 0.9619
0.7162 8.6806 1.3795 0.9653
-2.5004 8.7004 1.4338 0.9640
-3.6874 8.7077 1.4977 0.9624
-5.0053 8.7158 1.5919 0.9601
-8.3331 8.7197 1.9103 0.9523
-65.2500 53.5628 13.3706 0.7104
-52.5918 17.7317 8.7904 0.7987
-81.4440 6.8363 12.9448 0.7182
-80.1116 -12.7392 12.8479 0.7200
-57.4177 -16.4124 9.4583 0.7852
-56.5165 -42.1302 11.1648 0.7517
-20.1637 -31.5933 5.9362 0.8592
-15.1721 -31.6237 5.5553 0.8676
-10.7081 -31.6110 5.2861 0.8736
-2.7010 -31.6363 5.0289 0.8793
22.9927 -54.7314 9.4025 0.7863
23.6487 -41.4536 7.5589 0.8243
28.9773 -38.9884 7.6939 0.8214
51.7098 -42.6955 10.6210 0.7622
35.5191 33.6544 7.7499 0.8202
7.1555 8.6410 1.7769 0.9556
2.9635 8.6668 1.4507 0.9636
-4.9390 8.7154 1.5866 0.9602
-6.4458 8.7246 1.7181 0.9570
-52.2672 17.9552 8.7532 0.7995
-79.3257 7.1149 12.6144 0.7243
-15.3942 -31.6224 5.5704 0.8672
-2.8829 -31.6352 5.0313 0.8793
22.4744 -54.3655 9.3174 0.7880
28.5544 -38.8814 7.6405 0.8225
39.6378 -42.1946 9.1693 0.7910
51.0326 -42.6287 10.5317 0.7639
59.7028 -38.7064 11.2694 0.7496
59.8585 -29.2458 10.5517 0.7635
70.9481 -24.5993 11.8933 0.7378
46.4971 19.1440 7.9642 0.8158
35.1370 19.7139 6.3812 0.8494
35.4719 25.9726 6.9632 0.8369
35.5168 33.2691 7.7078 0.8211
7.2386 8.6405 1.7853 0.9554
3.0187 8.6665 1.4535 0.9635
0.5560 5.9135 0.9407 0.9762
-0.2344 8.6865 1.3763 0.9654
-1.2934 8.6930 1.3920 0.9650
-3.5703 8.7070 1.4905 0.9626
-6.3688 8.7242 1.7108 0.9572
-8.1561 8.7321 1.8925 0.9528
-81.5819 -12.0195 13.0608 0.7161
-58.0288 -42.2349 11.3675 0.7478
-20.6731 -31.5902 5.9796 0.8582
-6.9848 -31.6338 5.1310 0.8770
21.6249 -53.1683 9.0909 0.7926
23.8555 -42.9488 7.7813 0.8196
28.4117 -39.1538 7.6620 0.8221
39.1362 -42.1405 9.1088 0.7922
69.7818 -24.6421 11.7212 0.7410
35.5144 32.8882 7.6664 0.8220
7.3226 8.6400 1.7938 0.9552
5.6961 8.6500 1.6404 0.9589
3.0742 8.6661 1.4564 0.9634
0.5871 5.8843 0.9366 0.9763
-4.8079 8.7146 1.5764 0.9605
-8.0462 8.7136 1.8785 0.9531
-63.0005 53.5490 13.0958 0.7154
-52.2568 18.6215 8.7865 0.7988
-81.9913 -11.6016 13.1155 0.7151
-79.9769 -32.1298 13.6511 0.7054
-11.3141 -31.6073 5.3172 0.8729
-7.1742 -31.6326 5.1374 0.8769
-3.2475 -31.6329 5.0365 0.8792
21.4718 -53.6686 9.1553 0.7913
22.5367 -41.1260 7.4276 0.8270
38.6879 -42.1378 9.0603 0.7932
49.7588 -42.5390 10.3684 0.7671
68.5103 -24.6343 11.5311 0.7446
5.7669 8.6496 1.6465 0.9588
0.6209 5.8832 0.9370 0.9763
-1.1920 8.6924 1.3896 0.9651
-2.2862 8.6991 1.4246 0.9642
-4.7430 8.7142 1.5714 0.9606
-6.2166 8.7232 1.6966 0.9575
-79.4248 28.8152 13.3820 0.7102
-79.8711 8.5459 12.7225 0.7223
-79.8413 -31.5471 13.5970 0.7063
-64.0904 -34.7647 11.5481 0.7443
-21.1904 -31.5870 6.0244 0.8572
-16.0503 -31.5833 5.6112 0.8663
-11.5177 -31.6060 5.3279 0.8726
-7.3642 -31.6314 5.1439 0.8768
49.9545 -43.2025 10.4605 0.7653
62.8246 -42.2765 11.9936 0.7359
59.7534 -30.4735 10.6237 0.7621
67.2803 -24.6267 11.3476 0.7481
60.4842 15.6195 9.8940 0.7765
34.9639 24.6918 6.7794 0.8408
35.5098 32.1382 7.5856 0.8237
5.8382 8.6491 1.6528 0.9586
2.0452 8.6725 1.4113 0.9646
0.9662 8.6791 1.3831 0.9653
-1.1414 8.6920 1.3885 0.9651
-2.2331 8.6988 1.4224 0.9643
-6.1414 8.7228 1.6896 0.9577
-77.5753 28.6465 13.0977 0.7154
-79.9216 9.0132 12.7386 0.7220
28.6453 64.8543 8.7053 0.7515
1.5293 8.6756 1.0817 0.9651
0.4672 8.6822 1.0676 0.9656
-0.5827 8.6886 1.0692 0.9655
-1.6514 8.6952 1.0867 0.9650
-2.7722 8.7021 1.1214 0.9639
-11.5805 25.3091 3.4174 0.8939
-5.3431 8.7179 1.2555 0.9596
-6.9225 8.7276 1.3678 0.9561
-8.8429 8.7394 1.5266 0.9511
-11.3083 8.7545 1.7559 0.9440
-67.0630 -30.5698 9.0494 0.7430
-24.8146 -31.9591 4.9681 0.8495
-14.9826 -33.6609 4.5240 0.8620
-6.0400 -33.7024 4.2041 0.8711
27.7424 -87.9519 11.3236 0.6896
22.6535 -49.8851 6.7271 0.8019
24.6536 -40.4840 5.8200 0.8261
54.2751 -42.2663 8.4465 0.7579
59.7202 -35.8731 8.5539 0.7552
66.6870 -12.0498 8.3207 0.7610
66.7372 -3.8779 8.2081 0.7638
64.3962 4.0416 7.9224 0.7710
60.0540 18.8484 7.7284 0.7760
44.5542 20.1559 6.0043 0.8211
16.1400 9.7972 2.3183 0.9267
6.7509 8.6435 1.3466 0.9568
2.6901 8.6685 1.1144 0.9641
1.5803 8.6753 1.0827 0.9651
-0.5328 8.6883 1.0688 0.9655
-3.9144 8.6857 1.1698 0.9623
-5.2746 8.7174 1.2510 0.9598
-8.7419 8.7387 1.5177 0.9514
-11.1748 8.7537 1.7430 0.9444
-24.9968 -31.8168 4.9681 0.8495
-20.4023 -33.6377 4.8305 0.8534
26.8750 -86.9297 11.1721 0.6930
22.4177 -50.1244 6.7420 0.8015
32.4270 -41.6098 6.4773 0.8085
59.7174 -36.3371 8.5831 0.7545
59.7716 -27.1174 8.0590 0.7676
78.7786 -24.8181 10.1414 0.7169
66.6846 -12.4430 8.3292 0.7608
66.7349 -4.2603 8.2107 0.7638
64.4868 11.5808 8.0447 0.7679
60.0517 18.4716 7.7143 0.7763
44.7503 19.9376 6.0153 0.8208
11.0896 8.6169 1.7244 0.9450
8.7027 8.6316 1.5050 0.9518
29.5327 64.8489 8.7492 0.7504
2.7444 8.6682 1.1164 0.9640
1.6315 8.6750 1.0838 0.9651
-1.5486 8.6945 1.0844 0.9650
-5.2066 8.7170 1.2467 0.9599
-6.7608 8.7266 1.3554 0.9565
-8.6419 8.7381 1.5090 0.9517
-11.0433 8.7529 1.7302 0.9448
-25.1781 -31.6735 4.9681 0.8495
-20.6650 -33.6361 4.8472 0.8529
-2.7507 -40.3681 4.9681 0.8495
22.8659 -51.9203 6.9659 0.7956
59.7145 -36.8043 8.6128 0.7538
59.7690 -27.5290 8.0797 0.7671
66.7822 3.4260 8.2106 0.7638
66.8325 11.6084 8.3289 0.7608
34.9392 20.6662 4.9843 0.8491
1.6828 8.6747 1.0850 0.9650
0.6165 8.6812 1.0686 0.9655
-0.4333 8.6877 1.0680 0.9656
-1.4973 8.6942 1.0832 0.9651
-2.6086 8.7011 1.1153 0.9641
-8.5432 8.7375 1.5004 0.9519
-10.9137 8.7521 1.7177 0.9452
-20.9296 -33.6345 4.8641 0.8524
-6.6372 -33.6987 4.2172 0.8707
21.9947 -50.7252 6.7886 0.8003
24.2521 -41.4053 5.8918 0.8242
40.9434 -42.1148 7.2120 0.7892
52.4056 -42.2726 8.2671 0.7624
27.0321 -16.8747 3.9132 0.8795
59.7665 -27.9427 8.1008 0.7665
64.1603 -21.0213 8.2899 0.7618
64.1577 -12.7315 8.0312 0.7683
66.7798 3.0435 8.2080 0.7638
66.8301 11.2151 8.3204 0.7610
44.9316 19.4063 6.0095 0.8210
6.9914 8.6421 1.3649 0.9562
5.4180 8.6517 1.2534 0.9597
4.0639 8.6601 1.1746 0.9622
-0.3835 8.6874 1.0677 0.9656
-1.4462 8.6939 1.0821 0.9651
-2.5544 8.7007 1.1134 0.9641
-5.0719 8.7162 1.2382 0.9602
-8.4455 8.7369 1.4920 0.9522
-10.7859 8.7513 1.7054 0.9456
-58.8283 -17.1798 7.5249 0.7812
-21.1960 -33.6328 4.8813 0.8520
-3.2116 -40.3340 4.9681 0.8495
21.8785 -51.2575 6.8430 0.7988
40.8736 -42.5261 7.2423 0.7884
73.8594 -24.6672 9.5612 0.7307
64.1553 -13.1124 8.0401 0.7681
64.3537 10.4220 8.0046 0.7690
60.2452 17.4069 7.6998 0.7767
45.0498 19.1529 6.0106 0.8210
11.4874 8.6144 1.7630 0.9438
5.4868 8.6513 1.2579 0.9596
4.1243 8.6597 1.1777 0.9621
1.7857 8.6741 1.0874 0.9649
-1.3952 8.6936 1.0811 0.9651
-5.0053 8.7158 1.2341 0.9603
-8.3490 8.7363 1.4838 0.9525
-21.4643 -33.6312 4.8987 0.8515
-16.1461 -33.6537 4.5831 0.8603
-10.7081 -31.6110 4.0980 0.8741
23.6093 -41.3847 5.8501 0.8253
40.0961 -42.1970 7.1472 0.7909
51.4245 -42.4599 8.1883 0.7643
59.7057 -38.2259 8.7047 0.7515
59.7613 -28.7768 8.1442 0.7654
73.6295 -25.0586 9.5498 0.7309
66.6749 -14.0244 8.3658 0.7599
64.2494 2.1932 7.8934 0.7718
64.4775 10.0644 8.0127 0.7687
11.6070 8.6010 1.7738 0.9434
9.1072 8.6291 1.5405 0.9507
2.9635 8.6668 1.1246 0.9638
0.7661 8.6803 1.0700 0.9655
-0.2841 8.6868 1.0672 0.9656
-2.4466 8.7001 1.1097 0.9642
-4.9390 8.7154 1.2300 0.9604
-6.4458 8.7246 1.3319 0.9572
-8.2535 8.7358 1.4756 0.9527
-10.5357 8.7498 1.6816 0.9463
-80.7452 7.2422 9.9541 0.7213
-81.2166 -12.4399 10.0884 0.7181
-57.5343 -16.0910 7.3354 0.7860
-80.7558 -33.5191 10.7358 0.7030
-62.7573 -35.4463 8.8498 0.7479
-16.3824 -33.6523 4.5956 0.8600
-7.2384 -33.6950 4.2316 0.8703
-3.6721 -40.2947 4.9681 0.8495
21.6916 -52.4720 6.9716 0.7955
28.9470 -39.4160 6.0046 0.8211
39.6376 -42.1943 7.1083 0.7919
59.7588 -29.1970 8.1664 0.7649
64.2785 -22.2868 8.3533 0.7602
66.6724 -14.4222 8.3757 0.7596
46.4970 19.1440 6.1741 0.8166
7.2386 8.6405 1.3840 0.9556
4.2459 8.6589 1.1841 0.9619
-0.2344 8.6865 1.0670 0.9656
-1.2934 8.6930 1.0791 0.9652
-2.3930 8.6997 1.1079 0.9643
-3.5703 8.7070 1.1555 0.9628
-4.8733 8.7150 1.2260 0.9606
-6.3688 8.7242 1.3263 0.9574
-8.1590 8.7352 1.4676 0.9530
-80.0423 7.6404 9.8726 0.7232
-26.5588 -31.5190 5.0608 0.8470
-22.0067 -33.6279 4.9345 0.8505
59.7587 -29.6208 8.1894 0.7643
64.0968 -22.6346 8.3464 0.7604
64.3324 -6.3262 7.9371 0.7707
35.6067 19.7110 4.9971 0.8487
11.9036 8.6119 1.8040 0.9425
9.3167 8.6278 1.5591 0.9501
5.6961 8.6500 1.2717 0.9591
0.5870 5.8833 0.7260 0.9765
-1.2426 8.6927 1.0782 0.9652
-3.5123 8.7066 1.1527 0.9629
-8.0462 8.7136 1.4563 0.9533
-10.2924 8.7483 1.6586 0.9470
-79.1988 8.0165 9.7741 0.7256
-63.4147 -34.8685 8.8858 0.7470
-26.8664 -31.5171 5.0850 0.8463
-22.2810 -33.6262 4.9529 0.8500
-16.8592 -33.6494 4.6212 0.8593
-11.3141 -31.6073 4.1220 0.8735
-7.6414 -33.6926 4.2420 0.8700
30.4270 -76.0520 10.0576 0.7188
28.3230 -39.5041 5.9683 0.8221
49.1698 -42.0357 7.9429 0.7705
63.6130 -42.2814 9.3786 0.7350
64.0942 -23.0464 8.3631 0.7600
64.1994 -14.6566 8.0855 0.7669
66.7184 -6.9457 8.2363 0.7631
66.7681 1.1344 8.1993 0.7641
62.2866 8.6321 7.7209 0.7761
60.2360 15.9228 7.6501 0.7780
12.0466 8.6110 1.8182 0.9421
7.4073 8.6395 1.3973 0.9552
5.7669 8.6496 1.2764 0.9590
2.9300 5.8065 0.7986 0.9741
3.1299 8.6658 1.1313 0.9635
1.9930 8.6728 1.0926 0.9648
0.6208 5.8821 0.7262 0.9764
-0.1349 8.6662 1.0642 0.9657
-1.1920 8.6924 1.0773 0.9653
-2.2862 8.6991 1.1044 0.9644
-3.4544 8.7063 1.1501 0.9630
-6.2166 8.7232 1.3152 0.9577
-48.7769 53.4318 8.8831 0.7471
-10.1732 8.7475 1.6474 0.9474
-79.9872 29.0192 10.4476 0.7097
-78.2151 -55.5714 11.7808 0.6793
-22.4767 -33.5045 4.9538 0.8499
-17.0995 -33.6479 4.6343 0.8589
-7.8438 -33.6913 4.2474 0.8699
-3.7860 -34.9137 4.3120 0.8680
25.0007 -46.2474 6.4551 0.8091
48.7936 -42.1985 7.9208 0.7711
66.7657 0.7528 8.1983 0.7641
60.2659 15.5631 7.6425 0.7781
48.8220 19.1297 6.4383 0.8095
36.5759 19.7050 5.1012 0.8458
12.1921 8.6101 1.8327 0.9416
9.5314 8.6264 1.5785 0.9495
7.4930 8.6390 1.4041 0.9550
2.9460 5.7562 0.7940 0.9743
3.1859 8.6654 1.1336 0.9635
2.0452 8.6725 1.0941 0.9647
0.9662 8.6791 1.0722 0.9654
-1.1414 8.6920 1.0764 0.9653
-2.2331 8.6988 1.1027 0.9645
-4.6784 8.7138 1.2144 0.9609
-7.8512 8.6998 1.4389 0.9539
-12.9304 8.7550 1.9173 0.9390
10.8339 8.6184 1.2112 0.9459
8.5073 8.6328 1.0604 0.9525
6.6722 8.6440 0.9553 0.9571
5.1477 8.6534 0.8809 0.9604
28.6453 64.8544 6.2028 0.7523
2.6360 8.6688 0.7927 0.9643
1.5293 8.6756 0.7707 0.9652
0.4672 8.6822 0.7607 0.9657
-0.5827 8.6886 0.7619 0.9656
-2.7722 8.7021 0.7990 0.9640
-11.5805 25.3091 2.4350 0.8943
-5.3431 8.7179 0.8946 0.9598
-8.8429 8.7394 1.0877 0.9513
-14.7039 8.7754 1.4981 0.9336
-18.8999 -31.5659 3.2188 0.8627
-9.7237 -31.6519 2.8969 0.8755
23.0716 -50.8058 4.8818 0.7993
25.1556 -41.3083 4.2314 0.8235
60.1686 -36.1425 6.1408 0.7544
59.6229 -18.4097 5.4593 0.7784
64.2130 -3.7312 5.6274 0.7724
8.6045 8.6321 1.0663 0.9522
6.7509 8.6435 0.9595 0.9569
2.6901 8.6685 0.7941 0.9642
1.5803 8.6753 0.7715 0.9652
-2.7175 8.7017 0.7976 0.9641
-3.9144 8.6857 0.8335 0.9625
-5.2746 8.7174 0.8914 0.9599
-6.8413 8.7271 0.9702 0.9565
-11.1748 8.7537 1.2419 0.9446
-19.5564 8.8052 1.8764 0.9175
-20.4023 -33.6377 3.4419 0.8539
-14.2795 -31.5942 3.0333 0.8700
-1.9782 -31.6993 2.7787 0.8803
26.4187 -85.4535 7.8253 0.6983
60.1657 -36.6100 6.1617 0.7537
60.2203 -27.3210 5.7855 0.7668
64.2107 -4.0992 5.6291 0.7723
64.3070 11.5485 5.7161 0.7692
60.0517 18.4716 5.4968 0.7770
44.7503 19.9376 4.2861 0.8214
14.3094 8.5746 1.4595 0.9352
8.7027 8.6316 1.0724 0.9520
6.8304 8.6430 0.9638 0.9567
29.5327 64.8489 6.2342 0.7512
2.7444 8.6682 0.7955 0.9642
0.5667 8.6816 0.7612 0.9657
-2.6629 8.7014 0.7961 0.9641
-3.8619 8.7015 0.8329 0.9625
-6.7608 8.7266 0.9658 0.9566
-8.6419 8.7381 1.0752 0.9519
-11.0433 8.7529 1.2328 0.9450
-20.6650 -33.6361 3.4538 0.8534
-10.1200 -31.6495 2.9071 0.8751
-2.1600 -31.6982 2.7797 0.8802
26.2925 -86.7991 7.9347 0.6948
24.5386 -41.3513 4.2068 0.8244
32.2443 -41.8662 4.6232 0.8088
53.0273 -42.2765 5.9332 0.7616
60.1628 -37.0806 6.1830 0.7529
60.2178 -27.7357 5.8003 0.7663
44.8295 19.6668 4.2829 0.8215
14.5323 8.5957 1.4772 0.9345
11.2203 8.6161 1.2377 0.9448
6.9106 8.6425 0.9681 0.9565
5.3497 8.6522 0.8900 0.9600
2.7989 8.6678 0.7969 0.9641
1.6828 8.6747 0.7731 0.9651
-2.6086 8.7011 0.7947 0.9642
-6.6810 8.7261 0.9615 0.9568
-8.5432 8.7375 1.0691 0.9521
-10.9137 8.7521 1.2239 0.9454
-18.9667 8.8016 1.8293 0.9195
-58.8717 -17.5579 5.3748 0.7814
-14.7151 -31.5916 3.0490 0.8694
-6.2383 -31.6733 2.8243 0.8784
-2.3418 -31.6971 2.7807 0.8802
25.6586 -86.4841 7.8924 0.6961
22.6138 -52.1530 4.9733 0.7959
24.1077 -41.1588 4.1731 0.8257
32.0650 -42.1290 4.6320 0.8085
52.4056 -42.2726 5.8906 0.7631
60.2152 -28.1525 5.8155 0.7657
59.0153 -19.3356 5.4332 0.7793
59.5601 9.9951 5.2837 0.7847
60.0471 17.7220 5.4775 0.7777
5.4180 8.6517 0.8931 0.9598
4.0639 8.6601 0.8369 0.9623
1.7342 8.6744 0.7739 0.9651
-0.3835 8.6874 0.7608 0.9657
-1.4462 8.6939 0.7711 0.9652
-6.6019 8.7256 0.9573 0.9570
-8.4455 8.7369 1.0631 0.9524
-21.1960 -33.6328 3.4781 0.8525
-6.4262 -31.6721 2.8274 0.8783
-2.5238 -31.6960 2.7818 0.8801
25.1152 -86.4606 7.8770 0.6966
31.6696 -42.1065 4.6095 0.8093
51.7930 -42.2690 5.8488 0.7646
60.1570 -38.0321 6.2266 0.7514
59.9634 -28.4532 5.8067 0.7661
64.2039 -5.2047 5.6355 0.7721
59.3619 9.6136 5.2612 0.7855
60.0448 17.3491 5.4681 0.7781
45.0498 19.1529 4.2828 0.8216
14.9145 8.5934 1.5059 0.9332
9.0043 8.6297 1.0912 0.9512
7.0731 8.6416 0.9770 0.9562
5.4868 8.6513 0.8963 0.9597
4.1243 8.6597 0.8392 0.9622
2.9084 8.6671 0.7998 0.9640
1.7857 8.6741 0.7748 0.9651
0.7162 8.6806 0.7620 0.9656
-1.3952 8.6936 0.7703 0.9653
-8.3490 8.7363 1.0572 0.9526
-10.6599 8.7505 1.2066 0.9461
-13.7841 8.7697 1.4293 0.9365
-57.1732 -42.6197 6.2389 0.7510
-15.1554 -31.5889 3.0653 0.8688
-10.7081 -31.6110 2.9200 0.8746
-6.6145 -31.6710 2.8306 0.8782
-2.7030 -31.6600 2.7800 0.8802
24.2167 -42.4492 4.2757 0.8218
31.4887 -42.3674 4.6183 0.8090
40.0960 -42.1969 5.0926 0.7916
60.0244 -38.4299 6.2355 0.7511
59.7614 -28.7768 5.8030 0.7662
64.2017 -5.5737 5.6380 0.7720
60.4080 2.0621 5.2881 0.7845
59.1083 9.2264 5.2339 0.7865
60.0425 16.9774 5.4590 0.7784
45.7640 19.1485 4.3402 0.8194
15.1112 8.5921 1.5208 0.9326
11.6070 8.6010 1.2639 0.9436
1.8374 8.6737 0.7757 0.9650
0.7661 8.6803 0.7624 0.9656
-1.3442 8.6933 0.7696 0.9653
-3.6287 8.7073 0.8253 0.9628
-6.4458 8.7246 0.9490 0.9574
-13.6102 8.7687 1.4165 0.9371
-18.1352 8.7965 1.7634 0.9223
-57.4554 -16.0689 5.2196 0.7870
-21.6408 -33.4844 3.4881 0.8521
-15.3773 -31.5875 3.0736 0.8684
-6.8033 -31.6698 2.8340 0.8780
-2.8883 -31.6938 2.7843 0.8800
24.0081 -86.3174 7.8385 0.6979
22.6763 -54.8539 5.1930 0.7879
23.3923 -41.5541 4.1720 0.8257
29.7034 -40.4459 4.3903 0.8175
39.6376 -42.1943 5.0649 0.7926
59.7028 -38.7064 6.2250 0.7515
59.5043 -20.6315 5.5100 0.7766
64.1506 -13.8767 5.7423 0.7683
64.2472 1.8259 5.6232 0.7725
58.7852 8.8324 5.2008 0.7877
46.4970 19.1440 4.3993 0.8172
9.2114 8.6284 1.1042 0.9506
7.2386 8.6405 0.9862 0.9557
4.2459 8.6589 0.8437 0.9620
0.5557 5.9104 0.5194 0.9764
-0.2344 8.6865 0.7602 0.9657
-2.3930 8.6997 0.7894 0.9644
-10.4133 8.7490 1.1899 0.9469
-13.4394 8.7676 1.4039 0.9376
-80.0947 7.6454 7.0392 0.7239
-22.0067 -33.6279 3.5160 0.8510
-11.1112 -31.6086 2.9313 0.8741
-3.0709 -31.6927 2.7857 0.8800
23.9174 -87.9332 7.9727 0.6936
23.3090 -41.9650 4.1998 0.8247
59.7994 -39.2562 6.2585 0.7503
59.7587 -29.6208 5.8352 0.7651
64.1482 -14.2601 5.7492 0.7681
58.7279 8.4809 5.1913 0.7880
60.0380 16.2378 5.4414 0.7790
7.3226 8.6400 0.9909 0.9555
5.6961 8.6500 0.9061 0.9593
4.3072 8.6586 0.8461 0.9619
3.0742 8.6661 0.8045 0.9638
-1.2426 8.6927 0.7682 0.9654
-8.0462 8.7136 1.0376 0.9535
-13.2715 8.7666 1.3916 0.9381
-17.6133 8.7933 1.7223 0.9240
-16.8592 -33.6494 3.2928 0.8597
-11.3142 -31.6073 2.9371 0.8739
-7.1821 -31.6675 2.8409 0.8778
21.3843 -53.4500 5.0366 0.7936
38.9131 -42.3831 5.0339 0.7937
47.8355 -40.8949 5.5060 0.7767
63.6130 -42.2814 6.6826 0.7359
64.1459 -14.6444 5.7564 0.7678
64.1948 -6.6830 5.6467 0.7717
58.9336 8.1674 5.2053 0.7875
60.0357 15.8699 5.4329 0.7793
48.0254 19.1346 4.5229 0.8126
36.2677 19.8070 3.6154 0.8471
12.0466 8.6110 1.2955 0.9423
9.4234 8.6271 1.1178 0.9500
7.4073 8.6395 0.9956 0.9553
5.7669 8.6496 0.9095 0.9591
2.9299 5.8064 0.5690 0.9742
3.1299 8.6658 0.8061 0.9637
1.9930 8.6728 0.7785 0.9649
-3.4544 8.7063 0.8195 0.9631
-6.2166 8.7232 0.9372 0.9579
-64.7634 -35.1296 6.4460 0.7439
-32.2524 -37.4008 4.3205 0.8201
-17.0995 -33.6479 3.3021 0.8594
-11.5177 -31.6061 2.9431 0.8737
-7.3723 -31.6663 2.8445 0.8776
22.0610 -56.0675 5.2713 0.7851
22.7960 -42.1691 4.1939 0.8249
38.2786 -42.1732 4.9829 0.7956
47.4830 -41.0651 5.4923 0.7772
59.7534 -30.4735 5.8683 0.7639
64.0917 -23.4596 5.9711 0.7603
64.1435 -15.0300 5.7638 0.7676
64.1926 -7.0538 5.6499 0.7716
64.2404 0.7243 5.6207 0.7726
59.1646 7.8554 5.2217 0.7869
36.7596 19.8039 3.6531 0.8456
12.1920 8.6101 1.3058 0.9418
9.5314 8.6264 1.1247 0.9497
7.4930 8.6390 1.0005 0.9551
5.8382 8.6491 0.9130 0.9590
2.9460 5.7562 0.5657 0.9744
3.1859 8.6654 0.8077 0.9636
-0.6503 66.0347 5.7776 0.7671
-2.2331 8.6988 0.7857 0.9646
-3.3969 8.7059 0.8176 0.9632
-10.0556 8.7468 1.1660 0.9479
-17.1152 8.7902 1.6833 0.9257
-21.6873 2.4458 1.9094 0.9161
10.8339 8.6184 0.7255 0.9461
6.6722 8.6440 0.5723 0.9572
5.1477 8.6534 0.5277 0.9605
29.0858 65.8517 3.7728 0.7495
0.4669 8.6761 0.4554 0.9658
-11.5805 25.3091 1.4586 0.8945
-5.3431 8.7179 0.5359 0.9599
-6.9225 8.7276 0.5838 0.9564
-8.8429 8.7394 0.6516 0.9514
-11.3083 8.7545 0.7495 0.9443
-35.1727 1.9430 1.8461 0.8684
-24.4829 -31.5317 2.0922 0.8522
-8.9020 -28.9772 1.5887 0.8857
-4.5250 -25.2485 1.3443 0.9024
-2.0931 -36.9320 1.9386 0.8623
26.4300 -83.7912 4.6046 0.7033
23.2664 -51.2348 2.9490 0.7982
32.5074 -41.2251 2.7514 0.8104
42.1407 -41.8858 3.1139 0.7882
60.0889 -36.0946 3.6736 0.7552
60.2229 -26.9085 3.4569 0.7678
69.1654 -4.0189 3.6309 0.7577
53.7193 9.9641 2.8633 0.8034
44.5542 20.1559 2.5628 0.8221
14.1643 8.5980 0.8684 0.9358
8.6045 8.6321 0.6388 0.9524
6.7509 8.6435 0.5748 0.9570
2.6865 8.6568 0.4750 0.9643
0.5165 8.6757 0.4555 0.9658
-0.5324 8.6818 0.4558 0.9658
-1.5975 8.6816 0.4626 0.9653
-2.7145 8.6922 0.4772 0.9642
-3.9144 8.6857 0.4993 0.9626
-5.2746 8.7174 0.5340 0.9600
-6.8413 8.7271 0.5811 0.9566
-8.7419 8.7387 0.6478 0.9517
-19.5564 8.8052 1.1240 0.9177
-19.1835 -31.6283 1.9386 0.8623
-13.8282 -30.5958 1.7596 0.8742
-4.7498 -15.1524 0.8322 0.9384
-4.6655 -25.2028 1.3433 0.9024
23.2100 -51.8960 2.9794 0.7964
32.3413 -41.4997 2.7574 0.8100
41.9269 -42.1520 3.1158 0.7881
53.9437 -42.5054 3.5992 0.7595
60.2203 -27.3210 3.4656 0.7673
58.5715 -18.4522 3.2183 0.7819
68.4493 -12.7723 3.6492 0.7566
69.1680 -4.4156 3.6323 0.7576
44.7503 19.9376 2.5675 0.8218
14.3094 8.5746 0.8743 0.9354
11.0896 8.6169 0.7360 0.9453
8.7027 8.6316 0.6424 0.9521
5.2819 8.6526 0.5313 0.9602
2.7410 8.6573 0.4759 0.9643
0.5663 8.6753 0.4556 0.9658
-0.4827 8.6816 0.4557 0.9658
-1.5463 8.6817 0.4621 0.9653
-2.6597 8.6909 0.4763 0.9642
-3.8619 8.7015 0.4989 0.9626
-5.2066 8.7170 0.5321 0.9601
-8.6419 8.7381 0.6441 0.9520
-25.0626 -31.5282 2.1108 0.8510
-19.3924 -31.5648 1.9415 0.8621
-14.0386 -30.5945 1.7641 0.8739
-4.4679 -23.3882 1.2479 0.9090
-2.5148 -36.9057 1.9386 0.8623
26.0965 -86.1521 4.7176 0.6973
23.7214 -53.8627 3.0844 0.7900
53.0048 -42.2586 3.5526 0.7622
60.2178 -27.7357 3.4745 0.7668
69.1706 -4.8126 3.6338 0.7575
69.1157 3.5457 3.6270 0.7579
28.2440 8.5115 1.5460 0.8886
14.5323 8.5957 0.8849 0.9346
11.2203 8.6161 0.7414 0.9449
6.9106 8.6425 0.5799 0.9566
5.3497 8.6522 0.5331 0.9601
-0.4329 8.6815 0.4555 0.9658
-1.4952 8.6819 0.4617 0.9653
-2.6052 8.6897 0.4754 0.9643
-3.8056 8.7084 0.4981 0.9626
-6.6810 8.7261 0.5760 0.9569
-8.5432 8.7375 0.6404 0.9522
-10.9137 8.7521 0.7332 0.9455
-27.2828 8.8527 1.5032 0.8915
-25.3563 -31.5264 2.1203 0.8504
-4.5947 -23.3284 1.2461 0.9092
-2.7256 -36.8908 1.9386 0.8623
23.6665 -54.5809 3.1178 0.7880
24.4674 -41.7729 2.5371 0.8237
41.0290 -42.2029 3.0847 0.7900
52.4056 -42.2726 3.5286 0.7636
69.1183 3.1501 3.6261 0.7579
53.0025 8.8947 2.8166 0.8063
6.9914 8.6421 0.5826 0.9565
5.4180 8.6517 0.5350 0.9599
1.7315 8.6608 0.4629 0.9652
0.6658 8.6743 0.4559 0.9658
-0.3832 8.6813 0.4554 0.9658
-1.4442 8.6820 0.4613 0.9654
-2.5508 8.6885 0.4746 0.9644
-5.0719 8.7162 0.5285 0.9604
-8.4455 8.7369 0.6368 0.9525
-13.9614 8.7708 0.8641 0.9361
-18.6827 8.7999 1.0823 0.9206
-58.5624 -17.1022 3.1973 0.7832
-57.0252 -43.0182 3.7435 0.7512
-2.9362 -36.8746 1.9386 0.8623
25.2737 -87.0061 4.7483 0.6957
23.3764 -54.7669 3.1207 0.7878
24.4696 -42.3292 2.5624 0.8221
31.6306 -42.0547 2.7578 0.8100
51.7804 -42.2587 3.5027 0.7651
60.0773 -37.9817 3.7250 0.7522
59.9634 -28.4531 3.4784 0.7666
45.0498 19.1529 2.5655 0.8219
14.9145 8.5934 0.9021 0.9334
9.0043 8.6297 0.6536 0.9513
0.7156 8.6738 0.4561 0.9657
-3.6874 8.7077 0.4956 0.9628
-5.0053 8.7158 0.5267 0.9605
-10.6599 8.7505 0.7228 0.9463
-26.2379 8.8463 1.4511 0.8950
-80.4809 -12.7980 4.2708 0.7215
-57.2435 -42.6721 3.7418 0.7513
-20.1426 -31.5602 1.9622 0.8607
-11.5804 -24.1374 1.4030 0.8983
-6.9745 -33.3949 1.7879 0.8723
-3.1467 -36.8572 1.9386 0.8623
31.9666 -76.0926 4.3255 0.7185
31.2546 -42.0523 2.7459 0.8107
40.0960 -42.1969 3.0506 0.7920
51.4612 -42.4902 3.4975 0.7654
53.7299 -18.2861 2.9745 0.7967
68.1397 -14.3325 3.6492 0.7566
69.1785 -6.0057 3.6391 0.7572
30.0622 8.5003 1.6373 0.8824
45.7640 19.1485 2.5999 0.8198
11.6070 8.6010 0.7571 0.9438
7.1555 8.6410 0.5880 0.9561
5.5560 8.6509 0.5388 0.9597
4.1849 8.6593 0.5040 0.9622
2.9610 8.6597 0.4796 0.9640
0.7654 8.6733 0.4563 0.9657
-0.2839 8.6809 0.4552 0.9658
-8.2535 8.7358 0.6298 0.9530
-10.5357 8.7498 0.7177 0.9466
-25.7425 8.8432 1.4265 0.8967
-20.3961 -31.5586 1.9693 0.8603
25.6474 -92.2114 5.0160 0.6816
30.8814 -42.0500 2.7342 0.8114
53.5666 -18.5727 2.9713 0.7968
69.1812 -6.4044 3.6411 0.7571
69.1261 1.9646 3.6242 0.7581
53.2859 8.0061 2.8239 0.8059
30.6022 8.4646 1.6640 0.8806
11.8152 8.6511 0.7674 0.9430
7.2386 8.6405 0.5907 0.9559
5.6258 8.6505 0.5408 0.9595
4.2459 8.6589 0.5054 0.9621
3.0166 8.6603 0.4806 0.9639
1.8859 8.6584 0.4644 0.9651
-1.2918 8.6823 0.4600 0.9655
-6.3688 8.7242 0.5661 0.9577
-8.1590 8.7352 0.6264 0.9533
-10.4133 8.7490 0.7128 0.9470
-13.4394 8.7676 0.8410 0.9377
-25.2635 8.8403 1.4027 0.8983
-26.5882 -31.5540 2.1625 0.8477
-20.6515 -31.5571 1.9765 0.8598
-7.3731 -33.3925 1.7922 0.8720
23.5190 -86.4684 4.6963 0.6984
22.2941 -54.8138 3.1012 0.7890
23.2078 -41.7826 2.5048 0.8258
48.4870 -40.9750 3.3269 0.7755
67.9715 -15.1100 3.6492 0.7566
69.1838 -6.8033 3.6433 0.7570
31.3988 8.4921 1.7047 0.8778
15.5161 8.5893 0.9294 0.9314
0.5868 5.8813 0.3098 0.9766
-0.1845 8.6724 0.4546 0.9659
-1.2412 8.6823 0.4596 0.9655
-2.3353 8.6839 0.4713 0.9646
-6.2924 8.7237 0.5637 0.9578
-20.9089 -31.5555 1.9838 0.8593
23.5541 -88.5932 4.8042 0.6927
22.4409 -56.0910 3.1661 0.7851
22.8506 -41.6988 2.4920 0.8266
47.9544 -40.9965 3.3064 0.7767
63.9521 -42.5068 4.0244 0.7352
59.8558 -30.0962 3.5111 0.7646
53.2413 -19.1440 2.9652 0.7972
69.1864 -7.2026 3.6455 0.7568
69.1312 1.1746 3.6235 0.7581
53.6139 7.4301 2.8366 0.8051
32.1090 8.4877 1.7406 0.8754
12.0466 8.6110 0.7760 0.9424
5.7669 8.6496 0.5448 0.9592
0.6206 5.8801 0.3099 0.9766
-0.1349 8.6662 0.4542 0.9659
-1.1906 8.6824 0.4593 0.9655
-2.2820 8.6828 0.4705 0.9647
-3.4544 8.7063 0.4909 0.9632
-45.2194 49.5348 3.5150 0.7644
-10.1732 8.7475 0.7032 0.9477
-13.1066 8.7656 0.8263 0.9388
-17.3614 8.7917 1.0199 0.9250
-24.3515 8.8347 1.3576 0.9014
-21.1682 -31.5539 1.9913 0.8588
-15.5431 -30.5853 1.7980 0.8716
-11.5177 -31.6060 1.7630 0.8739
23.0864 -88.8744 4.8123 0.6923
22.0966 -56.1579 3.1627 0.7853
27.2029 -50.3212 2.9979 0.7952
29.3850 -41.4839 2.6642 0.8158
47.5149 -41.0927 3.2922 0.7775
59.7534 -30.4735 3.5153 0.7644
53.0283 -19.4101 2.9594 0.7976
67.7944 -15.8855 3.6492 0.7566
69.1891 -7.6028 3.6479 0.7567
69.1338 0.7795 3.6234 0.7581
60.2749 8.0028 3.1866 0.7838
48.8220 19.1297 2.7480 0.8106
12.1920 8.6101 0.7822 0.9420
9.5314 8.6264 0.6737 0.9498
5.8382 8.6491 0.5469 0.9591
3.1847 8.6624 0.4837 0.9637
2.0412 8.6558 0.4661 0.9650
-1.1401 8.6824 0.4589 0.9655
-2.2288 8.6817 0.4697 0.9647
-3.3969 8.7059 0.4898 0.9633
-4.6784 8.7138 0.5183 0.9612
-7.8512 8.6998 0.6142 0.9541
-10.0556 8.7468 0.6985 0.9480
-12.9446 8.7646 0.8193 0.9393
-17.1153 8.7902 1.0084 0.9258
-21.6327 2.4396 1.1409 0.9165
28.6454 64.8544 1.2375 0.7530
2.6360 8.6688 0.1582 0.9644
0.4672 8.6822 0.1518 0.9658
-0.5813 8.6675 0.1516 0.9658
-2.7589 8.6604 0.1587 0.9643
-11.7210 25.6162 0.4917 0.8934
-5.3431 8.7179 0.1785 0.9599
-6.9225 8.7276 0.1944 0.9564
-8.8429 8.7394 0.2170 0.9515
-57.6381 -18.2711 1.0554 0.7851
-15.7386 -35.3593 0.6756 0.8566
-9.5860 -31.2038 0.5698 0.8776
39.7314 -87.4923 1.6773 0.6808
30.1755 -49.5515 1.0127 0.7929
30.8754 -39.1554 0.8704 0.8192
54.6655 -24.4254 1.0451 0.7870
80.0114 -24.7050 1.4617 0.7153
50.5795 9.3817 0.8979 0.8140
27.1405 8.5182 0.4965 0.8924
44.5542 20.1559 0.8536 0.8223
6.7366 8.6252 0.1910 0.9572
5.1909 8.6138 0.1755 0.9606
2.6901 8.6685 0.1584 0.9643
1.5803 8.6753 0.1539 0.9653
0.5169 8.6819 0.1518 0.9658
-0.5316 8.6684 0.1516 0.9659
-2.7044 8.6600 0.1584 0.9644
-5.2746 8.7174 0.1778 0.9601
-8.7419 8.7387 0.2158 0.9518
-11.1749 8.7537 0.2478 0.9448
-19.5279 8.7924 0.3738 0.9179
-57.1053 -17.7440 1.0438 0.7872
-24.4900 -31.1718 0.6919 0.8533
-20.3143 -33.4926 0.6837 0.8550
-4.7488 -15.1494 0.2771 0.9385
39.1286 -87.4887 1.6729 0.6815
32.8499 -42.1524 0.9328 0.8075
34.3407 -27.0591 0.7631 0.8395
53.8265 -24.4202 1.0317 0.7894
78.3879 -24.6951 1.4346 0.7198
14.3094 8.5746 0.2912 0.9354
8.7027 8.6316 0.2140 0.9521
6.8159 8.6247 0.1919 0.9570
2.7444 8.6682 0.1587 0.9643
1.6315 8.6750 0.1541 0.9653
0.5667 8.6816 0.1519 0.9658
-0.4821 8.6707 0.1516 0.9659
-1.5448 8.6736 0.1538 0.9654
-3.8470 8.6680 0.1655 0.9628
-6.7608 8.7266 0.1927 0.9568
-11.0433 8.7529 0.2460 0.9452
-14.2866 8.7492 0.2924 0.9352
-57.1215 -17.3918 1.0422 0.7875
-24.7779 -31.1701 0.6950 0.8527
-16.2237 -35.3564 0.6790 0.8559
30.1674 -50.8365 1.0318 0.7894
32.4629 -42.1501 0.9286 0.8083
39.4638 -24.3230 0.8092 0.8307
53.0085 -24.4152 1.0187 0.7918
50.1351 8.7082 0.8882 0.8158
44.8295 19.6668 0.8545 0.8221
11.2203 8.6161 0.2469 0.9450
8.8021 8.6309 0.2152 0.9519
5.3256 8.6131 0.1768 0.9603
3.9858 8.6214 0.1658 0.9627
2.7989 8.6678 0.1590 0.9642
0.6165 8.6812 0.1519 0.9658
-2.5960 8.6592 0.1578 0.9645
-3.7877 8.6675 0.1651 0.9629
-6.6810 8.7261 0.1918 0.9570
-8.5432 8.7375 0.2133 0.9523
-10.9137 8.7521 0.2442 0.9456
-14.1027 8.7477 0.2897 0.9358
-18.9363 8.7875 0.3644 0.9199
-57.1375 -17.0407 1.0407 0.7878
-55.1126 -42.0713 1.2102 0.7578
-25.0683 -31.1683 0.6982 0.8521
-20.8393 -33.4894 0.6885 0.8540
-16.4681 -35.3549 0.6808 0.8555
-10.5956 -32.4960 0.5966 0.8722
-2.9912 -40.4856 0.7086 0.8501
30.1633 -51.4975 1.0417 0.7876
34.2902 -35.2713 0.8586 0.8214
34.3368 -27.6975 0.7700 0.8382
75.3154 -24.6762 1.3834 0.7283
93.2266 -18.5000 1.6590 0.6837
50.2453 8.4320 0.8893 0.8156
28.8271 8.5079 0.5246 0.8867
11.3529 8.6153 0.2488 0.9446
6.9767 8.6239 0.1936 0.9566
-0.3830 8.6754 0.1516 0.9659
-1.4427 8.6729 0.1535 0.9654
-2.5421 8.6589 0.1575 0.9645
-3.7287 8.6671 0.1647 0.9630
-6.6019 8.7256 0.1910 0.9572
-8.4455 8.7369 0.2121 0.9525
-10.7859 8.7513 0.2424 0.9459
-13.9321 8.7525 0.2872 0.9363
-57.1536 -16.6908 1.0393 0.7880
-21.1046 -33.4877 0.6909 0.8535
-10.5917 -31.8654 0.5861 0.8743
-6.3352 -31.2237 0.5561 0.8803
-3.2236 -40.4842 0.7089 0.8500
4.0757 -98.7198 1.7248 0.6735
30.1592 -52.1715 1.0519 0.7858
34.2878 -35.6740 0.8637 0.8204
38.4558 -24.3123 0.7941 0.8336
73.7070 -24.6163 1.3564 0.7328
90.3705 -18.4703 1.6100 0.6914
29.4327 8.5041 0.5348 0.8846
47.3684 20.1386 0.8984 0.8139
11.4874 8.6144 0.2506 0.9442
9.0043 8.6297 0.2177 0.9513
4.1050 8.6192 0.1666 0.9625
1.7857 8.6741 0.1546 0.9652
0.7162 8.6806 0.1520 0.9658
-0.3334 8.6777 0.1516 0.9659
-1.3918 8.6726 0.1533 0.9655
-2.4883 8.6585 0.1573 0.9646
-5.0053 8.7158 0.1754 0.9606
-10.6599 8.7505 0.2407 0.9463
-13.7647 8.7574 0.2848 0.9368
-18.3735 8.7828 0.3555 0.9218
-26.2269 8.8426 0.4831 0.8952
-80.4122 -12.7870 1.4212 0.7220
-57.3307 -42.7371 1.2482 0.7512
-19.9126 -31.1999 0.6461 0.8624
-6.5208 -31.2226 0.5567 0.8802
-3.4563 -40.4827 0.7092 0.8500
36.7221 -87.4125 1.6549 0.6843
30.1549 -52.8584 1.0622 0.7839
31.7444 -42.7114 0.9290 0.8082
34.3328 -28.3477 0.7772 0.8368
37.9801 -24.3164 0.7872 0.8349
90.2203 -18.9769 1.6093 0.6915
50.5962 7.8977 0.8938 0.8148
48.1194 20.1340 0.9105 0.8117
9.1072 8.6291 0.2190 0.9510
7.1405 8.6230 0.1954 0.9562
5.5326 8.6143 0.1787 0.9599
4.1654 8.6189 0.1671 0.9624
1.8374 8.6737 0.1548 0.9652
0.7661 8.6803 0.1521 0.9657
-1.3410 8.6723 0.1532 0.9655
-2.4348 8.6581 0.1570 0.9647
-3.6116 8.6663 0.1639 0.9631
-4.9390 8.7154 0.1749 0.9607
-10.5357 8.7498 0.2391 0.9467
-18.1024 8.7806 0.3512 0.9227
-25.7059 8.8307 0.4744 0.8970
-80.0312 -2.5032 1.3976 0.7259
-73.6522 -30.5706 1.3919 0.7269
-10.9093 -31.6098 0.5837 0.8748
-6.7070 -31.2214 0.5574 0.8801
-3.6735 -40.3098 0.7065 0.8505
36.1612 -87.4739 1.6522 0.6848
30.2742 -53.7791 1.0772 0.7812
31.3889 -42.7411 0.9256 0.8088
36.8350 -39.2109 0.9391 0.8064
34.3306 -28.6772 0.7808 0.8361
49.9329 -24.3963 0.9700 0.8007
90.2170 -19.5152 1.6112 0.6912
50.7458 7.6245 0.8957 0.8144
48.8901 20.1293 0.9229 0.8094
11.8152 8.6511 0.2556 0.9431
5.6045 8.6178 0.1794 0.9597
3.0187 8.6665 0.1602 0.9640
0.5554 5.9073 0.1036 0.9765
-0.2343 8.6823 0.1516 0.9658
-1.2903 8.6720 0.1530 0.9655
-2.3820 8.6599 0.1568 0.9647
-3.5535 8.6659 0.1635 0.9632
-4.8733 8.7150 0.1743 0.9608
-6.3688 8.7242 0.1885 0.9577
-10.4133 8.7490 0.2374 0.9470
-17.8547 8.7867 0.3473 0.9235
-25.2142 8.8230 0.4663 0.8986
-80.1404 7.6498 1.4052 0.7246
-73.8332 -30.1527 1.3921 0.7268
-17.3774 -35.1843 0.6850 0.8547
-11.1112 -31.6085 0.5848 0.8746
31.0132 -42.7388 0.9217 0.8096
36.4118 -39.2070 0.9340 0.8073
49.2095 -24.3919 0.9587 0.8027
90.2137 -20.0544 1.6131 0.6909
31.3988 8.4921 0.5678 0.8780
15.5161 8.5893 0.3096 0.9315
9.3167 8.6278 0.2216 0.9505
5.6772 8.6213 0.1802 0.9595
1.9410 8.6731 0.1551 0.9651
0.5867 5.8804 0.1032 0.9766
-4.8079 8.7146 0.1737 0.9610
-6.2924 8.7237 0.1877 0.9579
-8.0462 8.7136 0.2070 0.9537
-13.2521 8.7537 0.2772 0.9384
-17.5964 8.7849 0.3433 0.9243
-20.6702 -31.1952 0.6532 0.8610
-17.5026 -34.9335 0.6820 0.8553
-11.3141 -31.6073 0.5860 0.8743
-7.0804 -31.2191 0.5588 0.8798
30.1418 -55.0040 1.0948 0.7781
30.2208 -42.1511 0.9053 0.8126
34.3192 -29.3397 0.7881 0.8347
50.8239 -18.2748 0.9427 0.8057
53.6627 7.4369 0.9456 0.8051
49.7725 19.8307 0.9352 0.8071
36.0866 19.7081 0.7177 0.8483
12.0466 8.6110 0.2585 0.9425
9.4234 8.6271 0.2230 0.9502
-1.1891 8.6713 0.1528 0.9656
-4.7430 8.7142 0.1732 0.9611
-6.2166 8.7232 0.1870 0.9581
-47.7413 52.2974 1.2360 0.7533
-10.1732 8.7475 0.2342 0.9477
-13.0872 8.7526 0.2748 0.9390
-24.3440 8.8320 0.4520 0.9016
-63.0662 -34.2092 1.2523 0.7505
-64.1850 -58.4255 1.5150 0.7066
-20.9265 -31.1936 0.6557 0.8605
-17.6986 -34.8267 0.6819 0.8553
-11.5177 -31.6060 0.5872 0.8741
-3.6406 -33.5726 0.5894 0.8736
30.2913 -56.0343 1.1118 0.7750
34.3134 -29.6756 0.7919 0.8340
36.1278 -24.3115 0.7601 0.8401
50.6716 -18.5474 0.9419 0.8058
32.8497 8.4831 0.5922 0.8731
51.3347 20.1142 0.9624 0.8021
12.1921 8.6101 0.2605 0.9420
9.5314 8.6264 0.2244 0.9499
7.4817 8.6260 0.1993 0.9553
5.8242 8.6283 0.1817 0.9592
3.1859 8.6654 0.1612 0.9637
2.0452 8.6725 0.1555 0.9650
-3.3808 8.6647 0.1623 0.9635
-6.1414 8.7228 0.1862 0.9582
-7.8512 8.6998 0.2045 0.9542
-10.0556 8.7468 0.2326 0.9481
-17.0979 8.7813 0.3355 0.9260
-23.8805 8.8184 0.4443 0.9032
10.8339 8.6184 -0.2416 0.9461
8.5073 8.6328 -0.2116 0.9527
6.6385 8.6004 -0.1896 0.9575
28.6454 64.8544 -1.2375 0.7530
2.6360 8.6688 -0.1582 0.9644
1.5293 8.6756 -0.1538 0.9654
0.4672 8.6822 -0.1518 0.9658
-0.5812 8.6661 -0.1516 0.9658
-2.7466 8.6216 -0.1579 0.9644
-6.9225 8.7276 -0.1944 0.9564
-11.3083 8.7545 -0.2496 0.9444
-19.6035 8.6921 -0.3743 0.9178
-87.1744 4.8157 -1.5239 0.7052
-67.9840 -4.4617 -1.1892 0.7614
-47.5404 -8.9585 -0.8444 0.8240
-62.1188 -49.1267 -1.3824 0.7284
-17.5631 -22.6197 -0.4999 0.8918
-12.0870 -20.1873 -0.4107 0.9102
-10.3012 -33.5318 -0.6123 0.8691
-3.7074 -20.6867 -0.3668 0.9194
1.7997 -28.0354 -0.4904 0.8937
30.0764 -95.3515 -1.7452 0.6703
39.7330 -87.4958 -1.6773 0.6808
34.2975 -34.0901 -0.8441 0.8241
34.3426 -26.7441 -0.7598 0.8402
54.6655 -24.4254 -1.0451 0.7870
40.5767 18.3566 -0.7774 0.8368
10.9609 8.6177 -0.2434 0.9457
8.6045 8.6321 -0.2127 0.9524
6.7168 8.5998 -0.1905 0.9573
5.1665 8.5733 -0.1747 0.9607
29.0879 64.8517 -1.2406 0.7525
1.5803 8.6753 -0.1539 0.9653
0.5169 8.6819 -0.1518 0.9658
-0.5316 8.6684 -0.1516 0.9659
-2.6932 8.6241 -0.1577 0.9645
-3.8865 8.6237 -0.1651 0.9629
-5.2746 8.7174 -0.1778 0.9601
-19.3025 8.6909 -0.3695 0.9188
-28.1470 8.7791 -0.5146 0.8887
-61.5851 3.7550 -1.0770 0.7813
-59.5894 -35.9393 -1.2147 0.7570
-62.0276 -48.4814 -1.3742 0.7298
-18.0227 -22.9400 -0.5092 0.8898
-8.9860 -19.8823 -0.3808 0.9164
-4.7480 -15.1466 -0.2770 0.9385
-3.7865 -20.4545 -0.3631 0.9201
1.5791 -27.0104 -0.4723 0.8974
30.3225 -38.9093 -0.8610 0.8209
34.2951 -34.4793 -0.8489 0.8232
34.3407 -27.0591 -0.7631 0.8395
78.9258 -24.8645 -1.4444 0.7182
41.1297 18.3245 -0.7859 0.8352
8.7027 8.6316 -0.2140 0.9521
6.7958 8.5993 -0.1913 0.9571
5.2355 8.5766 -0.1754 0.9606
29.5328 64.8490 -1.2438 0.7520
-1.5412 8.6530 -0.1534 0.9654
-5.2066 8.7170 -0.1772 0.9602
-6.7608 8.7266 -0.1927 0.9568
-8.6419 8.7381 -0.2145 0.9520
-11.0433 8.7529 -0.2460 0.9452
-27.7496 8.8294 -0.5083 0.8900
-54.5602 10.3420 -0.9693 0.8008
-87.2344 -4.7250 -1.5249 0.7050
-73.0503 -12.9034 -1.2948 0.7432
-57.5629 -17.5262 -1.0503 0.7861
-73.1312 -32.3321 -1.3957 0.7262
-18.3368 -23.0673 -0.5144 0.8888
-9.0557 -19.7352 -0.3790 0.9168
-6.1669 -19.2865 -0.3534 0.9222
-3.8939 -20.3834 -0.3622 0.9203
-1.4849 -21.7909 -0.3812 0.9163
38.5303 -87.4884 -1.6686 0.6822
26.0078 -43.8270 -0.8896 0.8156
25.6742 -33.3356 -0.7344 0.8451
34.3387 -27.3769 -0.7666 0.8389
39.4784 -24.3321 -0.8095 0.8307
53.0085 -24.4152 -1.0187 0.7918
77.6538 -24.9523 -1.4237 0.7216
97.3240 -18.7359 -1.7300 0.6727
71.1042 3.6477 -1.2428 0.7521
51.9162 9.0175 -0.9198 0.8099
41.6949 18.2916 -0.7947 0.8335
15.2490 9.0196 -0.3092 0.9316
11.2203 8.6161 -0.2469 0.9450
3.9858 8.6214 -0.1658 0.9627
-0.4325 8.6730 -0.1516 0.9659
-1.4902 8.6527 -0.1533 0.9655
-2.5870 8.6292 -0.1572 0.9646
-3.7683 8.6231 -0.1643 0.9631
-6.6810 8.7261 -0.1918 0.9570
-14.0401 8.7089 -0.2884 0.9360
-18.7435 8.6980 -0.3607 0.9207
-55.1025 -42.0636 -1.2100 0.7578
-9.1240 -19.5882 -0.3772 0.9172
-6.6088 -33.5545 -0.5969 0.8721
1.2233 -26.0226 -0.4547 0.9010
34.3368 -27.6975 -0.7700 0.8382
27.0092 -16.8604 -0.5558 0.8804
52.2110 -24.4103 -1.0060 0.7941
75.3155 -24.6762 -1.3834 0.7283
71.1100 3.2409 -1.2425 0.7522
28.6081 8.4432 -0.5206 0.8875
11.3529 8.6153 -0.2488 0.9446
8.9026 8.6303 -0.2164 0.9516
6.9585 8.6014 -0.1931 0.9567
5.3750 8.5831 -0.1768 0.9603
2.8535 8.6675 -0.1593 0.9642
-0.3830 8.6754 -0.1516 0.9659
-6.6019 8.7256 -0.1910 0.9572
-8.4455 8.7369 -0.2121 0.9525
-18.4923 8.7102 -0.3568 0.9215
-24.6864 8.1664 -0.4539 0.9012
-54.5562 10.9882 -0.9714 0.8004
-54.5975 4.2689 -0.9559 0.8032
-87.2281 -3.7260 -1.5240 0.7052
-56.8558 -16.6038 -1.0339 0.7890
-58.9010 -34.1617 -1.1885 0.7615
-18.9238 -23.2555 -0.5233 0.8870
29.6033 -51.2098 -1.0325 0.7893
25.0735 -33.3366 -0.7280 0.8463
34.2878 -35.6740 -0.8637 0.8204
34.3348 -28.0211 -0.7736 0.8375
51.4333 -24.4055 -0.9937 0.7963
61.3835 -12.5458 -1.0936 0.7783
29.2069 8.4389 -0.5307 0.8855
42.8638 18.2235 -0.8130 0.8300
15.3671 8.8541 -0.3096 0.9315
9.0043 8.6297 -0.2177 0.9513
7.0435 8.6054 -0.1941 0.9565
4.0837 8.5746 -0.1658 0.9627
2.9084 8.6671 -0.1596 0.9641
1.7857 8.6741 -0.1546 0.9652
-5.0053 8.7158 -0.1754 0.9606
-8.3490 8.7363 -0.2109 0.9528
-13.7045 8.7191 -0.2835 0.9371
-24.2258 8.1679 -0.4462 0.9028
-54.5542 11.3124 -0.9725 0.8002
-87.2250 -3.2268 -1.5236 0.7053
-73.1366 -11.6301 -1.2926 0.7436
-57.4180 -42.8021 -1.2501 0.7509
-19.9888 -24.2796 -0.5489 0.8818
-13.0368 -20.4265 -0.4230 0.9076
-9.5337 -19.8714 -0.3847 0.9156
-4.2451 -20.3260 -0.3624 0.9203
-3.4563 -40.4827 -0.7092 0.8500
25.8083 -34.7246 -0.7552 0.8411
37.9904 -24.3229 -0.7874 0.8349
72.6168 -24.7139 -1.3389 0.7357
76.9642 2.6272 -1.3442 0.7349
15.4262 8.7712 -0.3097 0.9315
11.6070 8.6010 -0.2522 0.9438
5.5168 8.5897 -0.1782 0.9600
4.1438 8.5742 -0.1662 0.9626
0.7661 8.6803 -0.1521 0.9657
-1.3378 8.6518 -0.1528 0.9656
-3.5932 8.6221 -0.1630 0.9633
-4.9390 8.7154 -0.1749 0.9607
-6.4458 8.7246 -0.1893 0.9575
-10.5357 8.7498 -0.2391 0.9467
-23.7808 8.1694 -0.4389 0.9043
-87.0878 18.5783 -1.5543 0.7003
-80.6661 -12.3556 -1.4244 0.7215
-57.2315 -16.0063 -1.0373 0.7884
-57.8012 -54.4543 -1.3860 0.7278
-20.1844 -24.2338 -0.5505 0.8815
-9.6160 -19.7530 -0.3835 0.9159
-6.7038 -19.4245 -0.3587 0.9211
-1.9340 -21.2220 -0.3720 0.9183
30.1506 -53.5596 -1.0728 0.7820
25.8058 -35.1387 -0.7610 0.8399
36.5511 -38.9088 -0.9318 0.8077
34.3308 -28.6773 -0.7808 0.8361
49.9329 -24.3963 -0.9700 0.8007
72.6139 -25.1769 -1.3415 0.7353
60.3921 -13.0637 -1.0785 0.7810
30.6022 8.4646 -0.5542 0.8807
15.4849 8.6879 -0.3099 0.9314
11.8152 8.6511 -0.2556 0.9431
9.2114 8.6284 -0.2203 0.9508
7.2160 8.6135 -0.1961 0.9560
4.2041 8.5737 -0.1667 0.9625
-1.2873 8.6515 -0.1527 0.9656
-2.3763 8.6392 -0.1564 0.9648
-6.3688 8.7242 -0.1885 0.9577
-8.1590 8.7352 -0.2086 0.9533
-10.4133 8.7490 -0.2374 0.9470
-17.7596 8.7399 -0.3455 0.9239
-25.2635 8.8403 -0.4672 0.8985
-87.2187 -2.2292 -1.5229 0.7054
-73.1770 -10.7812 -1.2911 0.7439
-58.4048 -54.3965 -1.3931 0.7267
-6.8303 -19.4306 -0.3595 0.9209
-4.4418 -20.1169 -0.3596 0.9209
-2.0641 -21.3027 -0.3736 0.9179
0.5482 -22.7190 -0.3967 0.9131
30.1463 -54.2745 -1.0837 0.7801
25.7682 -35.5107 -0.7658 0.8390
60.4235 -13.4320 -1.0804 0.7806
31.3988 8.4921 -0.5678 0.8780
44.7204 18.1145 -0.8422 0.8245
15.5161 8.5893 -0.3096 0.9315
11.9036 8.6119 -0.2565 0.9429
9.3167 8.6278 -0.2216 0.9505
7.3036 8.6176 -0.1972 0.9558
5.6608 8.5964 -0.1797 0.9597
1.9410 8.6731 -0.1551 0.9651
-2.3240 8.6417 -0.1562 0.9648
-3.4779 8.6216 -0.1623 0.9635
-4.8079 8.7146 -0.1737 0.9610
-6.2924 8.7237 -0.1877 0.9579
-17.5037 8.7386 -0.3415 0.9247
-54.5482 12.2895 -0.9760 0.7996
-87.2156 -1.7309 -1.5226 0.7054
-87.2824 -12.3502 -1.5387 0.7028
-56.2972 -15.0537 -1.0172 0.7920
-62.9001 -34.5856 -1.2529 0.7504
-61.2771 -44.0661 -1.3174 0.7394
-4.5887 -20.2327 -0.3621 0.9204
0.4173 -22.6565 -0.3955 0.9133
34.9577 -87.3765 -1.6427 0.6863
36.5812 -24.3142 -0.7667 0.8388
51.1761 -18.4015 -0.9493 0.8045
45.3692 18.0762 -0.8525 0.8225
9.4234 8.6271 -0.2230 0.9502
7.3921 8.6218 -0.1982 0.9556
5.7337 8.5998 -0.1804 0.9595
1.9930 8.6728 -0.1553 0.9650
0.6204 5.8780 -0.1032 0.9766
-2.2718 8.6442 -0.1560 0.9649
-13.0320 8.7156 -0.2737 0.9392
-17.2540 8.7373 -0.3376 0.9255
-87.0779 20.1419 -1.5601 0.6994
-21.7837 2.3308 -0.3824 0.9161
-87.2124 -1.2327 -1.5224 0.7054
-73.2204 -9.9344 -1.2898 0.7441
-55.4283 -14.4828 -1.0000 0.7952
-63.8176 -34.6167 -1.2673 0.7479
-23.2874 -27.0047 -0.6224 0.8671
-13.9433 -20.7844 -0.4369 0.9047
-7.0863 -19.4459 -0.3613 0.9205
-2.3035 -21.2421 -0.3730 0.9181
0.2907 -22.8757 -0.3993 0.9125
29.1507 -53.9244 -1.0700 0.7825
35.3834 -38.9834 -0.9189 0.8101
47.8116 -24.3833 -0.9368 0.8068
50.2610 -18.3972 -0.9343 0.8073
36.5760 19.7051 -0.7252 0.8469
12.1921 8.6101 -0.2605 0.9420
3.1859 8.6654 -0.1612 0.9637
2.0452 8.6725 -0.1555 0.9650
-1.1360 8.6506 -0.1523 0.9657
-2.2198 8.6467 -0.1558 0.9649
-6.1414 8.7228 -0.1862 0.9582
-17.0098 8.7361 -0.3338 0.9264
-21.5248 2.4275 -0.3780 0.9170
-87.2093 -0.7343 -1.5223 0.7055
10.8339 8.6184 -0.7255 0.9461
8.5073 8.6328 -0.6352 0.9526
5.0839 8.5463 -0.5211 0.9610
11.2762 25.5299 -1.4627 0.8942
2.6360 8.6688 -0.4749 0.9644
1.5293 8.6756 -0.4617 0.9653
0.4672 8.6822 -0.4557 0.9658
-0.5812 8.6661 -0.4552 0.9658
-1.6396 8.6331 -0.4605 0.9654
-2.7400 8.6008 -0.4731 0.9645
-5.3431 8.7179 -0.5359 0.9599
-6.9225 8.7276 -0.5838 0.9564
-8.8429 8.7394 -0.6516 0.9514
-11.3083 8.7545 -0.7495 0.9443
-14.4900 8.6478 -0.8843 0.9346
-44.7354 7.9515 -2.3812 0.8336
-45.2153 2.4978 -2.3732 0.8341
-45.0548 -2.9569 -2.3663 0.8346
-38.2867 -7.2148 -2.0418 0.8555
-40.7303 -24.8834 -2.5014 0.8260
-37.4373 -29.6073 -2.5014 0.8260
-33.5993 -33.9004 -2.5014 0.8260
-17.5330 -22.5809 -1.4983 0.8918
-8.5744 -19.2640 -1.1051 0.9190
-5.8509 -19.0455 -1.0442 0.9233
-3.6159 -20.1763 -1.0742 0.9212
4.8229 -25.7964 -1.3754 0.9002
14.3579 -45.5191 -2.5014 0.8260
19.7352 -43.4588 -2.5014 0.8260
27.7556 -35.1990 -2.3492 0.8356
34.2383 -26.6628 -2.2743 0.8404
38.4261 -23.0821 -2.3492 0.8356
41.1862 -12.7170 -2.2590 0.8414
47.6495 -2.7687 -2.5014 0.8260
47.6362 2.9897 -2.5014 0.8260
29.4662 9.2482 -1.6185 0.8836
29.5035 13.3471 -1.6971 0.8784
14.1643 8.5980 -0.8684 0.9358
2.6901 8.6685 -0.4757 0.9643
1.5803 8.6753 -0.4621 0.9653
-1.5885 8.6329 -0.4600 0.9655
-2.6867 8.6034 -0.4724 0.9645
-5.2746 8.7174 -0.5340 0.9600
-6.8413 8.7271 -0.5811 0.9566
-11.1748 8.7537 -0.7439 0.9447
-14.3181 8.6564 -0.8769 0.9352
-19.1327 8.6144 -1.0996 0.9194
-45.0721 -2.6996 -2.3664 0.8346
-38.4388 -7.0164 -2.0478 0.8551
-43.5429 -19.5489 -2.5014 0.8260
-33.7923 -33.7079 -2.5014 0.8260
-17.8255 -22.6890 -1.5122 0.8909
-12.0772 -19.9121 -1.2205 0.9109
-1.3312 -21.3319 -1.1201 0.9180
1.5319 -26.2034 -1.3756 0.9002
14.0978 -45.6004 -2.5014 0.8260
19.4867 -43.5708 -2.5014 0.8260
24.1410 -40.1568 -2.4555 0.8289
40.8211 -18.5199 -2.3492 0.8356
41.1573 -12.9661 -2.2615 0.8413
46.9201 -8.7550 -2.5014 0.8260
47.6525 2.7176 -2.5014 0.8260
44.1200 7.9232 -2.3492 0.8356
29.9447 9.2108 -1.6419 0.8821
29.5002 13.1432 -1.6925 0.8787
11.0896 8.6169 -0.7360 0.9453
8.7027 8.6316 -0.6424 0.9521
6.7913 8.5936 -0.5740 0.9571
5.2208 8.5525 -0.5251 0.9607
2.7444 8.6682 -0.4765 0.9642
1.6315 8.6750 -0.4626 0.9653
-2.6337 8.6060 -0.4717 0.9646
-3.8076 8.5792 -0.4919 0.9631
-8.6419 8.7381 -0.6441 0.9520
-14.1490 8.6649 -0.8695 0.9357
-18.8778 8.6297 -1.0878 0.9202
-22.5234 7.1665 -1.2387 0.9097
-45.0878 -2.4421 -2.3664 0.8345
-42.2373 -7.4607 -2.2478 0.8421
-42.8822 -13.0564 -2.3492 0.8356
-41.0119 -24.4166 -2.5014 0.8260
-37.7730 -29.1778 -2.5014 0.8260
-12.2797 -19.9876 -1.2294 0.9103
-8.9841 -19.5792 -1.1290 0.9173
-6.0538 -18.9330 -1.0417 0.9235
-3.8240 -20.0175 -1.0680 0.9216
1.3513 -25.6258 -1.3449 0.9023
13.8371 -45.6802 -2.5014 0.8260
19.2375 -43.6814 -2.5014 0.8260
27.3518 -35.5138 -2.3492 0.8356
31.4295 -31.9615 -2.3492 0.8356
40.7146 -18.7527 -2.3492 0.8356
46.8693 -9.0228 -2.5014 0.8260
47.6148 -3.3128 -2.5014 0.8260
47.6672 2.4454 -2.5014 0.8260
44.1645 7.6711 -2.3492 0.8356
29.4970 12.9403 -1.6881 0.8790
11.2203 8.6161 -0.7414 0.9449
8.8021 8.6309 -0.6461 0.9518
6.8745 8.5975 -0.5769 0.9569
5.2900 8.5556 -0.5272 0.9605
3.9858 8.6214 -0.4978 0.9627
0.6165 8.6812 -0.4561 0.9657
-1.4867 8.6323 -0.4591 0.9655
-3.7490 8.5790 -0.4907 0.9632
-5.1390 8.7166 -0.5303 0.9603
-6.6810 8.7261 -0.5760 0.9569
-10.9137 8.7521 -0.7332 0.9455
-13.9827 8.6733 -0.8623 0.9362
-22.4238 7.2761 -1.2355 0.9099
-45.1852 3.2734 -2.3743 0.8340
-45.1019 -2.1847 -2.3665 0.8345
-43.7312 -19.0362 -2.4996 0.8261
-18.5783 -23.0992 -1.5535 0.8880
-12.4372 -19.9870 -1.2337 0.9100
-1.5663 -21.1995 -1.1140 0.9184
13.5759 -45.7585 -2.5014 0.8260
18.9877 -43.7905 -2.5014 0.8260
24.0603 -41.0779 -2.4949 0.8264
31.2465 -32.1404 -2.3492 0.8356
40.6069 -18.9850 -2.3492 0.8356
41.2395 -13.5116 -2.2743 0.8404
46.8170 -9.2904 -2.5014 0.8260
47.5951 -3.5847 -2.5014 0.8260
47.6804 2.1731 -2.5014 0.8260
27.9750 8.2564 -1.5286 0.8897
29.4938 12.7385 -1.6837 0.8793
15.3080 8.9370 -0.9290 0.9315
11.3529 8.6153 -0.7469 0.9445
8.9026 8.6303 -0.6498 0.9515
6.9585 8.6014 -0.5798 0.9567
4.0033 8.5309 -0.4939 0.9630
0.6663 8.6809 -0.4563 0.9657
-0.3830 8.6754 -0.4551 0.9658
-2.5281 8.6110 -0.4703 0.9647
-3.6907 8.5788 -0.4894 0.9633
-8.4455 8.7369 -0.6368 0.9525
-10.7859 8.7513 -0.7279 0.9459
-13.8192 8.6815 -0.8553 0.9367
-41.8170 -6.8948 -2.2211 0.8439
-43.0285 -12.5658 -2.3492 0.8356
-18.8043 -23.1086 -1.5614 0.8875
-9.2443 -19.5540 -1.1335 0.9170
-4.0478 -19.9497 -1.0668 0.9217
-1.6912 -21.2399 -1.1167 0.9182
13.3143 -45.8353 -2.5014 0.8260
18.7373 -43.8983 -2.5014 0.8260
23.8578 -41.2709 -2.4983 0.8262
25.8771 -34.4051 -2.2562 0.8416
31.0624 -32.3185 -2.3492 0.8356
37.8888 -23.9538 -2.3492 0.8356
40.4978 -19.2166 -2.3492 0.8356
47.5738 -3.8566 -2.5014 0.8260
28.6617 8.2814 -1.5635 0.8874
9.0043 8.6297 -0.6536 0.9513
5.4301 8.5620 -0.5313 0.9602
4.0627 8.5304 -0.4952 0.9629
1.7857 8.6741 -0.4641 0.9651
0.7162 8.6806 -0.4565 0.9657
-2.4754 8.6136 -0.4697 0.9647
-3.6327 8.5786 -0.4882 0.9634
-5.0053 8.7158 -0.5267 0.9605
-6.5235 8.7251 -0.5709 0.9573
-8.3490 8.7363 -0.6333 0.9527
-18.1447 8.6735 -1.0540 0.9226
-45.1575 3.7905 -2.3749 0.8340
-41.6856 -6.6288 -2.2121 0.8445
-41.4243 -23.7101 -2.5014 0.8260
-38.2674 -28.5263 -2.5014 0.8260
-34.5535 -32.9272 -2.5014 0.8260
-12.8867 -20.1914 -1.2553 0.9085
-9.3396 -19.4669 -1.1316 0.9172
-6.4546 -19.0544 -1.0543 0.9226
7.4284 -47.1483 -2.5014 0.8260
13.0523 -45.9106 -2.5014 0.8260
23.6512 -41.4580 -2.5014 0.8260
34.2284 -28.2616 -2.3263 0.8371
35.5569 -22.7649 -2.2127 0.8444
42.4355 -14.4422 -2.3492 0.8356
46.7078 -9.8245 -2.5014 0.8260
47.5511 -4.1281 -2.5014 0.8260
44.2894 6.9133 -2.3492 0.8356
29.3804 8.3075 -1.6001 0.8849
11.6070 8.6010 -0.7571 0.9438
9.1072 8.6291 -0.6575 0.9510
7.1293 8.6094 -0.5858 0.9562
5.5010 8.5652 -0.5335 0.9600
2.9635 8.6668 -0.4800 0.9640
1.8374 8.6737 -0.4647 0.9651
0.7661 8.6803 -0.4567 0.9657
-1.3347 8.6315 -0.4577 0.9656
