ply
format ascii 1.0
element vertex 1569
property float32 x
property float32 y
property float32 z
property float32 I
end_header
6.0279 64.9936 8.0144 0.7687
-1.3023 8.6930 1.0793 0.9652
-2.4011 8.6998 1.1081 0.9643
-3.5779 8.7070 1.1558 0.9628
-6.3753 8.7242 1.3267 0.9574
-62.7363 -34.8770 8.8134 0.7488
-26.6356 -31.5185 5.0668 0.8468
-6.2971 -28.2579 3.5547 0.8899
-3.3379 -33.7189 4.1604 0.8724
30.8628 -76.4482 10.1227 0.7173
25.3081 -45.8569 6.4311 0.8097
28.9066 -40.0749 6.0671 0.8194
49.6495 -42.2217 8.0024 0.7690
64.9809 -23.2018 8.4720 0.7572
65.0866 -14.7157 8.1933 0.7642
67.6062 -6.9036 8.3442 0.7604
67.6565 1.2741 8.3086 0.7613
35.9736 19.7087 5.0365 0.8476
9.4032 8.6272 1.5669 0.9499
7.3932 8.6396 1.3962 0.9552
4.3615 8.6582 1.1904 0.9617
3.1244 8.6658 1.1311 0.9636
1.9891 8.6728 1.0925 0.9648
-3.4523 8.7063 1.1500 0.9630
-4.7392 8.7142 1.2180 0.9608
-10.1583 8.7475 1.6460 0.9474
-79.3024 28.8695 10.3623 0.7117
-16.7988 -32.8415 4.5293 0.8619
-12.3779 -33.6768 4.4055 0.8654
-7.9465 -33.6907 4.2502 0.8698
30.3839 -78.0287 10.2814 0.7136
29.0513 -41.3438 6.2043 0.8158
37.9884 -42.1842 6.9703 0.7955
62.2566 -42.2731 9.2398 0.7384
60.5863 -31.2275 8.3691 0.7598
65.1103 -24.1602 8.5272 0.7559
65.1797 0.4211 8.0032 0.7690
67.7019 8.6483 8.3803 0.7595
61.1207 15.4534 7.7408 0.7756
37.0418 19.7022 5.1515 0.8444
9.6383 8.6258 1.5882 0.9492
22.4845 -86.6633 7.8331 0.6980
30.5708 -77.7919 7.3126 0.7149
35.1093 -30.4215 4.0643 0.8298
62.6790 -42.2756 6.6144 0.7382
61.0863 -31.2451 6.0029 0.7592
65.0292 -15.3369 5.8454 0.7647
65.0789 -7.2549 5.7289 0.7688
65.1273 0.6234 5.6982 0.7699
61.1220 15.6563 5.5201 0.7762
49.1192 19.1279 4.6117 0.8092
16.0231 8.5866 1.5904 0.9296
3.8781 5.7116 0.6040 0.9727
4.4621 8.6576 0.8521 0.9616
3.2152 8.6653 0.8086 0.9636
2.0737 8.6723 0.7801 0.9648
-0.0563 8.6854 0.7599 0.9657
-2.1995 8.6986 0.7850 0.9646
-4.6348 8.7135 0.8635 0.9611
-6.0891 8.7225 0.9307 0.9582
-7.8159 8.7331 1.0254 0.9540
-9.9688 8.7463 1.1603 0.9481
-23.1333 -33.6210 3.5705 0.8489
-7.7786 -31.6638 2.8526 0.8773
-2.9579 -24.4693 2.1564 0.9058
0.0248 -84.2351 7.3696 0.7130
29.2320 -77.1759 7.2201 0.7179
23.1037 -44.0908 4.3549 0.8188
27.7279 -40.2479 4.2760 0.8218
37.4547 -42.3742 4.9479 0.7969
61.0216 -42.2654 6.4942 0.7423
61.0804 -32.2015 6.0410 0.7579
65.0240 -16.1873 5.8625 0.7641
65.1224 -0.1822 5.6975 0.7699
60.5829 7.1695 5.3373 0.7827
61.1170 14.8519 5.5027 0.7768
16.4382 8.5489 1.6210 0.9283
1.4820 5.8755 0.5301 0.9760
1.1035 8.6783 0.7654 0.9655
0.0512 8.6847 0.7598 0.9657
-5.9293 8.7215 0.9227 0.9585
-12.4843 8.7618 1.3344 0.9406
-16.4183 8.7859 1.6292 0.9280
-20.5338 2.6757 1.8117 0.9202
-37.1587 -8.7869 3.3406 0.8579
-49.3559 -25.2817 4.8516 0.8004
-12.4127 -31.6407 2.9736 0.8724
-3.2628 -24.4491 2.1580 0.9057
28.9245 -79.3123 7.3860 0.7125
25.3504 -49.8694 4.8944 0.7988
27.4944 -40.9849 4.3178 0.8202
36.3585 -42.1741 4.8716 0.7996
44.9385 -40.9279 5.3178 0.7834
61.0744 -33.1702 6.0805 0.7565
65.0187 -17.0428 5.8806 0.7635
65.1174 -0.9878 5.6977 0.7699
61.0120 14.0294 5.4772 0.7777
52.8934 19.1046 4.9202 0.7979
10.0652 8.6232 1.1596 0.9482
6.1892 8.6470 0.9303 0.9582
35.4604 64.8124 6.4636 0.7433
1.2127 8.6776 0.7666 0.9654
0.1586 8.6841 0.7599 0.9657
-1.9716 8.6972 0.7802 0.9648
-4.3609 8.7118 0.8523 0.9616
-7.4331 8.7307 1.0032 0.9550
-9.4816 8.7433 1.1284 0.9495
-12.1588 8.7598 1.3111 0.9416
-64.0288 -31.8040 6.2547 0.7505
-24.3749 -33.6134 3.6326 0.8464
-17.5296 -31.5743 3.1596 0.8650
-12.8655 -31.6379 2.9881 0.8719
-8.6131 -31.6587 2.8705 0.8766
25.0897 -50.9058 4.9652 0.7962
26.0497 -39.8891 4.1681 0.8259
34.5194 -41.0570 4.6929 0.8062
43.8295 -40.9211 5.2461 0.7860
57.8480 -42.2223 6.2657 0.7501
60.7196 -33.9569 6.0866 0.7563
65.0134 -17.9037 5.8997 0.7628
65.0638 -9.7091 5.7554 0.7679
65.1125 -1.7936 5.6988 0.7699
65.1609 6.0810 5.7256 0.7689
54.9769 19.0918 5.0916 0.7916
13.2638 8.6035 1.3832 0.9385
10.3191 8.6216 1.1764 0.9474
6.3516 8.6460 0.9386 0.9578
4.8607 8.6288 0.8665 0.9610
0.2661 8.6834 0.7601 0.9657
-0.7839 8.6898 0.7633 0.9656
-1.8586 8.6965 0.7780 0.9649
-2.9859 8.6847 0.8035 0.9638
-11.8444 8.7578 1.2888 0.9426
-9.0344 -31.6562 2.8801 0.8762
-5.0285 -31.6807 2.8064 0.8792
-1.1678 -31.7043 2.7756 0.8804
26.1564 -41.1559 4.2663 0.8222
43.4010 -41.5377 5.2559 0.7857
56.4269 -42.2647 6.1680 0.7535
60.7135 -34.9463 6.1288 0.7548
65.1075 -2.5997 5.7007 0.7698
65.1559 5.2684 5.7190 0.7691
13.6266 8.6013 1.4098 0.9373
10.5805 8.6200 1.1940 0.9467
5.0170 8.6542 0.8752 0.9606
1.4322 8.6762 0.7693 0.9653
0.3736 8.6827 0.7603 0.9657
-0.6755 8.6892 0.7625 0.9656
-2.8722 8.7027 0.8018 0.9639
-9.0202 8.7405 1.0989 0.9508
-13.7846 -31.6323 3.0188 0.8706
27.1858 -84.1179 7.7342 0.7012
25.6298 -41.4512 4.2638 0.8223
42.8717 -42.0596 5.2544 0.7857
61.0561 -36.1562 6.2081 0.7521
61.1108 -26.8560 5.8400 0.7649
60.6780 -18.3363 5.5457 0.7753
65.1509 4.4576 5.7133 0.7693
60.9455 19.4888 5.5980 0.7734
43.9468 20.1597 4.2301 0.8235
14.0038 8.5990 1.4377 0.9361
5.1605 8.6533 0.8815 0.9604
1.5425 8.6756 0.7709 0.9652
0.4812 8.6821 0.7607 0.9657
-0.5675 8.6885 0.7618 0.9656
-1.6345 8.6951 0.7740 0.9651
-3.9627 8.7094 0.8371 0.9623
-8.7983 8.7391 1.0849 0.9514
-11.2464 8.7542 1.2469 0.9444
-14.6109 8.7748 1.4911 0.9339
-19.7066 8.8061 1.8884 0.9170
-14.2358 -31.5945 3.0318 0.8701
-5.8281 -31.6409 2.8148 0.8788
26.7242 -86.3244 7.9060 0.6957
22.9475 -51.2738 4.9146 0.7981
32.8500 -42.1526 4.6755 0.8069
61.0498 -37.1803 6.2537 0.7505
61.1052 -27.7605 5.8718 0.7638
65.0976 -4.2143 5.7072 0.7696
14.3963 8.5966 1.4670 0.9349
11.1276 8.6166 1.2313 0.9451
35.4150 34.9995 4.3562 0.8188
3.9669 8.6607 0.8334 0.9625
2.7664 8.6680 0.7960 0.9641
1.6534 8.6749 0.7726 0.9652
-0.4596 8.6879 0.7612 0.9657
-1.5233 8.6944 0.7722 0.9652
-2.6348 8.7012 0.7954 0.9642
-3.8330 8.7086 0.8324 0.9625
-5.1686 8.7168 0.8866 0.9601
-6.7141 8.7263 0.9633 0.9568
-8.5821 8.7378 1.0715 0.9520
-10.9147 8.7149 1.2220 0.9455
-14.2057 8.7723 1.4607 0.9352
-14.7073 -31.5916 3.0487 0.8694
-10.3052 -31.6135 2.9091 0.8750
-6.2401 -31.6733 2.8243 0.8784
24.9850 -42.7370 4.3311 0.8197
30.7228 -40.4451 4.4436 0.8155
40.9400 -42.2021 5.1441 0.7897
52.2757 -42.2719 5.8817 0.7634
61.0434 -38.2194 6.3010 0.7489
60.8503 -28.5579 5.8808 0.7635
65.0434 -13.0236 5.8035 0.7662
61.3852 2.6765 5.3756 0.7814
60.6638 10.0494 5.3797 0.7812
14.8051 8.5940 1.4977 0.9336
7.0324 8.6418 0.9748 0.9562
5.4541 8.6515 0.8948 0.9598
4.0969 8.6599 0.8381 0.9623
-0.3519 8.6872 0.7607 0.9657
-5.0234 8.7159 0.8801 0.9604
-6.5431 8.7253 0.9542 0.9572
-8.3709 8.7365 1.0586 0.9526
-13.8165 8.7700 1.4317 0.9364
-18.4499 8.7984 1.7883 0.9212
-56.5703 -16.1796 5.1477 0.7896
-21.4933 -33.6310 3.4919 0.8519
-10.7387 -31.6109 2.9208 0.8745
-2.7420 -31.6947 2.7833 0.8801
40.0402 -42.3093 5.0964 0.7914
49.3235 -40.9040 5.6061 0.7731
60.6883 -39.0503 6.3137 0.7484
65.0876 -5.8339 5.7173 0.7692
65.1360 2.0329 5.7014 0.7698
15.1951 8.5709 1.5263 0.9323
9.1743 8.6287 1.1019 0.9507
7.2110 8.6407 0.9846 0.9558
5.6042 8.6506 0.9018 0.9595
1.8766 8.6735 0.7764 0.9650
6.0279 64.9936 5.7106 0.7694
-1.3023 8.6930 0.7690 0.9653
-2.4011 8.6998 0.7896 0.9644
-3.5779 8.7070 0.8236 0.9629
-6.3753 8.7242 0.9453 0.9575
-8.1649 8.7352 1.0461 0.9531
-17.8701 8.7949 1.7425 0.9231
-79.2334 7.5960 6.9638 0.7264
-22.0816 -33.6274 3.5196 0.8508
-3.1338 -31.6574 2.7832 0.8801
0.3544 -16.1618 1.4143 0.9372
8.4295 -58.7471 5.1923 0.7880
24.2589 -90.0641 8.1604 0.6876
22.7125 -56.2595 5.3080 0.7838
28.5594 -39.5935 4.2711 0.8220
38.9495 -42.1901 5.0236 0.7941
48.3384 -41.1068 5.5515 0.7751
63.9604 -42.2835 6.7081 0.7350
60.6420 -30.3128 5.9314 0.7617
65.1311 1.2265 5.6992 0.7698
47.8251 19.1358 4.5067 0.8132
15.6766 8.5887 1.5639 0.9307
12.0163 8.6112 1.2934 0.9424
7.3932 8.6396 0.9948 0.9554
4.3615 8.6582 0.8482 0.9618
3.1244 8.6658 0.8059 0.9637
1.9891 8.6728 0.7785 0.9649
0.9094 8.6413 0.7602 0.9657
-1.1925 8.6924 0.7676 0.9654
-3.4523 8.7063 0.8194 0.9631
-6.2105 8.7232 0.9368 0.9579
-10.1583 8.7475 1.1728 0.9476
-13.0824 8.7654 1.3777 0.9387
-17.3190 8.7915 1.6993 0.9250
-22.6793 -33.6237 3.5483 0.8497
-16.7989 -32.8415 3.2273 0.8623
-11.6313 -31.6454 2.9497 0.8734
34.8673 -30.4022 4.0475 0.8305
61.0848 -31.4844 6.0123 0.7589
65.0279 -15.5503 5.8496 0.7646
65.0776 -7.4599 5.7308 0.7687
60.2672 7.6986 5.3155 0.7835
61.1207 15.4534 5.5156 0.7764
49.5673 19.1251 4.6482 0.8079
16.1421 8.5858 1.5996 0.9292
9.6383 8.6258 1.1316 0.9494
7.5794 8.6384 1.0054 0.9549
-6.5729 -28.2603 1.5206 0.8903
0.7942 -62.7096 3.2867 0.7779
30.6177 -77.9111 4.3871 0.7151
28.6097 -40.4475 2.5964 0.8200
48.0755 -41.6565 3.3338 0.7751
61.0863 -31.2451 3.5959 0.7597
53.9638 -19.8333 3.0131 0.7943
69.2017 -7.7145 3.6492 0.7566
69.6272 0.6665 3.6492 0.7566
54.6757 7.1573 2.8899 0.8018
33.1117 8.4815 1.7913 0.8720
49.1192 19.1279 2.7625 0.8097
12.2524 8.6097 0.7848 0.9418
9.5786 8.6262 0.6756 0.9497
3.8781 5.7115 0.3618 0.9727
0.9938 8.6709 0.4574 0.9656
-1.1093 8.6824 0.4587 0.9655
-2.1951 8.6811 0.4693 0.9648
-4.6348 8.7135 0.5172 0.9612
-6.0890 8.7225 0.5575 0.9583
-12.8217 8.7638 0.8139 0.9397
-23.5736 8.8299 1.3193 0.9041
-4.0390 -33.4129 1.7638 0.8739
0.0185 -62.9044 3.2967 0.7773
29.7489 -43.1813 2.7481 0.8106
47.5508 -42.2429 3.3334 0.7751
69.1010 -8.5699 3.6492 0.7566
34.8581 8.4708 1.8800 0.8662
12.5208 8.5690 0.7951 0.9410
9.8185 8.6247 0.6849 0.9490
7.7213 8.6376 0.6072 0.9547
6.0295 8.6480 0.5525 0.9587
4.5981 8.6568 0.5137 0.9615
3.3374 8.6644 0.4866 0.9635
1.4817 5.8745 0.3175 0.9760
1.1024 8.6696 0.4580 0.9656
0.0511 8.6792 0.4549 0.9658
-1.0003 8.6825 0.4580 0.9656
-2.0808 8.6794 0.4678 0.9649
-3.2232 8.6712 0.4848 0.9636
-4.4970 8.7127 0.5138 0.9615
-5.9293 8.7215 0.5527 0.9586
-22.7005 8.8246 1.2764 0.9071
-20.5384 2.6763 1.0855 0.9204
-49.3209 -25.2638 2.9042 0.8009
-58.8994 -65.0742 4.5998 0.7036
-3.2628 -24.4491 1.2927 0.9059
31.0440 -85.1242 4.7486 0.6956
26.1696 -51.4809 3.0266 0.7935
27.6332 -41.1918 2.5995 0.8198
36.3585 -42.1741 2.9182 0.8001
44.9385 -40.9279 3.1855 0.7839
58.3964 -41.5252 3.7553 0.7505
67.3549 -17.6552 3.6492 0.7566
69.2438 7.3271 3.6492 0.7566
61.0120 14.0294 3.2809 0.7782
12.9143 8.6057 0.8133 0.9397
7.9146 8.6364 0.6139 0.9542
6.1892 8.6470 0.5573 0.9583
36.0057 65.8092 3.9314 0.7405
3.4608 8.6638 0.4889 0.9633
2.2969 8.6534 0.4692 0.9648
0.1585 8.6785 0.4549 0.9658
-9.6231 26.9028 1.4974 0.8919
-7.4331 8.7307 0.6009 0.9551
-12.1588 8.7598 0.7854 0.9417
-21.8819 8.8195 1.2364 0.9098
-49.6777 -24.6756 2.9069 0.8008
-22.8725 -31.5416 2.0419 0.8555
-3.6826 -25.2119 1.3353 0.9030
-0.9042 -36.9799 1.9386 0.8623
25.3394 -51.4125 3.0039 0.7949
34.3562 -40.8629 2.7979 0.8075
60.7726 -24.9323 3.4426 0.7687
68.8678 -10.2768 3.6492 0.7566
69.6040 -1.9173 3.6492 0.7566
69.3291 6.4700 3.6492 0.7566
64.4315 13.9788 3.4553 0.7679
54.9769 19.0918 3.0500 0.7921
13.2638 8.6035 0.8286 0.9386
8.1123 8.6352 0.6209 0.9537
6.3516 8.6460 0.5622 0.9579
4.8607 8.6288 0.5190 0.9611
3.5854 8.6630 0.4914 0.9631
2.4121 8.6543 0.4708 0.9647
1.3207 8.6668 0.4595 0.9655
0.2659 8.6777 0.4550 0.9658
-4.2266 8.7110 0.5074 0.9620
-5.6177 8.7196 0.5436 0.9593
-7.2479 8.7296 0.5946 0.9556
-9.2478 8.7419 0.6669 0.9503
-15.4746 8.7801 0.9324 0.9312
-12.8874 -30.6015 1.7402 0.8755
-1.3616 -36.9659 1.9386 0.8623
28.6591 -85.0661 4.7043 0.6980
33.6158 -41.0016 2.7787 0.8087
43.2948 -41.4360 3.1407 0.7866
66.4686 -19.1922 3.6258 0.7580
58.9785 19.6672 3.2583 0.7796
42.5677 20.1682 2.4686 0.8281
8.3146 8.6339 0.6282 0.9531
6.5171 8.6450 0.5674 0.9576
3.7112 8.6622 0.4939 0.9630
1.4304 8.6653 0.4603 0.9654
0.3734 8.6769 0.4552 0.9658
-0.6750 8.6821 0.4564 0.9657
-1.7433 8.6810 0.4640 0.9652
-2.8699 8.6958 0.4799 0.9640
-4.0939 8.7102 0.5044 0.9622
-17.9678 22.1941 1.4965 0.8919
-9.0202 8.7405 0.6583 0.9509
-79.2753 46.2855 4.8109 0.6923
-20.3894 8.8103 1.1641 0.9149
-24.0796 -31.5342 2.0794 0.8531
-10.5417 -24.1906 1.3829 0.8997
27.8440 -86.1546 4.7451 0.6958
27.0797 -43.7961 2.6986 0.8136
33.2608 -41.6079 2.7917 0.8079
61.1108 -26.8560 3.4983 0.7654
61.0951 -18.4624 3.3449 0.7744
68.5925 -11.9774 3.6492 0.7566
69.5352 -3.6385 3.6492 0.7566
69.4679 4.7530 3.6492 0.7566
43.9468 20.1597 2.5339 0.8239
6.6856 8.6440 0.5727 0.9572
5.1605 8.6533 0.5280 0.9604
3.8384 8.6614 0.4965 0.9628
2.6451 8.6564 0.4744 0.9644
1.5404 8.6637 0.4612 0.9654
-3.9627 8.7094 0.5015 0.9624
-5.3160 8.7177 0.5351 0.9599
-8.7983 8.7391 0.6499 0.9515
-14.6110 8.7748 0.8932 0.9340
-24.7001 -31.5304 2.0991 0.8518
-13.7859 -30.5960 1.7587 0.8742
-9.8751 -31.6161 1.7359 0.8758
-6.1521 -33.4000 1.7799 0.8728
26.7248 -86.3263 4.7360 0.6963
24.4438 -54.6172 3.1360 0.7869
25.3334 -42.1281 2.5763 0.8213
32.8500 -42.1527 2.8007 0.8073
41.9723 -42.2087 3.1196 0.7879
53.6294 -42.2802 3.5790 0.7607
60.9701 -37.1317 3.7412 0.7513
61.1052 -27.7605 3.5174 0.7643
69.4849 -4.4983 3.6492 0.7566
69.5214 3.8933 3.6492 0.7566
54.5369 9.7290 2.9033 0.8010
27.8065 8.5141 1.5241 0.8900
14.3963 8.5966 0.8788 0.9350
11.1276 8.6166 0.7376 0.9452
6.8573 8.6429 0.5782 0.9568
5.3062 8.6524 0.5319 0.9602
2.7630 8.6576 0.4763 0.9643
1.6509 8.6621 0.4621 0.9653
0.5886 8.6750 0.4557 0.9658
-0.4592 8.6816 0.4556 0.9658
-1.5211 8.6818 0.4619 0.9653
-2.6315 8.6903 0.4759 0.9643
-3.8330 8.7086 0.4986 0.9626
-5.1686 8.7168 0.5311 0.9602
-6.7141 8.7263 0.5770 0.9569
-19.0406 8.7927 1.0991 0.9194
-57.6799 -17.2716 3.1555 0.7857
-56.0960 -42.8858 3.7004 0.7536
-19.6263 -31.5634 1.9479 0.8617
-14.2425 -30.5932 1.7686 0.8736
-2.5092 -33.8782 1.7803 0.8728
25.8279 -87.2346 4.7679 0.6946
24.2565 -41.4908 2.5188 0.8249
31.9469 -42.0566 2.7679 0.8093
52.4874 -42.4431 3.5376 0.7631
61.0932 -38.2506 3.7775 0.7492
60.8503 -28.5579 3.5228 0.7640
68.2752 -13.6706 3.6492 0.7566
29.0607 8.5064 1.5869 0.8858
11.4142 8.6149 0.7494 0.9443
8.9513 8.6300 0.6516 0.9514
4.0969 8.6599 0.5021 0.9624
2.8819 8.6588 0.4783 0.9641
-0.3516 8.6812 0.4553 0.9658
-1.4107 8.6821 0.4610 0.9654
-13.8165 8.7700 0.8576 0.9366
-56.5422 -16.1715 3.0821 0.7901
-25.9775 -31.5226 2.1407 0.8491
-20.1698 -31.5600 1.9629 0.8607
-10.7387 -31.6108 1.7496 0.8748
-7.0094 -33.3947 1.7883 0.8723
-2.0990 -24.2614 1.2762 0.9071
24.8992 -88.0877 4.7974 0.6930
23.0076 -55.0193 3.1254 0.7875
49.3853 -40.9553 3.3624 0.7734
60.6452 -29.3825 3.5317 0.7634
69.5965 2.1721 3.6492 0.7566
4.2284 8.6590 0.5050 0.9621
3.0019 8.6602 0.4804 0.9640
-0.2441 8.6807 0.4551 0.9658
-1.3007 8.6823 0.4601 0.9654
-4.8803 8.7150 0.5235 0.9608
-6.3753 8.7242 0.5663 0.9576
-8.1649 8.7352 0.6266 0.9532
-10.4181 8.7491 0.7130 0.9470
-17.8701 8.7949 1.0438 0.9233
-79.2585 7.5984 4.1728 0.7269
-26.6652 -31.5535 2.1651 0.8475
-20.7218 -31.5567 1.9785 0.8597
-15.1715 -30.5875 1.7894 0.8722
-7.4412 -33.3921 1.7929 0.8719
0.3543 -16.1605 0.8471 0.9373
23.1280 -57.2889 3.2378 0.7808
31.1018 -43.1182 2.7863 0.8082
63.9605 -42.2836 4.0183 0.7356
54.0499 -19.2988 3.0078 0.7946
54.4490 7.6410 2.8815 0.8023
31.9083 8.4889 1.7304 0.8761
12.0163 8.6112 0.7748 0.9425
7.3932 8.6396 0.5959 0.9555
3.1229 8.6617 0.4825 0.9638
1.9854 8.6567 0.4655 0.9651
0.9094 8.6413 0.4554 0.9658
-3.4523 8.7063 0.4908 0.9632
-4.7392 8.7142 0.5199 0.9610
-7.9636 8.7340 0.6194 0.9538
-10.1583 8.7475 0.7026 0.9477
-13.0824 8.7654 0.8253 0.9389
-17.3190 8.7915 1.0179 0.9252
-79.0228 18.3808 4.2520 0.7225
-3.7257 -33.4148 1.7620 0.8740
30.2657 -77.7251 4.3713 0.7160
27.4005 -51.1337 3.0403 0.7927
28.4986 -40.5574 2.5978 0.8199
34.8644 -30.3996 2.4243 0.8309
62.4733 -42.4202 3.9575 0.7390
61.0848 -31.4844 3.6015 0.7594
67.7210 -16.1943 3.6492 0.7566
69.6289 0.4499 3.6492 0.7566
61.1613 7.8128 3.2314 0.7812
16.1421 8.5858 0.9582 0.9294
7.5794 8.6384 0.6023 0.9550
1.0843 -85.6116 1.4945 0.7100
32.9358 -83.8098 1.5718 0.6975
35.2020 -30.5018 0.8130 0.8300
36.0441 -24.3109 0.7589 0.8404
47.6579 -24.3766 0.9344 0.8072
51.3931 -18.8885 0.9557 0.8033
50.6856 19.7378 0.9494 0.8044
9.5786 8.6262 0.2250 0.9497
7.5167 8.6209 0.1996 0.9553
3.8781 5.7115 0.1205 0.9728
4.4621 8.6576 0.1700 0.9618
-1.1078 8.6708 0.1526 0.9656
-2.1888 8.6565 0.1559 0.9649
-3.3592 8.7057 0.1629 0.9634
-6.0891 8.7225 0.1857 0.9583
-16.9066 8.7799 0.3325 0.9266
-54.7388 -13.6611 0.9848 0.7980
-61.4609 -32.4483 1.2131 0.7573
-13.3748 -35.3738 0.6601 0.8596
-7.6685 -31.2155 0.5611 0.8793
33.1254 -87.4552 1.6324 0.6879
45.8654 -87.5288 1.7249 0.6735
35.2024 -31.2728 0.8219 0.8283
35.2445 -24.4114 0.7483 0.8424
46.2322 -24.3736 0.9123 0.8113
51.0111 -19.4677 0.9530 0.8038
16.4382 8.5489 0.3234 0.9286
12.5208 8.5690 0.2648 0.9411
6.0029 8.6098 0.1832 0.9589
1.4815 5.8735 0.1057 0.9761
-0.9989 8.6701 0.1523 0.9657
-2.0751 8.6557 0.1554 0.9650
-4.4970 8.7127 0.1711 0.9615
-9.7218 8.7448 0.2282 0.9490
-22.7004 8.8246 0.4251 0.9072
-13.8115 -35.2062 0.6601 0.8596
-3.9199 -15.1451 0.2731 0.9393
-3.2628 -24.4491 0.4305 0.9060
42.6140 -83.8304 1.6415 0.6865
31.0828 -46.3340 0.9739 0.7999
33.7769 -39.1796 0.9029 0.8131
38.5381 -15.2563 0.7235 0.8472
91.2839 9.6593 1.6023 0.6927
39.0325 19.6900 0.7631 0.8395
10.0652 8.6232 0.2313 0.9484
6.1620 8.6091 0.1848 0.9585
36.0057 65.8092 1.3094 0.7407
3.4608 8.6638 0.1628 0.9634
2.3015 8.6709 0.1566 0.9647
1.2127 8.6776 0.1529 0.9656
-4.3609 8.7118 0.1701 0.9618
-7.4331 8.7307 0.2001 0.9552
-12.1395 8.7458 0.2612 0.9419
-15.9173 8.7728 0.3172 0.9299
-20.6795 2.9553 0.3646 0.9198
-37.3136 -8.3375 0.6674 0.8582
-49.4383 -24.5567 0.9635 0.8018
-22.6127 -31.1833 0.6724 0.8572
-17.5296 -31.5743 0.6304 0.8655
-8.4912 -31.2105 0.5646 0.8786
-4.5623 -31.2346 0.5510 0.8814
32.3765 -92.3100 1.7075 0.6761
26.6742 -54.1208 1.0532 0.7855
31.0750 -47.5843 0.9920 0.7966
32.9343 -39.1718 0.8933 0.8149
35.2365 -25.7186 0.7615 0.8399
60.6729 -24.8913 1.1447 0.7692
91.2768 8.5182 1.6002 0.6930
35.4945 12.3262 0.6559 0.8604
8.0960 8.6178 0.2064 0.9538
6.3239 8.6083 0.1864 0.9582
3.5854 8.6630 0.1637 0.9632
2.4165 8.6702 0.1571 0.9646
0.2654 8.6623 0.1513 0.9659
-0.7820 8.6688 0.1519 0.9658
-1.8496 8.6542 0.1545 0.9652
-2.9780 8.6619 0.1599 0.9640
-7.2479 8.7296 0.1980 0.9556
-21.1132 8.8148 0.3994 0.9125
-18.0424 -31.5712 0.6347 0.8646
-14.8933 -35.3645 0.6698 0.8577
-8.9065 -31.2079 0.5665 0.8782
-4.9573 -31.2321 0.5520 0.8812
-1.4916 -40.4948 0.7073 0.8503
31.0721 -48.8906 1.0111 0.7931
35.1876 -33.6769 0.8502 0.8230
42.3032 -24.3494 0.8520 0.8226
91.3236 -14.7847 1.6148 0.6907
58.6841 19.5690 1.0798 0.7808
8.2985 8.6172 0.2088 0.9533
4.9941 8.6148 0.1738 0.9609
3.7112 8.6622 0.1645 0.9630
2.5323 8.6695 0.1576 0.9645
1.4322 8.6762 0.1535 0.9654
-1.7378 8.6535 0.1541 0.9653
-2.8584 8.6610 0.1592 0.9642
-5.4657 8.7186 0.1796 0.9597
-17.9678 22.1941 0.4984 0.8920
-9.0202 8.7405 0.2192 0.9510
-63.2190 -29.4750 1.2175 0.7565
-15.4097 -35.3614 0.6733 0.8570
-9.7079 -32.4878 0.5918 0.8731
-5.3537 -31.2297 0.5531 0.8809
40.4654 -87.4967 1.6827 0.6800
35.1824 -34.5159 0.8603 0.8210
41.1058 -24.3421 0.8339 0.8260
60.9456 19.4888 1.1169 0.7742
43.9468 20.1597 0.8439 0.8241
14.0038 8.5990 0.2868 0.9364
6.6681 8.6214 0.1902 0.9573
5.1371 8.6140 0.1751 0.9607
2.6489 8.6688 0.1582 0.9644
1.5425 8.6756 0.1538 0.9654
-0.5661 8.6674 0.1516 0.9658
-5.3160 8.7177 0.1782 0.9600
-6.8885 8.7274 0.1941 0.9565
-11.2345 8.7448 0.2485 0.9446
-14.5722 8.7516 0.2967 0.9343
-56.2319 -17.5987 1.0285 0.7900
-24.4195 -31.1723 0.6912 0.8535
-2.4956 -40.4886 0.7081 0.8502
32.8500 -42.1527 0.9328 0.8075
35.1772 -35.3753 0.8708 0.8191
35.2217 -27.7679 0.7829 0.8357
39.9555 -24.3335 0.8166 0.8293
53.7518 -24.4198 1.0305 0.7896
27.8065 8.5141 0.5076 0.8902
45.4009 20.1507 0.8670 0.8198
14.3963 8.5966 0.2927 0.9351
35.4150 34.9995 0.8691 0.8194
5.2822 8.6133 0.1764 0.9604
2.7664 8.6680 0.1588 0.9643
1.6534 8.6749 0.1541 0.9653
0.5885 8.6739 0.1517 0.9658
-0.4585 8.6667 0.1515 0.9659
-2.6222 8.6594 0.1579 0.9645
-8.5820 8.7378 0.2138 0.9522
-14.1666 8.7482 0.2906 0.9356
-19.0406 8.7927 0.3661 0.9195
-56.2663 -16.8483 1.0252 0.7906
-19.4022 -31.2030 0.6414 0.8633
-16.3894 -35.2048 0.6778 0.8561
-10.3052 -31.6135 0.5804 0.8754
-6.1517 -31.2248 0.5555 0.8805
31.0411 -53.0958 1.0736 0.7819
35.1396 -36.2228 0.8809 0.8172
35.2098 -28.4719 0.7904 0.8343
38.8268 -24.3096 0.7996 0.8325
52.0101 -24.4091 1.0028 0.7947
92.3679 -18.4947 1.6443 0.6860
51.1312 8.4702 0.9046 0.8127
29.0606 8.5064 0.5285 0.8859
14.8051 8.5940 0.2988 0.9338
8.9513 8.6300 0.2170 0.9515
5.4295 8.6126 0.1777 0.9601
1.7647 8.6742 0.1545 0.9652
-1.4068 8.6583 0.1531 0.9655
-2.5054 8.6586 0.1573 0.9646
-3.7048 8.7078 0.1652 0.9628
-5.0234 8.7159 0.1756 0.9606
-6.5431 8.7253 0.1904 0.9573
-8.3709 8.7365 0.2112 0.9527
-18.4180 8.7832 0.3562 0.9216
-26.3012 8.8443 0.4843 0.8949
-56.3004 -16.1024 1.0221 0.7912
-63.3023 -60.2796 1.5258 0.7049
-11.6585 -24.2540 0.4697 0.8979
-10.7387 -31.6108 0.5827 0.8750
-6.5534 -31.2224 0.5569 0.8802
-2.9049 -33.5771 0.5883 0.8739
36.5803 -87.4765 1.6550 0.6843
31.1979 -42.1428 0.9152 0.8108
37.1077 -39.2107 0.9423 0.8058
35.1977 -29.1894 0.7982 0.8328
37.7926 -24.3179 0.7844 0.8354
50.3593 -24.3989 0.9768 0.7994
55.4441 -19.0267 1.0232 0.7910
91.1052 -19.4170 1.6260 0.6889
11.7103 8.6131 0.2537 0.9435
7.1959 8.6227 0.1960 0.9561
5.5791 8.6119 0.1791 0.9598
4.2284 8.6590 0.1682 0.9622
-0.2437 8.6654 0.1513 0.9659
-1.2979 8.6635 0.1529 0.9656
-2.3896 8.6578 0.1568 0.9647
-3.5779 8.7070 0.1643 0.9630
-8.1649 8.7352 0.2087 0.9533
-10.4181 8.7491 0.2375 0.9470
-13.4030 8.7420 0.2793 0.9380
-17.8366 8.7784 0.3470 0.9235
-25.2021 8.8232 0.4661 0.8987
-69.3443 -50.3455 1.4958 0.7098
-20.4852 -31.1964 0.6514 0.8613
-16.8052 -33.8813 0.6601 0.8596
-8.9503 -25.3140 0.4687 0.8982
-6.9572 -31.2199 0.5583 0.8799
0.3543 -16.1603 0.2821 0.9374
31.1026 -43.1193 0.9280 0.8084
36.1910 -39.2021 0.9313 0.8078
36.7809 -24.3155 0.7696 0.8383
51.8440 7.2754 0.9138 0.8110
31.9083 8.4889 0.5763 0.8763
16.2255 8.8894 0.3229 0.9287
3.8304 5.7553 0.1207 0.9727
3.1244 8.6658 0.1608 0.9638
-0.1364 8.6648 0.1513 0.9659
-2.2745 8.6571 0.1562 0.9648
-10.1583 8.7475 0.2340 0.9478
-79.0130 18.3786 1.4160 0.7229
-54.7675 -14.2082 0.9876 0.7974
-21.0397 -31.1930 0.6567 0.8603
-16.7988 -32.8415 0.6439 0.8628
-13.0025 -35.3761 0.6579 0.8600
-6.6716 -28.2855 0.5073 0.8902
-3.4833 -31.2412 0.5487 0.8818
0.8179 -85.6100 1.4944 0.7100
35.2954 -39.1938 0.9206 0.8098
34.8610 -30.3966 0.8073 0.8311
35.8012 -24.3095 0.7554 0.8410
47.3013 -24.3801 0.9289 0.8082
51.3091 -19.0390 0.9553 0.8034
7.5638 8.6207 0.2002 0.9552
31.7104 -80.6917 -1.5133 0.7069
34.5036 -63.9106 -1.2677 0.7478
25.9252 -36.6523 -0.7836 0.8356
33.1117 8.4815 -0.5966 0.8722
16.3258 8.7488 -0.3233 0.9286
9.5786 8.6262 -0.2250 0.9497
3.8780 5.7114 -0.1205 0.9728
4.4621 8.6576 -0.1700 0.9618
3.2152 8.6653 -0.1613 0.9637
0.9947 8.6789 -0.1525 0.9657
-1.1052 8.6504 -0.1522 0.9657
-2.1782 8.6145 -0.1551 0.9651
-3.3592 8.7057 -0.1629 0.9634
-4.6348 8.7135 -0.1723 0.9613
-6.0891 8.7225 -0.1857 0.9583
-20.6222 2.4282 -0.3624 0.9203
-86.3190 -0.2923 -1.5067 0.7080
-86.3396 -10.7595 -1.5187 0.7060
-54.4696 -13.5939 -0.9799 0.7988
-60.0800 -41.6654 -1.2762 0.7464
-15.0255 -21.8375 -0.4627 0.8994
-10.6130 -20.2829 -0.3996 0.9125
-7.4375 -19.6710 -0.3671 0.9193
-4.7647 -19.3954 -0.3486 0.9232
0.0064 -21.7553 -0.3797 0.9166
41.8606 -79.8863 -1.5743 0.6971
35.2024 -31.2728 -0.8219 0.8283
35.2445 -24.4114 -0.7483 0.8424
46.2322 -24.3736 -0.9123 0.8113
50.6793 -12.6163 -0.9116 0.8114
53.0497 19.9062 -0.9890 0.7972
12.5208 8.5690 -0.2648 0.9411
9.8185 8.6247 -0.2281 0.9491
5.9705 8.5634 -0.1822 0.9591
3.3374 8.6645 -0.1621 0.9635
1.4812 5.8725 -0.1057 0.9761
1.1035 8.6783 -0.1527 0.9656
-3.2232 8.6712 -0.1615 0.9637
-4.4970 8.7127 -0.1711 0.9615
-5.9293 8.7215 -0.1841 0.9587
-7.6224 8.7319 -0.2023 0.9547
-9.7218 8.7448 -0.2282 0.9490
-16.3186 8.7325 -0.3231 0.9286
-86.1786 22.0206 -1.5526 0.7006
-86.3123 0.7754 -1.5066 0.7080
-37.2352 -8.8050 -0.6679 0.8581
-59.9159 -40.4633 -1.2620 0.7488
-58.6320 -64.7788 -1.5251 0.7050
-15.6185 -22.1086 -0.4725 0.8974
-10.7490 -19.9384 -0.3954 0.9134
-7.7736 -19.8154 -0.3715 0.9184
-2.7487 -20.5971 -0.3627 0.9202
40.6424 -79.9518 -1.5655 0.6985
31.0826 -46.3338 -0.9739 0.7999
55.0145 19.8707 -1.0210 0.7914
39.0325 19.6900 -0.7631 0.8395
12.9143 8.6057 -0.2709 0.9398
10.0652 8.6232 -0.2313 0.9484
7.8790 8.5975 -0.2036 0.9544
6.1348 8.5711 -0.1840 0.9587
35.7735 65.3847 -1.3009 0.7422
-9.6231 26.9028 -0.4987 0.8920
-4.3609 8.7118 -0.1701 0.9618
-5.7722 8.7205 -0.1825 0.9590
-7.4331 8.7307 -0.2001 0.9552
-9.4816 8.7433 -0.2251 0.9497
-12.0908 8.7108 -0.2601 0.9421
-21.8819 8.8195 -0.4118 0.9099
-37.2968 -8.3337 -0.6671 0.8582
-72.4000 -25.6451 -1.3407 0.7354
-59.6476 -39.2166 -1.2460 0.7516
-16.2593 -22.4219 -0.4834 0.8951
-5.2607 -19.3366 -0.3498 0.9230
-2.9795 -20.3984 -0.3598 0.9208
-0.5294 -21.6535 -0.3781 0.9170
31.7619 -90.5577 -1.6751 0.6812
32.7530 -38.9561 -0.8884 0.8158
35.1926 -32.8574 -0.8404 0.8248
43.5539 -24.3571 -0.8710 0.8190
98.3832 9.1814 -1.7247 0.6735
35.4945 12.3262 -0.6559 0.8604
13.2638 8.6035 -0.2760 0.9387
8.0861 8.6072 -0.2061 0.9539
6.3023 8.5789 -0.1858 0.9583
4.8607 8.6288 -0.1729 0.9612
3.5854 8.6630 -0.1637 0.9632
2.4165 8.6702 -0.1571 0.9646
1.3223 8.6769 -0.1532 0.9655
-0.7801 8.6485 -0.1516 0.9659
-1.8417 8.6172 -0.1538 0.9654
-2.9632 8.6188 -0.1591 0.9642
-4.2266 8.7110 -0.1690 0.9620
-5.6177 8.7196 -0.1811 0.9594
-7.2479 8.7296 -0.1980 0.9556
-9.2478 8.7419 -0.2221 0.9504
-15.4432 8.7623 -0.3099 0.9314
-21.1132 8.8148 -0.3994 0.9125
-72.2417 -6.2913 -1.2657 0.7482
-62.5415 -30.1067 -1.2116 0.7575
-16.9252 -22.7427 -0.4948 0.8928
-11.6787 -20.4359 -0.4108 0.9101
-8.3327 -19.7863 -0.3747 0.9177
-5.5630 -19.4927 -0.3538 0.9221
-3.2295 -20.3465 -0.3596 0.9209
2.1649 -25.7814 -0.4516 0.9017
41.3638 -86.6108 -1.6753 0.6811
30.3007 -47.6767 -0.9860 0.7977
35.1876 -33.6769 -0.8502 0.8230
35.2324 -26.3897 -0.7684 0.8385
42.3032 -24.3494 -0.8520 0.8226
85.6820 -24.7399 -1.5567 0.6999
98.3756 7.9545 -1.7227 0.6738
66.2624 13.5201 -1.1804 0.7630
58.6841 19.5690 -1.0798 0.7808
42.5676 20.1682 -0.8222 0.8282
13.6266 8.6013 -0.2813 0.9376
10.5805 8.6200 -0.2382 0.9469
8.2985 8.6172 -0.2088 0.9533
6.4733 8.5869 -0.1877 0.9579
3.7112 8.6622 -0.1645 0.9630
2.5323 8.6695 -0.1576 0.9645
0.3728 8.6637 -0.1514 0.9659
-0.6723 8.6478 -0.1514 0.9659
-2.8443 8.6182 -0.1584 0.9643
-4.0939 8.7102 -0.1680 0.9622
-5.4657 8.7186 -0.1796 0.9597
-15.6170 19.2904 -0.4332 0.9055
-9.0202 8.7405 -0.2192 0.9510
-11.5088 8.7320 -0.2522 0.9438
-26.8972 15.7041 -0.5437 0.8828
-49.8272 14.7217 -0.9069 0.8123
-52.4593 8.8263 -0.9285 0.8083
-72.1976 -5.3886 -1.2637 0.7485
-46.1829 -9.1259 -0.8217 0.8283
-57.2542 -18.6994 -1.0513 0.7859
-59.0671 -36.7750 -1.2145 0.7570
-61.2412 -49.2667 -1.3719 0.7302
-12.0577 -20.5059 -0.4152 0.9092
27.0116 -43.6860 -0.8965 0.8143
35.1824 -34.5159 -0.8603 0.8210
35.2282 -27.0732 -0.7755 0.8372
55.5930 -24.4311 -1.0599 0.7843
51.5730 9.8600 -0.9166 0.8105
60.9456 19.4888 -1.1169 0.7742
14.0038 8.5990 -0.2868 0.9364
10.8498 8.6183 -0.2419 0.9461
8.5165 8.6274 -0.2116 0.9527
5.1092 8.5672 -0.1741 0.9609
3.8384 8.6614 -0.1654 0.9628
2.6489 8.6688 -0.1582 0.9644
-2.7263 8.6175 -0.1578 0.9645
-3.9627 8.7094 -0.1670 0.9624
-5.3160 8.7177 -0.1782 0.9600
-8.7983 8.7391 -0.2165 0.9516
-52.4550 9.4942 -0.9305 0.8079
-53.7168 3.1442 -0.9392 0.8063
-70.9053 -4.4107 -1.2400 0.7526
-56.6310 -17.7236 -1.0358 0.7887
-72.3123 -43.7896 -1.4756 0.7131
-8.9775 -19.9244 -0.3815 0.9163
-6.0830 -19.4754 -0.3561 0.9216
-1.3178 -21.3799 -0.3739 0.9179
27.3578 -88.3708 -1.6147 0.6907
39.1570 -87.4923 -1.6731 0.6815
30.4053 -50.5623 -1.0298 0.7898
25.9691 -33.3232 -0.7374 0.8445
35.1772 -35.3753 -0.8708 0.8191
35.2239 -27.7697 -0.7829 0.8357
39.9580 -24.3350 -0.8166 0.8293
53.7518 -24.4198 -1.0305 0.7896
52.8062 9.4203 -0.9363 0.8069
11.1276 8.6166 -0.2457 0.9453
2.7664 8.6680 -0.1588 0.9643
-2.6093 8.6169 -0.1572 0.9646
-8.5820 8.7378 -0.2138 0.9522
-27.1987 8.7731 -0.4988 0.8920
-86.2120 16.7081 -1.5328 0.7038
-72.2496 -12.4281 -1.2796 0.7458
-56.1436 -16.8115 -1.0230 0.7910
-72.2065 -31.5149 -1.3752 0.7297
-56.1099 -42.8964 -1.2328 0.7539
-12.9862 -20.8848 -0.4293 0.9063
-9.3211 -20.0221 -0.3855 0.9154
1.0551 -22.5950 -0.3948 0.9135
37.8616 -87.4843 -1.6639 0.6829
31.0411 -53.0958 -1.0735 0.7819
26.6933 -35.1405 -0.7703 0.8382
35.1396 -36.2228 -0.8809 0.8172
38.8566 -24.3282 -0.8002 0.8324
52.0101 -24.4091 -1.0028 0.7947
74.9693 -24.6950 -1.3778 0.7292
52.8021 8.7470 -0.9342 0.8073
42.5153 18.2439 -0.8075 0.8310
11.4142 8.6149 -0.2496 0.9444
8.9513 8.6300 -0.2170 0.9515
6.9966 8.5979 -0.1935 0.9566
5.3995 8.5651 -0.1767 0.9603
1.7647 8.6742 -0.1545 0.9652
0.6964 8.6737 -0.1519 0.9658
-0.3502 8.6459 -0.1510 0.9660
-2.4932 8.6163 -0.1566 0.9648
-5.0234 8.7159 -0.1756 0.9606
-6.5431 8.7253 -0.1904 0.9573
-8.3709 8.7365 -0.2112 0.9527
-10.6858 8.7507 -0.2411 0.9462
-13.6735 8.6791 -0.2827 0.9373
-18.2153 8.6865 -0.3523 0.9224
-53.6680 11.0915 -0.9566 0.8031
-53.7086 4.4792 -0.9407 0.8060
-86.3374 -3.2294 -1.5081 0.7078
-72.4357 -11.5395 -1.2803 0.7457
-56.2470 -16.0871 -1.0212 0.7913
-72.3665 -30.5247 -1.3709 0.7304
-57.1844 -54.4538 -1.3783 0.7291
-21.5471 -26.1465 -0.5914 0.8732
-4.1321 -19.6863 -0.3511 0.9227
0.7684 -22.3993 -0.3912 0.9142
30.2423 -53.2301 -1.0686 0.7828
30.3348 -40.9769 -0.8899 0.8155
36.8289 -38.9160 -0.9352 0.8071
61.2384 -13.0515 -1.0929 0.7784
78.7584 2.4580 -1.3754 0.7296
30.2093 8.4384 -0.5475 0.8821
43.8247 18.1672 -0.8281 0.8271
15.1951 8.5709 -0.3045 0.9326
11.7103 8.6131 -0.2537 0.9435
9.1743 8.6287 -0.2198 0.9509
7.1742 8.5967 -0.1954 0.9562
5.5481 8.5639 -0.1781 0.9600
4.2284 8.6590 -0.1682 0.9622
3.0041 8.6666 -0.1601 0.9640
1.8766 8.6735 -0.1549 0.9651
-0.2431 8.6452 -0.1510 0.9660
-1.2948 8.6432 -0.1526 0.9656
-3.5779 8.7070 -0.1643 0.9630
-8.1649 8.7352 -0.2087 0.9533
-17.6813 8.7020 -0.3440 0.9242
-23.3388 8.1708 -0.4316 0.9058
-53.6638 11.7846 -0.9590 0.8027
-53.9101 5.1683 -0.9453 0.8052
-55.4092 -15.1086 -1.0025 0.7947
-57.5618 -53.4714 -1.3714 0.7303
-13.8971 -21.1635 -0.4419 0.9037
-9.8937 -19.9468 -0.3886 0.9148
-6.9154 -19.5589 -0.3621 0.9204
-4.3429 -19.4884 -0.3485 0.9232
-2.0580 -20.7900 -0.3647 0.9198
35.2754 -87.3785 -1.6448 0.6859
36.7809 -24.3155 -0.7696 0.8383
52.6329 -18.7929 -0.9755 0.7996
31.9083 8.4889 -0.5763 0.8763
12.0163 8.6112 -0.2580 0.9426
9.4032 8.6272 -0.2227 0.9502
7.3554 8.5954 -0.1975 0.9558
3.8304 5.7552 -0.1207 0.9727
4.3615 8.6582 -0.1692 0.9620
3.1244 8.6658 -0.1608 0.9638
0.9094 8.6413 -0.1517 0.9658
-0.1361 8.6446 -0.1509 0.9660
-4.7392 8.7142 -0.1731 0.9611
-6.2105 8.7232 -0.1869 0.9581
-7.9636 8.7340 -0.2063 0.9538
-13.0020 8.7116 -0.2732 0.9393
-17.1895 8.7258 -0.3365 0.9258
-24.2668 8.8342 -0.4508 0.9018
-79.0030 18.3762 -1.4158 0.7229
-53.7004 5.8193 -0.9428 0.8057
-86.3107 -1.0916 -1.5067 0.7080
-72.2823 -9.6882 -1.2730 0.7469
-54.5033 -14.1397 -0.9828 0.7983
-62.1047 -33.5271 -1.2319 0.7540
-56.4989 -51.1963 -1.3308 0.7371
-14.4966 -21.4923 -0.4525 0.9015
-7.2201 -19.6441 -0.3653 0.9197
-4.6050 -19.5239 -0.3501 0.9229
-2.3143 -20.7567 -0.3646 0.9198
0.2087 -21.8394 -0.3812 0.9163
32.7161 -84.0181 -1.5736 0.6972
46.9091 -87.5399 -1.7336 0.6721
25.7539 -36.6512 -0.7819 0.8359
34.8550 -30.3914 -0.8072 0.8311
35.8012 -24.3095 -0.7554 0.8410
47.3013 -24.3801 -0.9289 0.8082
33.5355 8.4789 -0.6038 0.8708
16.3596 8.7015 -0.3234 0.9286
12.3330 8.6092 -0.2625 0.9416
9.6383 8.6258 -0.2258 0.9496
7.5405 8.5942 -0.1996 0.9553
-4.4616 -19.1829 -1.0322 0.9241
-2.2102 -20.3990 -1.0753 0.9211
0.2755 -21.7499 -1.1400 0.9166
17.4575 -44.4231 -2.5014 0.8260
22.6749 -42.0003 -2.5014 0.8260
25.8858 -36.5965 -2.3492 0.8356
30.1004 -33.2167 -2.3492 0.8356
35.8872 -24.2051 -2.2686 0.8408
39.9086 -20.4129 -2.3492 0.8356
42.0744 -15.4636 -2.3492 0.8356
33.1117 8.4815 -1.7913 0.8720
22.0036 8.5686 -1.2375 0.9098
16.2205 8.6923 -0.9644 0.9289
12.2524 8.6097 -0.7848 0.9418
3.8780 5.7114 -0.3618 0.9727
4.4621 8.6576 -0.5104 0.9617
2.0737 8.6723 -0.4673 0.9649
0.9947 8.6789 -0.4578 0.9656
-2.1697 8.5809 -0.4639 0.9652
-3.3592 8.7057 -0.4890 0.9633
-6.0890 8.7225 -0.5575 0.9583
-7.8159 8.7331 -0.6142 0.9541
-9.9688 8.7463 -0.6950 0.9483
-12.6962 8.6781 -0.8060 0.9403
-20.5947 2.4249 -1.0868 0.9203
-45.2709 -0.1533 -2.3726 0.8342
-42.2089 -22.2842 -2.5014 0.8260
-14.5649 -21.1680 -1.3466 0.9022
-10.4118 -19.8984 -1.1770 0.9140
-7.2620 -19.2069 -1.0761 0.9210
-4.6860 -19.0752 -1.0294 0.9243
0.0064 -21.6167 -1.1329 0.9171
5.4057 -44.4990 -2.3492 0.8356
11.4142 -46.3454 -2.5014 0.8260
25.8195 -29.2107 -2.0432 0.8554
33.5120 -29.7712 -2.3492 0.8356
41.8799 -15.9829 -2.3492 0.8356
46.3167 -11.5302 -2.5014 0.8260
47.3674 -5.8745 -2.5014 0.8260
47.7301 -0.1335 -2.5014 0.8260
22.8279 8.5659 -1.2778 0.9070
5.9530 8.5383 -0.5455 0.9592
4.5981 8.6568 -0.5137 0.9615
1.4810 5.8716 -0.3174 0.9760
1.1035 8.6783 -0.4585 0.9656
-2.0584 8.5863 -0.4627 0.9653
-3.2232 8.6712 -0.4848 0.9636
-7.6224 8.7319 -0.6074 0.9546
-16.2991 8.7221 -0.9688 0.9286
-21.5096 8.3616 -1.2095 0.9117
-44.1962 11.2932 -2.3906 0.8330
-20.5521 2.6781 -1.0862 0.9203
-39.9447 -4.4767 -2.1065 0.8513
-42.0653 -15.4884 -2.3492 0.8356
-36.0542 -31.2774 -2.5014 0.8260
-15.5275 -21.9798 -1.4104 0.8978
-7.5963 -19.3634 -1.0901 0.9201
-2.6868 -20.1331 -1.0645 0.9219
-0.2573 -21.3104 -1.1169 0.9182
3.1041 -28.4928 -1.5021 0.8915
10.8400 -46.4830 -2.5014 0.8260
25.0715 -37.3732 -2.3585 0.8351
29.2694 -33.9511 -2.3492 0.8356
35.1361 -24.9850 -2.2595 0.8414
38.4153 -15.2077 -2.1653 0.8475
44.5772 4.7170 -2.3492 0.8356
43.6860 10.0454 -2.3492 0.8356
23.7078 8.5630 -1.3210 0.9040
6.1167 8.5457 -0.5508 0.9588
9.9225 18.1358 -1.0834 0.9205
2.3015 8.6709 -0.4702 0.9647
-0.8861 8.6289 -0.4546 0.9659
-1.9476 8.5916 -0.4617 0.9653
-9.5155 26.6021 -1.4807 0.8930
-7.4331 8.7307 -0.6009 0.9551
-9.4816 8.7433 -0.6759 0.9497
-21.8819 8.8195 -1.2364 0.9098
-26.8333 7.2113 -1.4562 0.8947
-44.9186 -4.4723 -2.3657 0.8346
-36.4935 -8.1542 -1.9597 0.8609
-42.2537 -14.9669 -2.3492 0.8356
-32.4650 -34.9886 -2.5014 0.8260
-16.0430 -22.1236 -1.4322 0.8963
-10.9978 -19.8093 -1.1874 0.9132
-5.1591 -18.9630 -1.0299 0.9243
-2.9233 -20.0137 -1.0600 0.9222
-0.5192 -21.2382 -1.1134 0.9184
2.6615 -27.5961 -1.4530 0.8949
15.7973 -45.0402 -2.5014 0.8260
25.0547 -38.3655 -2.4014 0.8323
32.6770 -30.5087 -2.3428 0.8361
35.1321 -25.6424 -2.2795 0.8401
39.1237 -21.8796 -2.3492 0.8356
47.2076 -7.0445 -2.5014 0.8260
30.4354 14.8838 -1.7756 0.8731
2.4165 8.6702 -0.4717 0.9646
1.3223 8.6769 -0.4600 0.9655
-1.8373 8.5969 -0.4607 0.9654
-4.2266 8.7110 -0.5074 0.9620
-5.6177 8.7196 -0.5436 0.9593
-7.2479 8.7296 -0.5946 0.9556
-11.7914 8.7187 -0.7685 0.9430
-15.4432 8.7623 -0.9305 0.9313
-36.8856 -7.7641 -1.9754 0.8599
-43.0066 -20.7028 -2.5014 0.8260
-36.8169 -30.3759 -2.5014 0.8260
-32.8953 -34.5843 -2.5014 0.8260
-11.4451 -20.0271 -1.2089 0.9117
-8.2528 -19.5967 -1.1144 0.9184
-5.4304 -19.0280 -1.0370 0.9238
-3.1688 -19.9646 -1.0594 0.9222
-0.7825 -21.2450 -1.1142 0.9184
9.6868 -46.7370 -2.5014 0.8260
15.2389 -45.2322 -2.5014 0.8260
20.5697 -43.0705 -2.5014 0.8260
32.3844 -30.9944 -2.3492 0.8356
35.1280 -26.3115 -2.3001 0.8388
41.2581 -17.5258 -2.3492 0.8356
42.6034 -12.3014 -2.3240 0.8373
47.1167 -7.6278 -2.5014 0.8260
47.6923 -1.9044 -2.5014 0.8260
47.5750 3.8469 -2.5014 0.8260
43.9212 8.9616 -2.3492 0.8356
30.4276 14.4163 -1.7646 0.8738
13.6266 8.6013 -0.8445 0.9375
10.5805 8.6200 -0.7152 0.9468
6.4537 8.5610 -0.5619 0.9580
3.7112 8.6622 -0.4939 0.9630
1.4322 8.6762 -0.4609 0.9654
-4.0939 8.7102 -0.5044 0.9622
-15.0815 18.6289 -1.2561 0.9085
-11.5088 8.7320 -0.7571 0.9438
-44.8125 7.5397 -2.3815 0.8336
-45.2686 2.0881 -2.3749 0.8340
-42.6110 -13.9169 -2.3492 0.8356
-43.2595 -20.1692 -2.5014 0.8260
-40.5189 -25.2269 -2.5014 0.8260
-33.3206 -34.1748 -2.5014 0.8260
-17.6400 -23.1011 -1.5233 0.8901
-8.4887 -19.4795 -1.1136 0.9184
-5.7247 -19.1578 -1.0479 0.9230
-3.4159 -19.9262 -1.0595 0.9222
-1.0366 -21.0575 -1.1049 0.9190
14.6783 -45.4172 -2.5014 0.8260
20.0354 -43.3216 -2.5014 0.8260
26.6818 -33.3778 -2.2394 0.8427
31.9985 -31.3923 -2.3492 0.8356
41.0381 -18.0348 -2.3492 0.8356
47.0188 -8.2102 -2.5014 0.8260
30.3567 9.7073 -1.6703 0.8802
30.4201 13.9546 -1.7540 0.8745
14.0038 8.5990 -0.8612 0.9363
6.6275 8.5688 -0.5677 0.9575
5.0815 8.5208 -0.5199 0.9610
-2.7129 8.5752 -0.4714 0.9646
-5.3160 8.7177 -0.5351 0.9599
-6.8885 8.7274 -0.5827 0.9564
-14.3335 8.6082 -0.8762 0.9352
-45.2537 2.6488 -2.3757 0.8340
-45.1224 -2.8069 -2.3693 0.8344
-37.5571 -29.4558 -2.5014 0.8260
-12.1881 -20.1528 -1.2343 0.9100
-3.6258 -19.6846 -1.0490 0.9230
14.1154 -45.5953 -2.5014 0.8260
31.6077 -31.7857 -2.3492 0.8356
27.9052 -16.9947 -1.7123 0.8773
45.3895 -14.3315 -2.4945 0.8264
46.9137 -8.7911 -2.5014 0.8260
47.6556 2.6688 -2.5014 0.8260
30.3512 9.2933 -1.6635 0.8806
14.3963 8.5966 -0.8788 0.9350
11.1276 8.6166 -0.7376 0.9452
6.8024 8.5737 -0.5736 0.9571
5.2246 8.5194 -0.5238 0.9608
3.9669 8.6607 -0.4992 0.9626
-3.8330 8.7086 -0.4986 0.9626
-5.1686 8.7168 -0.5311 0.9602
-6.7141 8.7263 -0.5770 0.9569
-8.5821 8.7378 -0.6419 0.9521
-10.9147 8.7149 -0.7320 0.9456
-18.6167 8.5969 -1.0747 0.9211
-22.2256 7.1690 -1.2239 0.9107
-44.6446 8.6522 -2.3833 0.8335
-45.2314 3.2094 -2.3764 0.8339
-43.1093 -18.8153 -2.4651 0.8283
-41.1305 -24.2169 -2.5014 0.8260
-19.4618 -24.2204 -1.6283 0.8830
-12.7888 -20.5672 -1.2693 0.9075
-6.2153 -19.0669 -1.0510 0.9228
-3.8654 -19.6203 -1.0480 0.9230
1.0282 -22.0201 -1.1553 0.9155
13.5503 -45.7664 -2.5014 0.8260
18.9576 -43.8040 -2.5014 0.8260
24.0895 -41.2052 -2.5014 0.8260
31.2121 -32.1743 -2.3492 0.8356
36.4950 -22.8496 -2.2566 0.8416
47.6850 2.0792 -2.5014 0.8260
31.4358 9.2017 -1.7166 0.8770
30.4056 13.0475 -1.7340 0.8759
14.8051 8.5940 -0.8971 0.9337
11.4142 8.6149 -0.7494 0.9443
8.9513 8.6300 -0.6516 0.9514
5.3699 8.5180 -0.5277 0.9605
1.7647 8.6742 -0.4639 0.9652
-2.4810 8.5743 -0.4678 0.9649
-3.7048 8.7078 -0.4959 0.9628
-8.3709 8.7365 -0.6341 0.9527
-13.6183 8.6442 -0.8453 0.9374
-18.0930 8.6282 -1.0505 0.9228
-21.5588 7.2496 -1.1920 0.9129
-44.5634 9.2099 -2.3848 0.8334
-45.2019 3.7698 -2.3772 0.8339
-40.4677 -6.4468 -2.1476 0.8486
-42.5357 -17.9418 -2.4194 0.8312
-41.4271 -23.7061 -2.5014 0.8260
-38.2742 -28.5177 -2.5014 0.8260
-21.5933 -26.2026 -1.7794 0.8728
-13.2458 -20.7260 -1.2891 0.9062
-9.5338 -19.8340 -1.1533 0.9156
-4.0892 -19.4822 -1.0433 0.9234
7.3632 -47.1589 -2.5014 0.8260
18.4143 -44.0351 -2.5014 0.8260
23.5780 -41.5001 -2.5014 0.8260
30.8118 -32.5579 -2.3492 0.8356
42.3990 -14.5500 -2.3492 0.8356
46.6818 -9.9491 -2.5014 0.8260
47.5397 -4.2610 -2.5014 0.8260
47.7070 1.4889 -2.5014 0.8260
44.3107 6.7783 -2.3492 0.8356
20.8059 8.6250 -1.1804 0.9137
15.1951 8.5709 -0.9143 0.9325
11.7103 8.6131 -0.7618 0.9434
9.1743 8.6287 -0.6601 0.9508
7.1526 8.5708 -0.5850 0.9563
3.0041 8.6666 -0.4807 0.9639
1.8766 8.6735 -0.4651 0.9651
-0.2428 8.6348 -0.4527 0.9660
-2.3664 8.5738 -0.4661 0.9650
-4.8803 8.7150 -0.5235 0.9608
-8.1649 8.7352 -0.6266 0.9532
-17.5923 8.6581 -1.0276 0.9245
-21.5147 7.5322 -1.1946 0.9127
-32.8987 7.2246 -1.7652 0.8738
-45.2187 -1.1315 -2.3705 0.8343
-40.0115 -5.8675 -2.1193 0.8505
-41.9486 -17.0862 -2.3738 0.8341
-41.7171 -23.1918 -2.5014 0.8260
-38.6242 -28.0420 -2.5014 0.8260
-13.6581 -20.7995 -1.3041 0.9051
-9.7699 -19.6973 -1.1523 0.9157
-6.8381 -19.3403 -1.0751 0.9211
-2.0272 -20.4791 -1.0785 0.9209
0.3543 -16.1600 -0.8471 0.9373
6.7793 -47.2463 -2.5014 0.8260
30.4067 -32.9365 -2.3492 0.8356
34.1481 -29.0394 -2.3492 0.8356
42.2158 -15.0734 -2.3492 0.8356
46.5552 -10.5258 -2.5014 0.8260
47.7218 0.8987 -2.5014 0.8260
44.3911 6.2295 -2.3492 0.8356
16.1198 8.8315 -0.9633 0.9290
12.0163 8.6112 -0.7748 0.9425
9.4032 8.6272 -0.6688 0.9502
7.3354 8.5720 -0.5913 0.9558
3.8303 5.7551 -0.3623 0.9727
3.1244 8.6658 -0.4828 0.9638
1.9891 8.6728 -0.4663 0.9650
0.9094 8.6413 -0.4554 0.9658
-0.1360 8.6399 -0.4529 0.9660
-1.1836 8.6282 -0.4564 0.9657
-3.4523 8.7063 -0.4908 0.9632
-17.1090 8.6849 -1.0056 0.9260
-45.1211 4.8896 -2.3785 0.8338
-39.4813 -5.2918 -2.0876 0.8525
-41.7205 -16.3945 -2.3492 0.8356
-42.0008 -22.6740 -2.5014 0.8260
-38.9681 -27.5621 -2.5014 0.8260
-29.3551 -33.8771 -2.3492 0.8356
-4.5310 -19.2100 -1.0344 0.9240
-2.2606 -20.2748 -1.0691 0.9215
5.8175 -44.4470 -2.3492 0.8356
11.8428 -46.2377 -2.5014 0.8260
17.3192 -44.4772 -2.5014 0.8260
25.7719 -36.6768 -2.3492 0.8356
35.6453 -24.2036 -2.2580 0.8415
39.8449 -20.5369 -2.3492 0.8356
42.0261 -15.5944 -2.3492 0.8356
46.4214 -11.1009 -2.5014 0.8260
47.7293 0.3083 -2.5014 0.8260
33.5355 8.4789 -1.8128 0.8706
16.3561 8.6996 -0.9709 0.9285
12.3330 8.6092 -0.7882 0.9415
9.6383 8.6258 -0.6779 0.9495
7.5290 8.5811 -0.5983 0.9553
-4.4773 -19.2502 -1.7291 0.9237
3.5676 -26.6138 -2.3492 0.8978
10.4574 -26.6104 -2.5014 0.8915
27.8281 -6.5631 -2.5014 0.8915
28.4155 -3.1677 -2.5014 0.8915
28.5902 0.2737 -2.5014 0.8915
28.3497 3.7111 -2.5014 0.8915
26.0121 6.6630 -2.3492 0.8978
25.0216 9.7438 -2.3492 0.8978
9.5786 8.6262 -1.1278 0.9496
3.2152 8.6653 -0.8086 0.9636
-0.0560 8.6436 -0.7562 0.9659
-1.1000 8.6099 -0.7594 0.9657
-2.1646 8.5606 -0.7725 0.9652
-4.6348 8.7135 -0.8635 0.9611
-6.0891 8.7225 -0.9307 0.9582
-16.4965 8.5669 -1.6263 0.9281
-21.2329 7.9532 -1.9837 0.9130
-26.1629 6.3415 -2.3552 0.8975
-26.8517 -0.0909 -2.3492 0.8978
-27.4970 -3.4267 -2.4243 0.8947
-26.7063 -10.2101 -2.5014 0.8915
-21.3639 -19.0016 -2.5014 0.8915
-17.7715 -20.1296 -2.3492 0.8978
6.8374 -27.7620 -2.5014 0.8915
10.1275 -26.7378 -2.5014 0.8915
16.2208 -23.5449 -2.5014 0.8915
18.9354 -21.4225 -2.5014 0.8915
21.3751 -18.9890 -2.5014 0.8915
25.2920 -13.3339 -2.5014 0.8915
26.7124 -10.1944 -2.5014 0.8915
28.3742 -3.5190 -2.5014 0.8915
28.3934 3.3601 -2.5014 0.8915
15.5760 3.7851 -1.4024 0.9377
25.1402 9.4336 -2.3492 0.8978
9.8185 8.6247 -1.1434 0.9489
3.3374 8.6645 -0.8123 0.9634
1.4807 5.8706 -0.5297 0.9760
-2.0536 8.5659 -0.7707 0.9652
-3.2232 8.6712 -0.8093 0.9635
-4.4970 8.7127 -0.8578 0.9614
-21.0536 8.1844 -1.9762 0.9133
-20.5567 2.6787 -1.8137 0.9201
-26.8533 -3.0096 -2.3641 0.8972
-23.6944 -16.0016 -2.5014 0.8915
-21.5973 -18.7359 -2.5014 0.8915
-18.0191 -19.9082 -2.3492 0.8978
-15.4016 -21.8016 -2.3353 0.8984
-10.5804 -19.6257 -1.9507 0.9144
-7.5537 -19.2549 -1.8096 0.9203
-3.9176 -15.1366 -1.3679 0.9391
2.9082 -26.6939 -2.3492 0.8978
12.9562 -25.4875 -2.5014 0.8915
15.9283 -23.7437 -2.5014 0.8915
21.1385 -19.2520 -2.5014 0.8915
23.3010 -16.5692 -2.5014 0.8915
25.1251 -13.6457 -2.5014 0.8915
26.5842 -10.5240 -2.5014 0.8915
28.5882 -0.4337 -2.5014 0.8915
26.1689 6.0174 -2.3492 0.8978
17.2854 8.7196 -1.6938 0.9252
12.9143 8.6057 -1.3577 0.9396
6.0985 8.5204 -0.9167 0.9588
9.7952 17.9032 -1.7854 0.9213
3.4608 8.6638 -0.8162 0.9632
0.1580 8.6537 -0.7572 0.9658
-0.8840 8.6087 -0.7571 0.9658
-7.9643 22.2655 -2.0688 0.9094
-4.3609 8.7118 -0.8523 0.9616
-7.4331 8.7307 -1.0032 0.9550
-11.9982 8.6441 -1.2938 0.9424
-21.0813 8.4968 -1.9885 0.9128
-20.7505 2.9654 -1.8339 0.9193
-26.8458 0.5734 -2.3492 0.8978
-26.7198 -2.6603 -2.3492 0.8978
-27.9035 -6.2348 -2.5014 0.8915
-26.9508 -9.5463 -2.5014 0.8915
-25.6066 -12.7192 -2.5014 0.8915
-21.8274 -18.4672 -2.5014 0.8915
-15.7634 -21.7380 -2.3492 0.8978
-2.9276 -20.0428 -1.7721 0.9219
2.4767 -25.6808 -2.2572 0.9016
5.6692 -25.7459 -2.3064 0.8996
9.4629 -26.9801 -2.5014 0.8915
12.6399 -25.6458 -2.5014 0.8915
20.8988 -19.5120 -2.5014 0.8915
27.5654 -7.5911 -2.5014 0.8915
25.3659 8.8088 -2.3492 0.8978
24.1642 11.8170 -2.3533 0.8976
13.2638 8.6035 -1.3832 0.9385
8.0848 8.6059 -1.0330 0.9537
4.8607 8.6288 -0.8665 0.9610
3.5854 8.6630 -0.8203 0.9631
1.3223 8.6769 -0.7679 0.9654
0.2653 8.6587 -0.7579 0.9658
-1.8330 8.5766 -0.7673 0.9654
-2.9339 8.5337 -0.7895 0.9644
-5.6177 8.7196 -0.9075 0.9592
-7.2479 8.7296 -0.9927 0.9555
-11.7153 8.6624 -1.2747 0.9432
-14.6669 8.3218 -1.4753 0.9345
-25.7990 7.2766 -2.3452 0.8980
-26.5328 4.1273 -2.3492 0.8978
-27.0668 -9.2122 -2.5014 0.8915
-25.7620 -12.4015 -2.5014 0.8915
-24.0830 -15.4106 -2.5014 0.8915
-19.6775 -20.6879 -2.4979 0.8917
-8.1352 -19.3174 -1.8338 0.9193
2.0357 -24.2432 -2.1285 0.9069
5.3377 -25.7533 -2.3010 0.8998
18.1275 -22.1104 -2.5014 0.8915
22.8840 -17.1405 -2.5014 0.8915
24.7798 -14.2631 -2.5014 0.8915
27.4694 -7.9315 -2.5014 0.8915
28.2241 -4.5693 -2.5014 0.8915
26.3098 5.3682 -2.3492 0.8978
24.2968 11.5116 -2.3522 0.8977
13.6266 8.6013 -1.4098 0.9373
10.5805 8.6200 -1.1940 0.9467
4.9139 8.4764 -0.8572 0.9614
2.5323 8.6695 -0.7902 0.9644
-0.6698 8.6148 -0.7560 0.9659
-2.8163 8.5335 -0.7862 0.9646
-4.0939 8.7102 -0.8420 0.9621
-16.5822 20.4826 -2.3056 0.8996
-14.3955 8.4049 -1.4584 0.9353
-18.8073 8.1267 -1.7925 0.9210
-24.0233 7.0978 -2.1916 0.9043
-26.4865 4.4564 -2.3498 0.8978
-26.8234 1.2373 -2.3492 0.8978
-26.7774 -1.9986 -2.3492 0.8978
-25.9134 -12.0818 -2.5014 0.8915
-22.2776 -17.9216 -2.5014 0.8915
-19.9598 -20.4715 -2.5014 0.8915
-16.2963 -21.3413 -2.3492 0.8978
-8.4345 -19.3551 -1.8471 0.9187
-5.7336 -19.1876 -1.7520 0.9227
-1.0203 -20.7268 -1.8156 0.9201
5.1239 -26.3585 -2.3492 0.8978
8.7926 -27.2060 -2.5014 0.8915
12.0016 -25.9506 -2.5014 0.8915
17.8526 -22.3329 -2.5014 0.8915
22.6702 -17.4223 -2.5014 0.8915
26.1754 -11.5031 -2.5014 0.8915
28.5525 -1.4940 -2.5014 0.8915
28.5248 1.9517 -2.5014 0.8915
26.3742 5.0424 -2.3492 0.8978
25.5761 8.1786 -2.3492 0.8978
24.4255 11.2047 -2.3511 0.8977
14.0038 8.5990 -1.4377 0.9361
10.8498 8.6183 -1.2123 0.9459
5.0540 8.4747 -0.8633 0.9612
3.8384 8.6614 -0.8289 0.9627
2.6489 8.6688 -0.7930 0.9643
1.5425 8.6756 -0.7709 0.9652
0.4805 8.6688 -0.7596 0.9657
-0.5630 8.6198 -0.7557 0.9659
-2.7000 8.5345 -0.7831 0.9647
-3.9627 8.7094 -0.8371 0.9623
-5.3160 8.7177 -0.8933 0.9598
-6.8885 8.7274 -0.9727 0.9563
-8.7983 8.7391 -1.0849 0.9514
-11.2094 8.7253 -1.2428 0.9446
-20.7815 3.7614 -1.8477 0.9187
-26.8060 1.5691 -2.3492 0.8978
-26.8001 -1.6671 -2.3492 0.8978
-28.1156 -5.1952 -2.5014 0.8915
-27.2864 -8.5398 -2.5014 0.8915
-26.0609 -11.7604 -2.5014 0.8915
-24.4568 -14.8101 -2.5014 0.8915
-22.4975 -17.6447 -2.5014 0.8915
-20.2115 -20.2230 -2.5014 0.8915
-16.5591 -21.1381 -2.3492 0.8978
-8.7382 -19.3934 -1.8610 0.9181
-6.0115 -19.2465 -1.7641 0.9222
-1.2761 -20.7044 -1.8148 0.9201
11.6797 -26.0971 -2.5014 0.8915
14.7344 -24.5025 -2.5014 0.8915
17.5750 -22.5520 -2.5014 0.8915
24.4194 -14.8718 -2.5014 0.8915
26.0311 -11.8261 -2.5014 0.8915
28.1024 -5.2661 -2.5014 0.8915
28.5318 -1.8471 -2.5014 0.8915
28.5468 1.5987 -2.5014 0.8915
26.4345 4.7158 -2.3492 0.8978
25.6753 7.8616 -2.3492 0.8978
24.5502 10.8964 -2.3499 0.8978
11.1276 8.6166 -1.2313 0.9451
6.7824 8.5484 -0.9547 0.9571
2.7664 8.6680 -0.7960 0.9641
1.6534 8.6749 -0.7726 0.9652
-0.4562 8.6248 -0.7556 0.9659
-1.5054 8.5924 -0.7632 0.9656
-3.8330 8.7086 -0.8324 0.9625
-5.1686 8.7168 -0.8866 0.9601
-10.9147 8.7149 -1.2220 0.9455
-18.0843 8.3511 -1.7427 0.9231
-26.3896 5.1144 -2.3517 0.8977
-21.0122 1.4909 -1.8429 0.9189
-27.3899 -8.2016 -2.5014 0.8915
-24.6381 -14.5065 -2.5014 0.8915
-22.7141 -17.3651 -2.5014 0.8915
-20.4601 -19.9715 -2.5014 0.8915
-16.8193 -20.9317 -2.3492 0.8978
-9.0466 -19.4323 -1.8753 0.9175
-3.8783 -19.6853 -1.7553 0.9226
1.0184 -21.8080 -1.9100 0.9161
4.4702 -26.4772 -2.3492 0.8978
8.1169 -27.4151 -2.5014 0.8915
17.2947 -22.7677 -2.5014 0.8915
25.8828 -12.1472 -2.5014 0.8915
28.5068 -2.1999 -2.5014 0.8915
28.5644 1.2455 -2.5014 0.8915
26.5615 4.4001 -2.3555 0.8975
14.8051 8.5940 -1.4977 0.9336
11.4142 8.6149 -1.2511 0.9442
5.3507 8.4876 -0.8778 0.9605
4.0969 8.6599 -0.8381 0.9623
2.8847 8.6673 -0.7992 0.9640
1.7647 8.6742 -0.7744 0.9651
-2.4727 8.5456 -0.7783 0.9649
-3.7048 8.7078 -0.8279 0.9627
-8.3709 8.7365 -1.0586 0.9526
-17.7372 8.4585 -1.7192 0.9241
-26.8331 -1.0037 -2.3492 0.8978
-27.4893 -7.8622 -2.5014 0.8915
-24.8158 -14.2005 -2.5014 0.8915
-22.9271 -17.0828 -2.5014 0.8915
-6.5609 -19.3132 -1.7845 0.9214
-1.7811 -20.5880 -1.8079 0.9204
0.7432 -21.6621 -1.8963 0.9166
14.1237 -24.8595 -2.5014 0.8915
17.0118 -22.9799 -2.5014 0.8915
22.0082 -18.2514 -2.5014 0.8915
27.0434 -9.2805 -2.5014 0.8915
27.9635 -5.9598 -2.5014 0.8915
28.5776 0.8919 -2.5014 0.8915
24.8050 10.2827 -2.3492 0.8978
15.1951 8.5709 -1.5263 0.9323
7.1462 8.5631 -0.9758 0.9562
5.5029 8.4943 -0.8855 0.9602
4.2284 8.6590 -0.8431 0.9620
-1.2888 8.6029 -0.7610 0.9657
-2.3601 8.5511 -0.7761 0.9650
-4.8803 8.7150 -0.8739 0.9607
-8.1649 8.7352 -1.0461 0.9531
-13.1387 8.5696 -1.3724 0.9390
-17.2981 8.5133 -1.6867 0.9255
-26.2760 5.7702 -2.3536 0.8976
