ply
format ascii 1.0
element vertex 1572
property float32 x
property float32 y
property float32 z
property float32 I
end_header
11.9259 8.6117 1.8062 0.9424
7.3401 8.6399 1.3920 0.9553
5.7125 8.6499 1.2728 0.9591
2.8581 5.7241 0.7856 0.9745
3.0900 8.6660 1.1297 0.9636
-1.2232 8.6925 1.0778 0.9652
-2.3177 8.6993 1.1054 0.9644
-13.1788 8.7660 1.9434 0.9382
-80.2455 28.9112 10.4729 0.7091
-64.1272 -34.8855 8.9635 0.7451
-17.0786 -33.6480 4.6332 0.8589
-7.8364 -33.6914 4.2472 0.8699
25.2756 -46.8294 6.5340 0.8070
48.6773 -42.1909 7.9094 0.7714
62.6560 -42.2755 9.2806 0.7374
59.6312 -30.5147 8.2248 0.7634
64.1486 -23.5912 8.3922 0.7592
64.2530 0.5991 7.8896 0.7719
60.2810 15.4230 7.6400 0.7782
49.1615 19.1276 6.4771 0.8085
36.7960 19.7037 5.1250 0.8452
7.5376 8.6387 1.4077 0.9548
2.9546 5.7271 0.7913 0.9744
2.0775 8.6723 1.0949 0.9647
0.9986 8.6789 1.0727 0.9654
-1.1063 8.6918 1.0758 0.9653
-4.6290 8.7135 1.2115 0.9610
-7.8072 8.7330 1.4383 0.9539
-21.5864 2.5559 2.6690 0.9161
-63.7807 -33.6138 8.8523 0.7479
-17.5634 -33.5001 4.6443 0.8586
-11.9788 -31.6033 4.1498 0.8727
-4.1047 -33.7142 4.1702 0.8721
24.3676 -46.6086 6.4578 0.8090
27.2604 -39.6499 5.9080 0.8237
37.2099 -42.1793 6.9062 0.7972
47.5264 -42.3047 7.8125 0.7738
59.5752 -31.4852 8.2736 0.7622
37.5659 -14.3808 4.9389 0.8504
64.0691 -16.0206 8.1089 0.7663
66.6376 -0.2583 8.1821 0.7645
59.9052 14.4872 7.5675 0.7801
12.6084 8.6075 1.8745 0.9403
9.8416 8.6245 1.6067 0.9486
7.7365 8.6339 1.4234 0.9544
3.3497 8.6644 1.1406 0.9633
1.1147 8.6782 1.0743 0.9654
0.0623 8.6847 1.0664 0.9656
-9.6944 8.7446 1.6030 0.9487
-80.2413 43.0868 11.1829 0.6928
-21.5120 2.8354 2.6642 0.9163
-35.2289 -8.2738 4.4433 0.8643
-17.8088 -32.9046 4.5940 0.8600
-9.9894 -25.3405 3.3444 0.8960
-4.5566 -33.7115 4.1769 0.8719
26.7647 -40.0508 5.9146 0.8236
36.2263 -42.1735 6.8264 0.7993
46.3732 -42.3883 7.7142 0.7763
59.5690 -32.4948 8.3316 0.7607
66.5824 -9.2233 8.2534 0.7627
64.2904 6.6781 7.9363 0.7707
39.2220 19.6888 5.3886 0.8379
3.4815 8.6636 1.1464 0.9631
2.3208 8.6708 1.1021 0.9645
0.1769 8.6839 1.0665 0.9656
-1.9520 8.6970 1.0944 0.9647
-3.0922 8.7040 1.1342 0.9635
-9.4391 8.7430 1.5798 0.9495
-50.4482 -24.9088 6.9082 0.7971
-81.3459 -53.2036 11.9346 0.6759
-23.8337 -32.6983 4.9682 0.8495
-13.7884 -33.6682 4.4672 0.8636
-9.2540 -33.6827 4.2890 0.8687
-5.0101 -33.7087 4.1844 0.8717
-2.2722 -84.2210 10.3448 0.7121
27.3598 -78.6543 10.2251 0.7149
23.5144 -48.0228 6.5654 0.8061
25.2268 -38.8498 5.6876 0.8297
24.5316 -29.3334 4.6952 0.8572
64.0044 -17.8120 8.1574 0.7651
66.6763 6.0376 8.2203 0.7635
34.8282 22.4524 5.0880 0.8462
8.1584 8.6349 1.4586 0.9533
4.9082 8.6549 1.2217 0.9607
3.6112 8.6543 1.1514 0.9629
2.4437 8.6700 1.1060 0.9643
0.2916 8.6832 1.0668 0.9656
-12.1222 25.1763 3.4309 0.8935
-7.2029 8.7293 1.3896 0.9554
-11.7681 8.7574 1.8011 0.9426
-79.9806 45.7068 11.3109 0.6899
-14.3089 -33.6650 4.4914 0.8629
-9.1127 -31.5331 4.0301 0.8761
-0.6321 -15.7260 1.9325 0.9385
26.9054 -80.7672 10.4527 0.7096
23.1506 -48.9037 6.6434 0.8041
43.7637 -42.1764 7.4627 0.7827
59.6062 -34.5869 8.4616 0.7575
84.5366 -24.7328 10.8149 0.7012
66.5714 -11.0198 8.2852 0.7619
64.0968 -2.7881 7.8775 0.7722
66.6708 5.1508 8.2105 0.7638
66.7213 13.3643 8.3551 0.7602
15.3097 9.5859 2.2179 0.9298
6.5670 8.6447 1.3330 0.9572
5.0598 8.6539 1.2309 0.9604
-0.6425 8.6890 1.0698 0.9655
-1.7119 8.6955 1.0882 0.9649
-4.0472 8.6974 1.1779 0.9621
-5.4189 8.7183 1.2604 0.9595
-7.0104 8.7281 1.3746 0.9559
-8.9500 8.7400 1.5360 0.9508
-66.8989 -30.8625 9.0461 0.7431
-24.6884 -32.0579 4.9682 0.8495
-18.7370 -31.5669 4.5073 0.8625
-10.2158 -33.6768 4.3211 0.8678
-2.1584 -40.4050 4.9682 0.8495
24.2251 -39.5551 5.6952 0.8295
32.5880 -41.1257 6.4427 0.8094
64.0467 -19.6593 8.2261 0.7634
66.5658 -11.9237 8.3033 0.7614
64.2750 4.1133 7.9081 0.7714
64.1877 11.9777 8.0173 0.7686
60.0324 18.9037 7.7279 0.7760
44.4612 20.1565 5.9939 0.8214
16.1145 9.7961 2.3155 0.9268
10.9495 8.6177 1.7109 0.9454
8.5983 8.6322 1.4960 0.9521
6.7479 8.6436 1.3464 0.9568
5.2137 8.6530 1.2404 0.9601
2.6921 8.6685 1.1145 0.9641
1.5835 8.6753 1.0828 0.9651
0.5213 8.6818 1.0679 0.9656
-0.5272 8.6883 1.0687 0.9655
-3.9137 8.7091 1.1724 0.9623
-5.2600 8.7174 1.2501 0.9598
-6.8219 8.7270 1.3601 0.9563
-8.7154 8.7386 1.5154 0.9515
-25.1093 -31.7293 4.9682 0.8495
-15.3673 -33.6585 4.5431 0.8615
-2.6916 -40.3730 4.9682 0.8495
22.1369 -50.1436 6.7301 0.8018
32.2106 -41.7702 6.4765 0.8085
41.6929 -42.3594 7.2978 0.7870
53.0393 -42.2587 8.3267 0.7609
64.1791 -12.3725 8.0253 0.7684
66.6599 3.3830 8.1953 0.7642
64.3798 11.1365 8.0221 0.7685
44.8109 19.6064 6.0057 0.8211
34.8165 20.5408 4.9635 0.8497
11.2496 8.6159 1.7398 0.9445
8.8268 8.6308 1.5158 0.9515
4.0232 8.6603 1.1725 0.9622
-0.4122 8.6876 1.0679 0.9656
-10.8368 8.7516 1.7103 0.9454
-80.7337 -13.4172 10.0488 0.7191
-15.9058 -33.6552 4.5706 0.8607
-6.8428 -33.6975 4.2220 0.8706
-3.2242 -40.3340 4.9682 0.8495
51.6380 -42.2682 8.1936 0.7642
59.5864 -37.8053 8.6646 0.7525
59.6415 -28.4282 8.1124 0.7662
73.6594 -24.7554 9.5413 0.7311
64.0327 -13.2232 8.0281 0.7684
64.2998 -5.3534 7.9223 0.7710
64.2306 10.2394 7.9861 0.7694
60.1219 17.2015 7.6782 0.7772
34.8126 19.9238 4.9250 0.8507
5.5289 8.6511 1.2606 0.9595
4.1627 8.6595 1.1797 0.9620
0.5098 5.8877 0.7256 0.9765
-1.3565 8.6934 1.0803 0.9652
-3.6398 8.7074 1.1588 0.9627
-10.5467 8.7499 1.6826 0.9463
-57.6628 -16.0869 7.3505 0.7856
-26.3263 -31.5204 5.0426 0.8475
-21.7121 -33.4840 4.9000 0.8514
-10.9727 -31.6094 4.1083 0.8739
-7.3067 -33.6946 4.2333 0.8703
-3.7563 -40.2879 4.9682 0.8495
21.5243 -52.4618 6.9626 0.7957
23.3919 -41.8273 5.8843 0.8244
39.3744 -42.1748 7.0844 0.7925
59.6356 -29.3976 8.1637 0.7649
64.1295 -6.1926 7.9107 0.7713
66.6990 9.7321 8.2763 0.7621
60.1167 16.3445 7.6493 0.7780
35.5208 19.7115 4.9879 0.8490
9.3028 8.6279 1.5579 0.9502
5.6904 8.6501 1.2713 0.9591
3.0725 8.6661 1.1290 0.9636
-1.2391 8.6926 1.0781 0.9652
-2.3344 8.6994 1.1059 0.9644
-13.2305 8.7663 1.9487 0.9380
-79.2956 8.1857 9.7880 0.7252
34.3470 25.4984 3.7425 0.8422
9.0939 8.6292 1.0968 0.9509
5.5506 8.6509 0.8993 0.9596
2.9619 8.6668 0.8013 0.9639
-2.4413 8.7000 0.7906 0.9644
-4.9292 8.7153 0.8760 0.9606
-6.4324 8.7246 0.9483 0.9574
-8.2346 8.7356 1.0503 0.9529
-10.5081 8.7496 1.1963 0.9466
-18.0621 8.7960 1.7576 0.9225
-51.9468 17.9446 4.8083 0.8020
-57.6837 -15.9816 5.2368 0.7864
-80.7335 -33.2663 7.6394 0.7043
-15.5115 -31.5867 3.0787 0.8682
59.6782 -39.1302 6.2436 0.7509
59.6348 -29.5299 5.8220 0.7655
64.0265 -14.2256 5.7382 0.7685
64.1229 1.4445 5.6114 0.7730
47.3321 19.1388 4.4667 0.8146
11.9259 8.6117 1.2870 0.9426
2.8580 5.7241 0.5597 0.9746
3.0900 8.6660 0.8049 0.9637
-1.2696 66.0385 5.7787 0.7670
-1.2232 8.6925 0.7680 0.9654
-3.4871 8.7065 0.8205 0.9630
-7.9806 8.6932 1.0324 0.9537
-13.1788 8.7660 1.3848 0.9384
-7.3654 -31.6664 2.8444 0.8776
-3.4344 -31.6904 2.7888 0.8799
38.2019 -42.1684 4.9781 0.7958
63.9693 -23.5252 5.9631 0.7606
64.0210 -15.1137 5.7551 0.7679
64.0700 -7.1575 5.6403 0.7719
59.9104 15.3282 5.4103 0.7801
12.2608 8.6097 1.3107 0.9416
7.5376 8.6387 1.0030 0.9550
2.0775 8.6723 0.7802 0.9648
-1.1063 8.6918 0.7666 0.9654
-2.1950 8.6985 0.7849 0.9646
-3.3541 8.7057 0.8162 0.9632
-6.0821 8.7224 0.9303 0.9582
-9.9573 8.7462 1.1595 0.9482
-12.8055 8.7637 1.3576 0.9396
-16.8991 8.7889 1.6665 0.9264
-57.9581 -14.4217 5.2253 0.7868
-23.1723 -33.6207 3.5724 0.8488
-17.5634 -33.5001 3.3093 0.8591
-3.8580 -31.6878 2.7928 0.8797
29.7971 -78.8864 7.3776 0.7128
27.0420 -39.3321 4.1760 0.8256
37.2099 -42.1793 4.9209 0.7978
60.0736 -31.7486 5.9446 0.7612
62.3657 7.3114 5.4937 0.7771
59.9052 14.4872 5.3921 0.7808
38.1692 19.7953 3.7617 0.8414
9.8416 8.6245 1.1449 0.9488
7.7365 8.6339 1.0143 0.9545
6.0449 8.6479 0.9231 0.9585
4.6116 8.6567 0.8581 0.9614
3.3497 8.6644 0.8127 0.9634
2.1988 8.6715 0.7827 0.9647
0.0623 8.6847 0.7598 0.9657
-0.9898 8.6911 0.7653 0.9655
-3.2225 8.7048 0.8121 0.9634
-4.4821 8.7126 0.8572 0.9614
-5.9118 8.7214 0.9218 0.9586
-21.5168 2.8361 1.8987 0.9165
-68.3997 -16.0643 6.1470 0.7542
-23.8300 -33.6167 3.6051 0.8475
-17.8088 -32.9046 3.2734 0.8605
-9.9832 -25.3246 2.3816 0.8965
-7.3764 -28.3059 2.5592 0.8892
-3.3062 -24.4607 2.1595 0.9056
27.9591 -77.0831 7.1738 0.7195
60.0674 -32.7667 5.9863 0.7598
62.9357 -25.0500 5.9263 0.7619
39.2219 19.6887 3.8395 0.8384
10.1058 8.6229 1.1623 0.9481
6.2157 8.6468 0.9317 0.9581
4.7588 8.6558 0.8642 0.9611
3.4815 8.6636 0.8169 0.9632
2.3208 8.6708 0.7853 0.9646
0.1769 8.6839 0.7599 0.9657
-0.8737 8.6904 0.7641 0.9655
-1.9520 8.6970 0.7798 0.9648
-7.3998 8.7305 1.0013 0.9551
-12.0587 8.7288 1.3024 0.9420
-15.7970 8.7530 1.5800 0.9301
-47.4089 -23.4081 4.6258 0.8087
-24.3944 -33.4676 3.6233 0.8468
-17.8025 -31.8805 3.1946 0.8636
-12.9567 -31.6373 2.9910 0.8717
-8.6978 -31.6582 2.8724 0.8765
5.5138 -58.7333 5.1611 0.7891
30.0728 -46.3127 4.8311 0.8011
34.1728 -40.8618 4.6603 0.8074
57.5646 -42.2498 6.2471 0.7507
59.6647 -24.6652 5.6484 0.7716
64.0541 -9.7364 5.6684 0.7709
64.1021 -1.9411 5.6108 0.7730
64.1497 5.8088 5.6353 0.7721
63.9003 13.6788 5.7172 0.7692
13.3450 8.6030 1.3891 0.9382
4.9082 8.6549 0.8705 0.9608
3.6112 8.6543 0.8204 0.9630
2.4437 8.6700 0.7881 0.9645
0.2916 8.6832 0.7601 0.9657
-1.8316 8.6963 0.7775 0.9649
-7.2029 8.7293 0.9901 0.9556
-9.1911 8.7415 1.1097 0.9503
-11.7681 8.7574 1.2834 0.9428
-15.3628 8.7795 1.5481 0.9314
-3.9659 -24.4583 2.1678 0.9053
-0.6493 -16.1526 1.4143 0.9372
28.9626 -86.9427 8.0175 0.6921
24.0985 -50.9060 4.9275 0.7976
25.1626 -39.8943 4.1266 0.8275
33.4167 -41.0465 4.6307 0.8085
42.4987 -40.9573 5.1638 0.7890
64.1930 12.8578 5.7277 0.7688
8.3755 8.6336 1.0524 0.9528
5.0598 8.6539 0.8770 0.9605
28.0736 64.8579 6.1831 0.7529
2.5674 8.6692 0.7910 0.9643
1.4656 8.6760 0.7698 0.9653
0.4064 8.6825 0.7605 0.9657
-0.6425 8.6890 0.7623 0.9656
-1.7119 8.6955 0.7754 0.9650
-2.8353 8.7025 0.8008 0.9639
-5.4189 8.7183 0.8981 0.9596
-7.0104 8.7281 0.9794 0.9560
-8.9500 8.7400 1.0944 0.9510
-11.4469 8.7554 1.2608 0.9438
-14.8979 8.7766 1.5128 0.9329
-20.0792 8.7701 1.9170 0.9158
-25.8792 -33.6041 3.7108 0.8434
-18.7370 -31.5669 3.2116 0.8630
-13.9401 -31.6313 3.0242 0.8704
-9.6017 -31.6527 2.8939 0.8756
-5.5664 -31.6774 2.8139 0.8788
23.0551 -50.4122 4.8498 0.8004
25.2659 -41.2546 4.2324 0.8235
54.5352 -42.2859 6.0375 0.7580
60.0480 -35.9112 6.1213 0.7551
60.1021 -26.7245 5.7546 0.7679
64.0916 -3.6358 5.6163 0.7728
60.0324 18.9037 5.5064 0.7767
8.5983 8.6322 1.0659 0.9523
2.6921 8.6685 0.7941 0.9642
-0.5272 8.6883 0.7615 0.9657
-1.5928 8.6948 0.7734 0.9651
-8.7154 8.7386 1.0798 0.9517
-11.1366 8.7535 1.2393 0.9447
-14.4536 8.7739 1.4793 0.9344
-5.9980 -31.6747 2.8204 0.8786
26.3344 -86.6134 7.9202 0.6952
22.8008 -51.6473 4.9393 0.7972
24.8229 -41.7591 4.2502 0.8228
41.5418 -42.2059 5.1811 0.7884
60.0414 -36.9915 6.1699 0.7534
60.0962 -27.6777 5.7886 0.7667
64.0864 -4.4849 5.6205 0.7726
64.1340 3.2548 5.6182 0.7727
64.1823 11.1023 5.6986 0.7699
60.0271 18.0346 5.4836 0.7775
6.9325 8.6424 0.9693 0.9565
4.0232 8.6603 0.8354 0.9624
2.8179 8.6677 0.7974 0.9641
-0.4122 8.6876 0.7609 0.9657
-3.7760 8.7082 0.8304 0.9626
-5.1037 8.7164 0.8837 0.9603
-8.4869 8.7372 1.0657 0.9523
-10.8368 8.7516 1.2187 0.9456
-14.0285 8.7712 1.4475 0.9357
-18.7811 8.8005 1.8146 0.9201
-14.9299 -31.5902 3.0569 0.8691
-6.4315 -31.6721 2.8275 0.8783
-2.5337 -31.6959 2.7819 0.8801
58.7120 -19.7319 5.4189 0.7798
64.0327 -13.2232 5.7203 0.7691
64.0812 -5.3352 5.6258 0.7724
59.0957 9.4208 5.2355 0.7864
45.3920 19.1508 4.3103 0.8205
15.0140 8.5928 1.5135 0.9329
5.5289 8.6511 0.8982 0.9596
4.1627 8.6595 0.8406 0.9622
2.9447 8.6669 0.8008 0.9639
-0.2965 8.6631 0.7584 0.9658
-1.3565 8.6934 0.7698 0.9653
-2.4581 8.7001 0.7910 0.9643
-10.5467 8.7499 1.1989 0.9465
-80.0808 27.5031 7.4078 0.7118
-57.5772 -16.0630 5.2297 0.7866
-15.4417 -31.5871 3.0761 0.8683
-6.8599 -31.6346 2.8320 0.8781
-2.9550 -31.6934 2.7848 0.8800
23.2502 -41.5740 4.1674 0.8259
39.3912 -42.1929 5.0501 0.7931
59.6356 -29.3976 5.8169 0.7657
64.0272 -14.1055 5.7360 0.7685
59.9163 16.2901 5.4323 0.7793
5.6904 8.6501 0.9059 0.9593
2.8485 5.7306 0.5599 0.9746
-1.3878 66.0392 5.7790 0.7670
-2.3344 8.6994 0.7880 0.9645
-6.2793 8.7236 0.9404 0.9578
-10.2658 8.7481 1.1800 0.9473
-17.5441 8.7929 1.7169 0.9242
15.0749 11.1913 0.9840 0.9276
7.1469 8.6411 0.5877 0.9561
5.5506 8.6509 0.5387 0.9597
2.8104 5.8196 0.3386 0.9744
0.5209 5.8933 0.3101 0.9766
-0.2804 8.6468 0.4534 0.9659
-2.4374 8.6859 0.4728 0.9645
-3.6215 8.7073 0.4942 0.9629
-10.5081 8.7496 0.7166 0.9467
-13.5673 8.7684 0.8466 0.9373
-57.5488 -15.9442 3.1296 0.7873
-26.4511 -31.5548 2.1579 0.8480
-15.0213 -30.5884 1.7859 0.8724
-11.0359 -31.6090 1.7546 0.8745
-3.5000 -36.8276 1.9387 0.8623
22.2927 -54.6127 3.0914 0.7896
23.1733 -41.6109 2.4961 0.8263
30.5746 -42.0481 2.7246 0.8120
59.6782 -39.1302 3.7400 0.7514
59.6348 -29.5299 3.4875 0.7660
53.3012 -18.8071 2.9622 0.7974
67.9754 -15.1029 3.6493 0.7566
31.4553 8.4917 1.7075 0.8777
35.6695 19.7106 2.1358 0.8494
11.9259 8.6117 0.7709 0.9428
9.3361 8.6276 0.6662 0.9504
2.8580 5.7240 0.3353 0.9747
3.0882 8.6611 0.4819 0.9638
1.9535 8.6574 0.4651 0.9651
0.8820 8.6722 0.4568 0.9657
-2.3135 8.6833 0.4709 0.9646
-6.2555 8.7235 0.5626 0.9579
-17.4651 8.7924 1.0248 0.9247
-27.1644 -31.5504 2.1819 0.8464
-15.5241 -30.5854 1.7976 0.8716
-7.7663 -33.3901 1.7966 0.8717
-3.6707 -33.8710 1.7855 0.8724
22.7763 -42.1988 2.5131 0.8252
30.0062 -42.4328 2.7236 0.8121
38.2173 -42.1855 2.9832 0.7961
47.3985 -41.0825 3.2873 0.7778
62.6560 -42.2755 3.9612 0.7388
59.6312 -30.5147 3.5105 0.7647
52.8763 -19.4457 2.9526 0.7980
67.7701 -15.9988 3.6493 0.7566
69.0127 0.6435 3.6170 0.7585
12.2608 8.6097 0.7852 0.9418
7.5376 8.6387 0.6008 0.9551
2.9545 5.7269 0.3377 0.9745
0.9976 8.6709 0.4574 0.9656
-0.0523 8.6799 0.4549 0.9658
-1.1051 8.6826 0.4587 0.9655
-2.1905 8.6808 0.4692 0.9648
-3.3541 8.7057 0.4889 0.9633
-4.6290 8.7135 0.5171 0.9612
-6.0821 8.7224 0.5573 0.9583
-7.8072 8.7330 0.6139 0.9542
-16.8991 8.7889 0.9983 0.9265
-23.5288 8.8296 1.3171 0.9042
-63.8983 -33.6758 3.7854 0.7488
-27.8939 -31.5460 2.2069 0.8448
-21.7454 -31.5504 2.0082 0.8577
-11.9788 -31.6032 1.7712 0.8734
-0.0361 -62.7185 3.2869 0.7779
47.0100 -41.8450 3.2983 0.7772
34.9986 -24.2927 2.2327 0.8431
60.0736 -31.7486 3.5610 0.7617
69.0740 -8.6409 3.6482 0.7567
69.0187 -0.2675 3.6171 0.7585
3.3497 8.6644 0.4868 0.9635
-2.0687 8.6796 0.4676 0.9649
-7.6011 8.7317 0.6067 0.9547
-12.4466 8.7615 0.7977 0.9409
-16.3615 8.7856 0.9733 0.9283
-7.3986 -28.3910 1.5376 0.8891
-3.2795 -24.2625 1.2831 0.9066
-0.8653 -62.8197 3.2926 0.7775
29.0394 -80.0615 4.4633 0.7110
27.2292 -40.7459 2.5683 0.8218
46.2051 -42.2346 3.2807 0.7782
69.0801 -9.5693 3.6549 0.7563
68.9701 7.1642 3.6340 0.7575
59.9001 13.6517 3.2197 0.7819
39.2220 19.6888 2.3000 0.8388
10.1058 8.6229 0.6962 0.9482
6.2157 8.6468 0.5581 0.9582
4.7588 8.6558 0.5177 0.9612
0.1768 8.6785 0.4549 0.9658
-0.8729 8.6825 0.4573 0.9657
-1.9482 8.6802 0.4662 0.9650
-7.3998 8.7305 0.5998 0.9552
-9.4391 8.7430 0.6743 0.9498
-15.7970 8.7530 0.9465 0.9302
-21.7373 8.8186 1.2294 0.9103
-50.2662 -24.8189 2.9380 0.7989
-80.8525 -52.8809 5.0631 0.6791
-22.9900 -31.5409 2.0455 0.8553
-17.0740 -30.5759 1.8353 0.8691
-12.5334 -30.6037 1.7332 0.8759
-9.1712 -33.3814 1.8143 0.8705
29.3256 -84.3055 4.6779 0.6994
24.8489 -50.7482 2.9613 0.7975
26.4578 -40.7456 2.5461 0.8232
34.1727 -40.8618 2.7917 0.8079
43.6505 -40.9701 3.1374 0.7868
67.0837 -18.6689 3.6493 0.7566
68.8422 -10.4642 3.6493 0.7566
69.0307 -2.0904 3.6194 0.7583
34.4767 11.8653 1.9109 0.8641
13.3450 8.6030 0.8321 0.9384
10.3782 8.6212 0.7071 0.9474
6.3896 8.6458 0.5634 0.9579
4.9082 8.6549 0.5214 0.9609
2.4393 8.6544 0.4712 0.9646
0.2914 8.6777 0.4550 0.9658
-0.7573 8.6824 0.4568 0.9657
-1.8283 8.6808 0.4649 0.9651
-2.9613 8.6979 0.4815 0.9639
-7.2029 8.7293 0.5931 0.9557
-9.1911 8.7415 0.6648 0.9505
-11.7681 8.7574 0.7688 0.9429
-15.3628 8.7795 0.9273 0.9316
-20.9279 8.8136 1.1901 0.9131
-13.0065 -30.6008 1.7426 0.8753
-9.1685 -31.7261 1.7308 0.8761
28.0226 -84.1210 4.6468 0.7011
25.8433 -40.9734 2.5388 0.8236
33.2064 -40.7881 2.7564 0.8100
34.2142 -25.8136 2.2462 0.8423
59.6062 -34.5869 3.6116 0.7588
66.8314 -19.5529 3.6493 0.7566
69.0367 -3.0030 3.6215 0.7582
68.9820 5.3294 3.6260 0.7580
68.2768 13.6758 3.6493 0.7566
34.4769 11.3587 1.9024 0.8647
42.9642 20.1657 2.4873 0.8269
8.3755 8.6336 0.6304 0.9530
6.5670 8.6447 0.5689 0.9574
28.5053 65.8553 3.7608 0.7502
1.4638 8.6649 0.4605 0.9654
0.4061 8.6768 0.4552 0.9658
-0.6420 8.6822 0.4563 0.9657
-1.7091 8.6813 0.4637 0.9652
-2.8328 8.6948 0.4793 0.9640
-4.0472 8.6974 0.5027 0.9623
-8.9500 8.7400 0.6556 0.9511
-20.0792 8.7701 1.1483 0.9160
-34.2147 1.7146 1.7954 0.8718
-24.2841 -31.5329 2.0858 0.8526
-13.4847 -30.5979 1.7524 0.8746
-10.1720 -33.5326 1.8364 0.8690
24.6170 -53.8273 3.1020 0.7889
25.8377 -42.1883 2.5927 0.8202
59.9683 -35.8635 3.6619 0.7559
68.5420 -12.2777 3.6493 0.7566
69.0427 -3.9167 3.6242 0.7581
68.9880 4.4149 3.6229 0.7581
44.4612 20.1565 2.5584 0.8224
14.1438 8.5981 0.8675 0.9359
8.5983 8.6322 0.6385 0.9524
3.8674 8.6209 0.4952 0.9629
-0.5269 8.6819 0.4558 0.9658
-5.2600 8.7174 0.5336 0.9600
-8.7154 8.7386 0.6468 0.9518
-19.3041 -31.5653 1.9391 0.8623
-10.6563 -33.5297 1.8438 0.8686
-4.7724 -25.2027 1.3443 0.9024
-2.4609 -36.9116 1.9387 0.8623
5.3376 -98.7331 5.1819 0.6730
23.9909 -54.3431 3.1132 0.7883
26.0486 -43.8211 2.6717 0.8153
32.1235 -41.6573 2.7569 0.8100
41.5419 -42.2060 3.1036 0.7888
53.0393 -42.2587 3.5541 0.7621
59.9617 -36.9424 3.6910 0.7542
60.0962 -27.6777 3.4675 0.7672
57.1507 -18.3714 3.1461 0.7863
69.0487 -4.8322 3.6275 0.7579
68.9940 3.5015 3.6205 0.7583
28.3281 8.5109 1.5502 0.8883
44.8109 19.6064 2.5634 0.8221
11.2496 8.6159 0.7426 0.9448
8.8268 8.6308 0.6470 0.9518
6.9325 8.6424 0.5806 0.9566
4.0232 8.6603 0.5005 0.9625
0.4332 5.9101 0.3106 0.9765
-0.4119 8.6815 0.4555 0.9658
-3.7759 8.7082 0.4974 0.9627
-6.6374 8.7258 0.5746 0.9570
-8.4869 8.7372 0.6384 0.9524
-26.9217 8.8505 1.4852 0.8927
-58.6897 -17.2113 3.2053 0.7827
-25.6313 -31.5247 2.1293 0.8498
-19.8789 -31.5618 1.9548 0.8612
-10.7159 -32.2368 1.7804 0.8728
-4.7366 -23.3252 1.2474 0.9091
-2.9477 -36.8759 1.9387 0.8623
25.2094 -87.0248 4.7483 0.6957
24.3137 -42.1593 2.5506 0.8229
31.5532 -42.0542 2.7553 0.8101
59.8410 -28.5233 3.4742 0.7668
59.9800 -20.1580 3.3162 0.7761
52.8544 8.4258 2.8050 0.8070
29.7173 8.5024 1.6199 0.8835
45.3920 19.1508 2.5819 0.8209
15.0140 8.5928 0.9066 0.9331
11.5098 8.5767 0.7523 0.9441
7.1211 8.6413 0.5868 0.9561
1.8181 8.6596 0.4637 0.9652
-0.2965 8.6631 0.4543 0.9659
-1.3547 8.6823 0.4605 0.9654
-2.4542 8.6863 0.4730 0.9645
-4.9499 8.7154 0.5253 0.9606
-8.2643 8.7358 0.6302 0.9530
-18.1456 8.7966 1.0568 0.9224
-25.7490 8.8433 1.4268 0.8967
-57.5506 -16.0556 3.1313 0.7872
-26.3555 -31.5554 2.1547 0.8482
-20.4634 -31.5582 1.9712 0.8601
-10.9726 -31.6094 1.7535 0.8746
-7.2413 -33.3933 1.7907 0.8721
-3.4343 -36.8338 1.9387 0.8623
24.1954 -87.8455 4.7752 0.6942
30.6904 -42.0488 2.7282 0.8118
48.7028 -40.9511 3.3348 0.7750
59.6356 -29.3976 3.4845 0.7662
53.3520 -18.7179 2.9631 0.7973
68.0023 -14.9812 3.6493 0.7566
69.0059 1.6778 3.6175 0.7584
53.2860 7.7750 2.8222 0.8060
31.2381 8.4930 1.6965 0.8784
1.9373 8.6576 0.4649 0.9651
-1.3667 65.0391 3.4093 0.7706
-2.3302 8.6837 0.4712 0.9646
-3.5052 8.7066 0.4919 0.9631
-6.2793 8.7236 0.5633 0.9579
-10.2658 8.7481 0.7069 0.9474
-13.2305 8.7663 0.8318 0.9384
-17.5441 8.7929 1.0285 0.9244
9.0939 8.6292 0.2188 0.9511
7.1319 8.6230 0.1953 0.9562
2.9619 8.6668 0.1599 0.9640
1.8373 8.6737 0.1548 0.9652
0.5208 5.8920 0.1032 0.9766
-0.2804 8.6468 0.1510 0.9660
-1.3373 8.6722 0.1532 0.9655
-2.4312 8.6641 0.1571 0.9646
-3.6044 8.6662 0.1638 0.9631
-4.9292 8.7153 0.1748 0.9607
-8.2346 8.7356 0.2095 0.9531
-10.5081 8.7496 0.2387 0.9468
-18.0402 8.7854 0.3502 0.9229
-25.5530 8.8271 0.4719 0.8975
-64.3277 -60.2384 1.5383 0.7029
-20.3088 -31.1974 0.6498 0.8616
-17.3593 -35.3494 0.6874 0.8542
-11.0359 -31.6090 0.5844 0.8746
-6.8287 -31.2207 0.5578 0.8800
-3.7930 -39.9099 0.6998 0.8518
35.7053 -87.4711 1.6491 0.6853
30.1500 -54.1385 1.0816 0.7804
31.0771 -42.7392 0.9224 0.8094
36.4735 -39.2080 0.9347 0.8072
37.0869 -24.3174 0.7741 0.8374
54.4334 -19.2066 1.0075 0.7938
90.0919 -20.0168 1.6109 0.6913
31.4553 8.4917 0.5687 0.8778
11.9259 8.6117 0.2568 0.9428
5.6986 8.6288 0.1805 0.9595
2.8580 5.7240 0.1117 0.9747
3.0900 8.6660 0.1606 0.9639
1.9570 8.6730 0.1552 0.9651
0.8827 8.6796 0.1523 0.9657
-7.9806 8.6932 0.2060 0.9539
-10.2284 8.7479 0.2349 0.9476
-13.1593 8.7531 0.2759 0.9387
-24.5094 8.8304 0.4547 0.9010
-63.5661 -34.5804 1.2631 0.7486
-71.9453 -51.2329 1.5417 0.7023
-7.2611 -31.2180 0.5595 0.8797
-3.7611 -34.7049 0.6093 0.8697
34.3625 -87.4628 1.6403 0.6866
30.2237 -55.9969 1.1108 0.7753
30.0964 -42.5603 0.9099 0.8118
34.1938 -29.6374 0.7898 0.8344
36.0309 -24.3109 0.7587 0.8404
33.1493 8.4813 0.5973 0.8721
12.2608 8.6097 0.2615 0.9418
5.8643 8.6299 0.1821 0.9591
2.0775 8.6723 0.1557 0.9650
-1.1036 8.6708 0.1526 0.9656
-2.1892 8.6755 0.1562 0.9648
-3.3382 8.6644 0.1621 0.9635
-7.8072 8.7330 0.2045 0.9542
-23.5288 8.8296 0.4387 0.9043
-55.7514 -13.8726 1.0028 0.7947
-63.9323 -33.6937 1.2614 0.7489
45.7610 -87.5282 1.7240 0.6736
30.0891 -43.7641 0.9270 0.8086
46.1176 -24.3729 0.9105 0.8117
53.7481 20.0994 1.0016 0.7949
37.9786 19.6964 0.7468 0.8427
12.6084 8.6075 0.2665 0.9408
9.8416 8.6245 0.2284 0.9490
3.3497 8.6644 0.1621 0.9635
2.1988 8.6715 0.1562 0.9648
0.0623 8.6847 0.1516 0.9659
-0.9874 8.6700 0.1523 0.9657
-2.0681 8.6769 0.1557 0.9649
-7.6011 8.7317 0.2021 0.9547
-9.6944 8.7446 0.2279 0.9491
-16.3434 8.7758 0.3238 0.9285
-55.7100 -13.0840 0.9989 0.7954
-62.8128 -32.0518 1.2309 0.7542
-22.1072 -31.1864 0.6673 0.8582
-17.8088 -32.9046 0.6531 0.8610
-8.1339 -31.2127 0.5630 0.8789
-4.2221 -31.2366 0.5502 0.8815
30.1573 -45.1276 0.9474 0.8048
33.6564 -39.1817 0.9016 0.8133
34.1832 -31.2458 0.8084 0.8309
44.6636 -24.3639 0.8881 0.8158
50.0545 -19.9230 0.9404 0.8061
93.8485 -24.7876 1.6943 0.6782
90.2599 9.3757 1.5840 0.6956
59.9001 13.6517 1.0724 0.7821
39.2220 19.6888 0.7660 0.8390
6.2022 8.6281 0.1855 0.9584
2.3208 8.6708 0.1567 0.9647
1.2313 8.6775 0.1530 0.9655
-1.9473 8.6761 0.1552 0.9651
-3.0775 8.6625 0.1605 0.9639
-4.3372 8.7117 0.1699 0.9618
-5.7446 8.7203 0.1823 0.9591
-7.3998 8.7305 0.1998 0.9552
-9.4391 8.7430 0.2246 0.9498
-15.7970 8.7530 0.3152 0.9303
-80.7722 -52.8284 1.6847 0.6797
-22.7288 -31.1826 0.6735 0.8570
-17.6311 -31.5737 0.6312 0.8653
-7.7780 -28.3104 0.5125 0.8892
-4.6423 -31.2341 0.5512 0.8813
-1.7975 -66.6247 1.1634 0.7660
31.3799 -90.2112 1.6672 0.6824
42.8498 -87.5109 1.7008 0.6772
34.1878 -32.0884 0.8184 0.8290
34.2306 -25.1238 0.7412 0.8438
50.6914 -20.9557 0.9574 0.8030
90.2525 8.1725 1.5818 0.6959
13.3450 8.6030 0.2771 0.9385
10.3782 8.6212 0.2355 0.9475
6.3758 8.6271 0.1872 0.9580
3.6112 8.6543 0.1637 0.9632
2.4437 8.6700 0.1572 0.9646
1.3482 8.6767 0.1533 0.9655
0.2916 8.6832 0.1517 0.9658
-1.8272 8.6754 0.1548 0.9652
-2.9490 8.6616 0.1597 0.9641
-12.1760 25.2880 0.4899 0.8938
-5.5803 8.7193 0.1807 0.9594
-7.2029 8.7293 0.1975 0.9557
-9.1911 8.7415 0.2214 0.9505
-15.3247 8.7577 0.3081 0.9318
-20.9279 8.8136 0.3964 0.9132
-73.4874 -6.1656 1.2872 0.7445
-23.3624 -31.1787 0.6801 0.8557
-14.9610 -35.1991 0.6676 0.8581
-5.0641 -31.2315 0.5523 0.8811
31.3558 -94.1270 1.7317 0.6724
25.6285 -54.1380 1.0455 0.7869
30.0649 -47.6666 0.9837 0.7982
31.8851 -39.1652 0.8815 0.8171
34.1826 -32.9428 0.8286 0.8270
84.5367 -24.7329 1.5374 0.7030
96.0914 7.4237 1.6823 0.6801
67.4625 13.5127 1.2009 0.7594
34.4793 16.1833 0.6648 0.8587
8.3755 8.6336 0.2100 0.9530
5.0367 8.6145 0.1742 0.9609
1.4656 8.6760 0.1536 0.9654
0.4064 8.6825 0.1517 0.9658
-5.4189 8.7183 0.1792 0.9598
-8.9500 8.7400 0.2184 0.9512
-11.4469 8.7554 0.2515 0.9440
-20.0792 8.7701 0.3825 0.9161
-63.8597 -29.4605 1.2276 0.7548
-24.0083 -31.1748 0.6868 0.8543
-18.7370 -31.5669 0.6408 0.8634
-15.5835 -35.3603 0.6745 0.8568
-2.1630 -40.4907 0.7078 0.8503
40.0138 -87.4940 1.6793 0.6805
30.0563 -49.0765 1.0045 0.7944
34.2220 -26.5353 0.7559 0.8409
40.6989 -24.3396 0.8277 0.8272
27.0530 8.5188 0.4951 0.8927
44.4612 20.1565 0.8521 0.8226
14.1438 8.5981 0.2889 0.9359
10.9495 8.6177 0.2432 0.9458
6.7336 8.6252 0.1910 0.9572
2.6921 8.6685 0.1584 0.9643
1.5835 8.6753 0.1539 0.9653
0.5213 8.6818 0.1518 0.9658
-0.5264 8.6751 0.1517 0.9658
-2.6955 8.6599 0.1583 0.9644
-3.8954 8.6683 0.1659 0.9627
-5.2600 8.7174 0.1777 0.9601
-8.7154 8.7386 0.2154 0.9518
-11.1366 8.7535 0.2472 0.9449
-19.4253 8.7915 0.3722 0.9182
-16.1427 -35.3569 0.6784 0.8560
-9.9164 -31.2017 0.5715 0.8772
-5.9131 -31.2263 0.5547 0.8806
26.0807 -43.8751 0.8909 0.8153
32.5038 -42.1504 0.9291 0.8082
34.1717 -34.7180 0.8503 0.8229
39.4794 -24.3232 0.8094 0.8307
52.9304 -24.3774 1.0172 0.7920
76.6333 -24.6343 1.4050 0.7247
95.8999 -18.4876 1.7048 0.6766
8.8268 8.6308 0.2155 0.9518
5.3458 8.6130 0.1769 0.9603
4.0044 8.6197 0.1659 0.9627
2.8179 8.6677 0.1591 0.9642
0.4331 5.9085 0.1034 0.9766
-0.4118 8.6805 0.1517 0.9658
-1.4708 8.6731 0.1535 0.9654
-3.7582 8.6673 0.1649 0.9629
-5.1037 8.7164 0.1763 0.9604
-8.4869 8.7372 0.2126 0.9524
-10.8368 8.7516 0.2431 0.9458
-18.7500 8.7859 0.3614 0.9205
-26.9217 8.8505 0.4947 0.8928
-57.0974 -43.1351 1.2491 0.7511
-25.3402 -31.1666 0.7011 0.8515
-21.0920 -33.4878 0.6908 0.8536
-16.7084 -35.3534 0.6825 0.8552
-10.7159 -32.2369 0.5930 0.8729
-6.3405 -31.2237 0.5561 0.8803
33.9486 -79.7314 1.5126 0.7070
31.6484 -42.1811 0.9205 0.8098
34.1660 -35.6413 0.8618 0.8208
38.3216 -24.3136 0.7922 0.8340
73.2369 -24.6134 1.3486 0.7341
50.3967 8.0340 0.8908 0.8153
29.7173 8.5024 0.5395 0.8837
47.7283 20.1364 0.9042 0.8128
15.3109 8.7627 0.3079 0.9319
4.1432 8.6190 0.1669 0.9625
-2.4477 8.6633 0.1571 0.9646
-3.6227 8.6664 0.1640 0.9631
-4.9499 8.7154 0.1750 0.9607
-10.5467 8.7499 0.2392 0.9467
-18.1154 8.7819 0.3514 0.9226
-25.7124 8.8307 0.4745 0.8969
-80.1468 -2.4781 1.3996 0.7256
-57.3067 -15.9875 1.0385 0.7882
-73.7790 -30.5551 1.3939 0.7265
-20.2298 -31.1979 0.6490 0.8618
-17.2812 -35.3499 0.6868 0.8543
-10.9726 -31.6094 0.5840 0.8747
36.6057 -39.2092 0.9363 0.8069
54.4341 -19.0975 1.0069 0.7939
31.2381 8.4930 0.5651 0.8785
49.5173 20.1254 0.9330 0.8075
15.4244 8.5594 0.3079 0.9319
9.3028 8.6279 0.2215 0.9505
5.6757 8.6277 0.1803 0.9595
3.0725 8.6661 0.1605 0.9639
1.9408 8.6731 0.1551 0.9651
0.8671 8.6797 0.1523 0.9657
-1.2361 8.6716 0.1529 0.9656
-2.3263 8.6690 0.1567 0.9647
-3.4886 8.6654 0.1631 0.9633
-10.2658 8.7481 0.2354 0.9475
-55.7987 -14.7758 1.0075 0.7938
14.6525 10.8777 -0.3185 0.9296
9.0939 8.6292 -0.2188 0.9511
7.1259 8.6158 -0.1952 0.9563
5.5155 8.5962 -0.1783 0.9600
2.8102 5.8192 -0.1127 0.9745
2.9619 8.6668 -0.1599 0.9640
1.8373 8.6737 -0.1548 0.9652
0.5206 5.8907 -0.1032 0.9766
-0.2804 8.6468 -0.1510 0.9660
-1.3341 8.6518 -0.1528 0.9656
-2.4254 8.6434 -0.1567 0.9647
-3.5861 8.6221 -0.1630 0.9633
-8.2346 8.7356 -0.2095 0.9531
-10.5081 8.7496 -0.2387 0.9468
-13.4893 8.7180 -0.2803 0.9378
-17.9488 8.7409 -0.3485 0.9232
-54.9204 5.0368 -0.9627 0.8020
-87.3427 -2.5443 -1.5252 0.7050
-73.1486 -11.0328 -1.2912 0.7438
-57.4524 -15.9175 -1.0406 0.7878
-73.4141 -30.2503 -1.3860 0.7279
-61.5859 -45.0926 -1.3323 0.7369
-13.5163 -20.7632 -0.4324 0.9056
-9.7457 -19.8456 -0.3859 0.9153
-6.7264 -19.2659 -0.3562 0.9216
-4.4273 -20.2418 -0.3617 0.9204
-2.0179 -21.2326 -0.3723 0.9182
0.6158 -23.8439 -0.4163 0.9090
30.0265 -53.9167 -1.0772 0.7812
25.6827 -35.3205 -0.7623 0.8397
34.2076 -28.8675 -0.7813 0.8360
49.1882 -24.3570 -0.9581 0.8028
35.6696 19.7106 -0.7113 0.8496
7.3276 8.6252 -0.1975 0.9557
5.6822 8.6040 -0.1800 0.9596
2.8580 5.7239 -0.1117 0.9747
3.0900 8.6660 -0.1606 0.9639
0.8827 8.6796 -0.1523 0.9657
-1.2174 8.6511 -0.1525 0.9657
-3.4530 8.6214 -0.1621 0.9635
-6.2555 8.7235 -0.1874 0.9580
-7.9806 8.6932 -0.2060 0.9539
-10.2284 8.7479 -0.2349 0.9476
-24.5243 8.8358 -0.4550 0.9010
-80.0500 18.3409 -1.4335 0.7200
-87.3354 -1.3908 -1.5246 0.7051
-55.5603 -14.6065 -1.0028 0.7947
-73.3365 -29.0921 -1.3771 0.7293
-22.4548 -26.0804 -0.6007 0.8714
-10.1145 -19.9275 -0.3901 0.9145
-7.0863 -19.4670 -0.3616 0.9205
-2.2956 -21.1828 -0.3719 0.9183
29.3279 -41.4735 -0.8866 0.8161
34.2028 -29.6452 -0.7901 0.8344
33.1493 8.4813 -0.5973 0.8721
51.2461 19.9386 -0.9598 0.8025
36.7961 19.7037 -0.7286 0.8462
9.5852 8.6261 -0.2251 0.9497
7.5343 8.6349 -0.2000 0.9552
-4.6290 8.7135 -0.1722 0.9613
-9.9573 8.7462 -0.2313 0.9484
-23.5288 8.8296 -0.4387 0.9043
-87.1933 21.1927 -1.5663 0.6984
-61.0763 -42.2893 -1.2967 0.7429
-57.6292 -51.1788 -1.3453 0.7347
-14.3174 -20.7732 -0.4404 0.9040
-10.3992 -19.8353 -0.3909 0.9143
-9.6836 -25.5478 -0.4769 0.8965
31.7245 -83.9892 -1.5671 0.6982
45.7634 -87.5329 -1.7241 0.6736
34.3827 -38.9745 -0.9072 0.8123
12.6084 8.6075 -0.2665 0.9408
3.3497 8.6644 -0.1621 0.9635
-3.1911 8.6200 -0.1604 0.9639
-5.9118 8.7214 -0.1839 0.9587
-7.6011 8.7317 -0.2021 0.9547
-9.6944 8.7446 -0.2279 0.9491
-12.4200 8.7428 -0.2651 0.9410
-16.3396 8.7738 -0.3237 0.9285
-22.6023 8.8239 -0.4235 0.9075
-51.2523 13.1758 -0.9237 0.8092
-21.5646 2.8424 -0.3797 0.9167
-87.3209 0.9146 -1.5243 0.7051
-73.2078 -8.0932 -1.2856 0.7448
-56.2248 -13.2049 -1.0081 0.7937
-73.3374 -26.8747 -1.3633 0.7316
-62.5386 -31.9119 -1.2255 0.7551
-60.9644 -41.0321 -1.2827 0.7453
-5.1297 -19.6846 -0.3551 0.9218
-0.3082 -22.3737 -0.3906 0.9144
31.6854 -87.3564 -1.6220 0.6895
32.5870 -64.3858 -1.2596 0.7492
24.5022 -36.6652 -0.7697 0.8383
33.4711 -38.9660 -0.8966 0.8142
44.6636 -24.3639 -0.8881 0.8158
51.6127 -20.5432 -0.9696 0.8007
59.9001 13.6517 -1.0724 0.7821
54.6986 19.6359 -1.0144 0.7925
39.2220 19.6888 -0.7660 0.8390
10.1058 8.6229 -0.2319 0.9482
7.9466 8.6362 -0.2049 0.9541
3.4815 8.6636 -0.1630 0.9633
1.2313 8.6775 -0.1530 0.9655
0.1769 8.6839 -0.1516 0.9658
-0.8706 8.6590 -0.1519 0.9658
-3.0621 8.6193 -0.1597 0.9641
-7.3998 8.7305 -0.1998 0.9552
-21.7373 8.8186 -0.4095 0.9104
-38.1988 -8.4411 -0.6828 0.8551
-73.3385 -25.7824 -1.3569 0.7327
-50.0912 -24.7325 -0.9751 0.7997
-15.6602 -21.4848 -0.4641 0.8991
-11.2826 -20.2048 -0.4039 0.9116
-7.9611 -19.4395 -0.3667 0.9194
-5.3529 -19.4834 -0.3527 0.9223
-2.2722 -84.2211 -1.4706 0.7139
34.2306 -25.1238 -0.7412 0.8438
43.2792 -24.3554 -0.8668 0.8198
56.8932 19.5800 -1.0502 0.7861
10.3782 8.6212 -0.2355 0.9475
6.3575 8.6023 -0.1867 0.9581
4.8595 8.5690 -0.1719 0.9614
3.6112 8.6543 -0.1637 0.9632
2.4437 8.6700 -0.1572 0.9646
1.3482 8.6767 -0.1533 0.9655
-5.5803 8.7193 -0.1807 0.9594
-15.1786 8.6742 -0.3052 0.9324
-20.9279 8.8136 -0.3964 0.9132
-50.1470 14.3129 -0.9103 0.8117
-53.4693 8.4890 -0.9450 0.8053
-73.1926 -6.1409 -1.2821 0.7454
-11.6512 -20.2328 -0.4075 0.9108
-5.6148 -19.4292 -0.3530 0.9223
-0.6492 -16.1512 -0.2821 0.9374
30.7535 -92.3187 -1.6985 0.6775
29.4512 -46.6936 -0.9636 0.8018
31.7096 -38.9496 -0.8767 0.8180
34.1826 -32.9428 -0.8286 0.8270
59.8585 -25.6755 -1.1369 0.7706
84.5368 -24.7329 -1.5374 0.7030
88.8898 -14.7143 -1.5727 0.6974
97.3761 7.5230 -1.7048 0.6766
59.3844 19.5647 -1.0914 0.7787
13.7361 8.6006 -0.2829 0.9372
10.6593 8.6195 -0.2393 0.9466
-0.6410 8.6697 -0.1517 0.9658
-1.7037 8.6540 -0.1540 0.9653
-2.8101 8.6250 -0.1583 0.9644
-5.4189 8.7183 -0.1792 0.9598
-7.0104 8.7281 -0.1954 0.9562
-8.9500 8.7400 -0.2184 0.9512
-11.4469 8.7554 -0.2515 0.9440
-14.7369 8.6817 -0.2986 0.9339
-27.2160 8.1578 -0.4959 0.8926
-34.2313 1.7155 -0.5983 0.8719
-87.3655 -6.1702 -1.5288 0.7044
-47.2067 -9.1318 -0.8393 0.8250
-73.3616 -23.6340 -1.3453 0.7347
-17.2620 -22.4148 -0.4938 0.8930
-12.0013 -20.2191 -0.4104 0.9102
-8.5841 -19.4782 -0.3715 0.9184
-5.9167 -19.5047 -0.3558 0.9217
40.0154 -87.4976 -1.6794 0.6805
82.5817 -25.3486 -1.5078 0.7078
51.7982 9.6658 -0.9197 0.8099
40.4998 18.3606 -0.7762 0.8370
10.9495 8.6177 -0.2432 0.9458
6.7138 8.5998 -0.1904 0.9573
5.1697 8.5800 -0.1748 0.9607
3.8674 8.6209 -0.1649 0.9629
2.6921 8.6685 -0.1584 0.9643
1.5835 8.6753 -0.1539 0.9653
0.5213 8.6818 -0.1518 0.9658
-0.5264 8.6751 -0.1517 0.9658
-5.2600 8.7174 -0.1777 0.9601
-8.7154 8.7386 -0.2154 0.9518
-11.1366 8.7535 -0.2472 0.9449
-14.3339 8.7012 -0.2927 0.9351
-27.9363 8.7773 -0.5111 0.8895
-87.2246 16.2193 -1.5486 0.7012
-87.3582 -5.0117 -1.5273 0.7046
-73.2191 -13.1638 -1.2985 0.7426
-57.6481 -17.7355 -1.0528 0.7856
-73.2399 -32.6223 -1.3995 0.7256
-59.6705 -35.7372 -1.2141 0.7571
-62.0295 -48.1604 -1.3708 0.7304
-18.1469 -22.9313 -0.5104 0.8896
-8.9706 -19.6482 -0.3770 0.9172
-10.6563 -33.5297 -0.6141 0.8687
26.8141 -88.1913 -1.6090 0.6916
37.4815 -84.9014 -1.6199 0.6898
25.6770 -33.2975 -0.7339 0.8452
52.9304 -24.3774 -1.0172 0.7920
77.5307 -24.9227 -1.4215 0.7219
97.2020 -18.7386 -1.7279 0.6730
70.9846 3.6025 -1.2406 0.7525
28.0379 8.4237 -0.5110 0.8895
41.7922 18.2856 -0.7963 0.8332
8.8268 8.6308 -0.2155 0.9518
6.9027 8.6053 -0.1926 0.9568
1.7020 8.6746 -0.1543 0.9653
0.4330 5.9069 -0.1034 0.9766
-0.4118 8.6805 -0.1517 0.9658
-2.5638 8.6368 -0.1573 0.9646
-3.7389 8.6229 -0.1641 0.9631
-6.6374 8.7258 -0.1914 0.9571
-10.8368 8.7516 -0.2431 0.9458
-18.5920 8.7119 -0.3584 0.9211
-24.8390 8.1658 -0.4564 0.9007
-54.9255 4.2083 -0.9615 0.8022
-73.3232 -12.1857 -1.2974 0.7428
-57.1161 -16.7498 -1.0389 0.7881
-1.7117 -21.4136 -0.3750 0.9176
1.0539 -25.8112 -0.4509 0.9018
33.8540 -79.5091 -1.5084 0.7077
25.0010 -33.3214 -0.7258 0.8465
34.1660 -35.6413 -0.8618 0.8208
34.2129 -28.0049 -0.7717 0.8379
60.7166 -12.5384 -1.0822 0.7803
76.6905 2.8780 -1.3396 0.7356
51.7895 8.2561 -0.9154 0.8107
29.5773 8.4623 -0.5370 0.8842
43.1531 18.2062 -0.8175 0.8291
15.3109 8.7627 -0.3079 0.9319
9.0616 8.6293 -0.2184 0.9512
7.0990 8.6145 -0.1948 0.9563
4.1218 8.5743 -0.1661 0.9627
-0.2965 8.6631 -0.1513 0.9659
-1.3500 8.6519 -0.1528 0.9656
-4.9499 8.7154 -0.1750 0.9607
-10.5467 8.7499 -0.2392 0.9467
-13.5427 8.7183 -0.2811 0.9376
-18.0273 8.7392 -0.3497 0.9230
-87.2095 18.6105 -1.5565 0.6999
-54.9210 4.9378 -0.9625 0.8020
-80.1364 -2.4778 -1.3994 0.7256
-80.8184 -12.3377 -1.4270 0.7210
-57.3592 -16.0022 -1.0394 0.7880
-73.2903 -30.3527 -1.3846 0.7281
-61.4045 -45.1287 -1.3301 0.7372
-57.9393 -54.4508 -1.3877 0.7275
-13.1926 -20.3454 -0.4233 0.9075
-9.6911 -19.8240 -0.3852 0.9155
-6.6801 -19.2438 -0.3556 0.9217
-4.3937 -20.2617 -0.3619 0.9204
-1.9807 -21.2438 -0.3724 0.9182
0.6575 -23.8062 -0.4157 0.9091
35.8515 -87.3820 -1.6486 0.6853
30.0279 -53.6932 -1.0738 0.7818
25.6835 -35.1889 -0.7604 0.8401
34.2083 -28.7635 -0.7801 0.8363
37.2335 -24.3183 -0.7762 0.8370
49.4844 -24.3935 -0.9630 0.8019
60.2722 -13.2783 -1.0773 0.7812
44.5879 18.1219 -0.8401 0.8249
11.8815 8.6120 -0.2561 0.9430
5.6594 8.6029 -0.1797 0.9596
2.8484 5.7304 -0.1117 0.9747
3.0725 8.6661 -0.1605 0.9639
1.9408 8.6731 -0.1551 0.9651
-1.2331 8.6512 -0.1525 0.9656
-2.3207 8.6484 -0.1563 0.9648
-4.7984 8.7145 -0.1736 0.9610
-16.6106 18.0291 -0.4279 0.9066
-10.2658 8.7481 -0.2354 0.9475
-17.4351 8.7382 -0.3404 0.9249
-87.2020 19.8155 -1.5609 0.6992
-54.7110 5.6478 -0.9601 0.8025
-87.3364 -1.5471 -1.5247 0.7051
-55.5670 -14.7145 -1.0033 0.7946
14.6525 10.8777 -0.9564 0.9295
2.8101 5.8190 -0.3387 0.9744
2.9619 8.6668 -0.4800 0.9640
0.5205 5.8894 -0.3099 0.9766
-0.2804 8.6468 -0.4534 0.9659
-2.4196 8.6228 -0.4694 0.9648
-4.9292 8.7153 -0.5247 0.9607
-6.4324 8.7246 -0.5681 0.9575
-8.2346 8.7356 -0.6292 0.9531
-10.5081 8.7496 -0.7166 0.9467
-13.4526 8.6943 -0.8394 0.9379
-17.8591 8.6972 -1.0410 0.9235
-22.5227 7.7803 -1.2488 0.9090
-34.0905 7.3386 -1.8275 0.8696
-45.1588 -1.3155 -2.3677 0.8345
-41.3221 -6.2325 -2.1901 0.8459
-43.1963 -11.9677 -2.3491 0.8357
-43.5368 -17.9394 -2.4678 0.8281
-41.6207 -23.3590 -2.5013 0.8260
-38.5088 -28.1958 -2.5013 0.8260
-34.7780 -32.5672 -2.4970 0.8263
-6.6921 -19.1674 -1.0640 0.9219
23.2216 -41.6975 -2.5013 0.8260
30.5299 -32.8188 -2.3491 0.8357
36.9255 -24.2115 -2.3141 0.8379
42.2694 -14.9145 -2.3491 0.8357
46.5915 -10.3518 -2.5013 0.8260
44.3653 6.3923 -2.3491 0.8357
16.1559 8.9276 -0.9674 0.9287
11.9259 8.6117 -0.7709 0.9428
2.8579 5.7239 -0.3353 0.9747
-0.9119 47.4339 -2.4864 0.8269
-1.2162 8.6427 -0.4574 0.9656
-2.2989 8.6286 -0.4680 0.9649
-3.4356 8.5779 -0.4843 0.9637
-4.7780 8.7144 -0.5208 0.9610
-6.2555 8.7235 -0.5626 0.9579
-7.9806 8.6932 -0.6185 0.9538
-10.2284 8.7479 -0.7054 0.9475
-13.0961 8.7110 -0.8243 0.9389
-17.3354 8.7271 -1.0171 0.9252
-45.1988 -0.7198 -2.3691 0.8344
-40.8173 -5.6064 -2.1592 0.8479
-43.3505 -11.3966 -2.3491 0.8357
-41.9254 -22.8077 -2.5013 0.8260
-22.4901 -26.1214 -1.8065 0.8710
-13.7127 -20.4689 -1.2912 0.9060
-9.9965 -19.6951 -1.1575 0.9153
-6.9403 -19.0659 -1.0633 0.9219
-4.5965 -19.7619 -1.0633 0.9219
-2.2565 -20.8217 -1.0976 0.9195
0.2806 -22.2314 -1.1652 0.9148
11.9826 -46.1990 -2.5013 0.8260
17.4526 -44.4222 -2.5013 0.8260
22.6692 -42.0004 -2.5013 0.8260
25.8798 -36.5975 -2.3491 0.8357
35.8741 -24.2050 -2.2680 0.8408
39.9025 -20.4190 -2.3491 0.8357
42.0689 -15.4711 -2.3491 0.8357
33.1493 8.4813 -1.7932 0.8719
7.5343 8.6349 -0.6006 0.9551
2.9544 5.7266 -0.3377 0.9745
3.2192 8.6652 -0.4845 0.9637
2.0775 8.6723 -0.4674 0.9649
-0.0523 8.6854 -0.4552 0.9658
-3.3057 8.5799 -0.4819 0.9638
-6.0821 8.7224 -0.5573 0.9583
-22.5186 8.4506 -1.2605 0.9082
-19.6441 2.3259 -1.0367 0.9238
-45.2049 -0.1232 -2.3691 0.8344
-29.6916 -33.5790 -2.3491 0.8357
-7.2210 -19.0511 -1.0677 0.9216
-2.5343 -20.8158 -1.0990 0.9194
11.3718 -46.3531 -2.5013 0.8260
16.8648 -44.6487 -2.5013 0.8260
29.6530 -33.6132 -2.3491 0.8357
33.4809 -29.8024 -2.3491 0.8357
34.8634 -24.1988 -2.2241 0.8437
41.8610 -16.0250 -2.3491 0.8357
47.7273 -0.1850 -2.5013 0.8260
44.5186 5.2191 -2.3491 0.8357
43.5676 10.5362 -2.3491 0.8357
30.7283 15.9363 -1.8141 0.8705
9.8416 8.6245 -0.6858 0.9489
7.7365 8.6339 -0.6076 0.9546
4.5431 8.5281 -0.5064 0.9620
3.3497 8.6644 -0.4868 0.9635
1.1147 8.6782 -0.4585 0.9656
0.0623 8.6847 -0.4552 0.9658
-0.9856 8.6536 -0.4564 0.9657
-2.0582 8.6354 -0.4652 0.9651
-3.1786 8.5861 -0.4798 0.9640
-4.4821 8.7126 -0.5135 0.9615
-9.6944 8.7446 -0.6842 0.9490
-12.4200 8.7428 -0.7960 0.9410
-16.3396 8.7738 -0.9720 0.9284
-21.5888 2.8455 -1.1412 0.9165
-45.2197 0.4736 -2.3700 0.8343
-40.7969 -4.5101 -2.1511 0.8484
-36.1018 -31.2184 -2.5013 0.8260
-5.0866 -19.5190 -1.0571 0.9224
-2.7755 -20.5341 -1.0859 0.9204
-0.3019 -21.9191 -1.1488 0.9159
4.1369 -38.5859 -2.0338 0.8560
16.2740 -44.8674 -2.5013 0.8260
21.5527 -42.5841 -2.5013 0.8260
33.0846 -30.2416 -2.3491 0.8357
39.3496 -21.4652 -2.3491 0.8357
41.6459 -16.5761 -2.3491 0.8357
46.1452 -12.1880 -2.5013 0.8260
23.8523 8.5626 -1.3281 0.9035
29.4023 14.7594 -1.7242 0.8765
12.9695 8.6053 -0.8157 0.9396
4.6924 8.5349 -0.5104 0.9617
3.4815 8.6636 -0.4893 0.9633
2.3208 8.6708 -0.4704 0.9647
1.2312 8.6775 -0.4593 0.9655
-0.8706 8.6590 -0.4561 0.9657
-1.9380 8.6348 -0.4638 0.9652
-3.0525 8.5922 -0.4779 0.9641
-7.3998 8.7305 -0.5998 0.9552
-12.0587 8.7288 -0.7802 0.9421
-26.5848 7.2097 -1.4436 0.8955
-34.4089 4.9982 -1.8222 0.8700
-44.8766 -4.3624 -2.3630 0.8348
-35.5320 -7.8517 -1.9071 0.8644
-42.2865 -14.8659 -2.3491 0.8357
-42.7954 -21.1302 -2.5013 0.8260
-39.9430 -26.1243 -2.5013 0.8260
-32.5481 -34.9077 -2.5013 0.8260
-7.8589 -19.1899 -1.0868 0.9203
-5.3105 -19.3290 -1.0505 0.9228
-3.0438 -20.4791 -1.0851 0.9204
4.1896 -44.6272 -2.3491 0.8357
20.9888 -42.8649 -2.5013 0.8260
24.4109 -37.5933 -2.3491 0.8357
32.6826 -30.6756 -2.3491 0.8357
34.1262 -25.0472 -2.2185 0.8440
39.0629 -21.9827 -2.3491 0.8357
41.4234 -17.1243 -2.3491 0.8357
47.1856 -7.1723 -2.5013 0.8260
43.8305 9.3826 -2.3491 0.8357
29.3297 10.0939 -1.6256 0.8832
29.3941 14.2728 -1.7125 0.8773
13.3450 8.6030 -0.8321 0.9384
10.3782 8.6212 -0.7071 0.9474
8.1584 8.6349 -0.6226 0.9535
4.8441 8.5419 -0.5146 0.9614
3.6112 8.6543 -0.4915 0.9631
-0.7557 8.6643 -0.4558 0.9658
-2.9274 8.5983 -0.4760 0.9643
-5.5803 8.7193 -0.5425 0.9594
-7.2029 8.7293 -0.5931 0.9557
-11.7681 8.7574 -0.7688 0.9429
-15.0908 8.6240 -0.9109 0.9327
-44.8281 7.1172 -2.3788 0.8338
-35.8707 1.3232 -1.8812 0.8661
-44.9686 -3.7729 -2.3650 0.8346
-42.4790 -14.3065 -2.3491 0.8357
-43.0706 -20.5634 -2.5013 0.8260
-36.9132 -30.2546 -2.5013 0.8260
-16.1950 -21.6133 -1.4154 0.8975
-11.5078 -19.9838 -1.2085 0.9118
-5.5524 -19.2132 -1.0481 0.9230
9.5279 -46.7669 -2.5013 0.8260
15.0842 -45.2813 -2.5013 0.8260
20.4213 -43.1381 -2.5013 0.8260
31.6514 -30.5034 -2.3037 0.8386
38.7511 -22.4856 -2.3480 0.8357
41.1938 -17.6695 -2.3491 0.8357
41.5756 -12.1637 -2.2702 0.8407
47.6825 -2.0741 -2.5013 0.8260
47.5858 3.6764 -2.5013 0.8260
29.3237 9.6609 -1.6180 0.8837
29.3862 13.7927 -1.7013 0.8781
13.7361 8.6006 -0.8493 0.9371
4.9984 8.5489 -0.5190 0.9611
11.0509 25.5308 -1.4580 0.8946
2.5674 8.6692 -0.4738 0.9644
0.4064 8.6825 -0.4555 0.9658
-0.6410 8.6697 -0.4556 0.9658
-1.6996 8.6335 -0.4611 0.9654
-2.8033 8.6043 -0.4743 0.9644
-7.0104 8.7281 -0.5867 0.9561
-8.9500 8.7400 -0.6556 0.9511
-11.4469 8.7554 -0.7553 0.9439
-14.6745 8.6450 -0.8926 0.9341
-19.6609 8.5874 -1.1244 0.9177
-23.9089 7.1666 -1.3081 0.9049
-44.7615 7.7134 -2.3804 0.8337
-34.2313 1.7155 -1.7962 0.8717
-45.0282 -3.1801 -2.3657 0.8346
-38.2363 -7.3966 -2.0410 0.8556
-42.6642 -13.7446 -2.3491 0.8357
-33.4581 -34.0365 -2.5013 0.8260
-17.0447 -22.1325 -1.4640 0.8941
-8.4800 -19.2419 -1.1020 0.9192
-5.7664 -19.0093 -1.0411 0.9235
1.8690 -27.7678 -1.4585 0.8945
19.8500 -43.4040 -2.5013 0.8260
27.8379 -35.1311 -2.3491 0.8357
31.8615 -31.5276 -2.3491 0.8357
34.1176 -26.4543 -2.2626 0.8412
41.0850 -12.6111 -2.2523 0.8419
47.6302 3.0481 -2.5013 0.8260
30.3895 5.6708 -1.6201 0.8835
29.3453 9.2406 -1.6124 0.8841
14.1438 8.5981 -0.8675 0.9359
10.9495 8.6177 -0.7302 0.9457
8.5983 8.6322 -0.6385 0.9524
6.7110 8.5963 -0.5715 0.9573
2.6921 8.6685 -0.4757 0.9643
-0.5264 8.6751 -0.4555 0.9658
-1.5815 8.6328 -0.4600 0.9655
-2.6801 8.6102 -0.4726 0.9645
-3.8554 8.5793 -0.4929 0.9630
-8.7154 8.7386 -0.6468 0.9518
-14.2744 8.6651 -0.8751 0.9353
-45.0689 -2.5856 -2.3658 0.8346
-42.6484 -7.6676 -2.2709 0.8407
-42.8418 -13.1804 -2.3491 0.8357
-40.9458 -24.5228 -2.5013 0.8260
-37.6989 -29.2698 -2.5013 0.8260
-17.9492 -22.6814 -1.5159 0.8906
-6.0418 -19.0104 -1.0454 0.9232
-1.4241 -21.3611 -1.1220 0.9178
1.4165 -26.2021 -1.3752 0.9002
13.8838 -45.6636 -2.5013 0.8260
19.2756 -43.6621 -2.5013 0.8260
25.6770 -33.2975 -2.2036 0.8450
31.4427 -31.9453 -2.3491 0.8357
38.1621 -23.5117 -2.3491 0.8357
40.7131 -18.7507 -2.3491 0.8357
46.8647 -9.0346 -2.5013 0.8260
47.6112 -3.3319 -2.5013 0.8260
47.6663 2.4191 -2.5013 0.8260
11.2496 8.6159 -0.7426 0.9448
8.8268 8.6308 -0.6470 0.9518
5.3149 8.5633 -0.5282 0.9604
3.9633 8.5313 -0.4930 0.9630
-1.4639 8.6322 -0.4589 0.9655
-2.5577 8.6161 -0.4710 0.9646
-5.1037 8.7164 -0.5294 0.9603
-6.6374 8.7258 -0.5746 0.9570
-13.8856 8.6819 -0.8582 0.9365
-22.4838 7.3915 -1.2404 0.9096
-42.2205 -7.0167 -2.2430 0.8425
-43.0121 -12.6137 -2.3491 0.8357
-38.0820 -28.7696 -2.5013 0.8260
-18.7810 -23.0994 -1.5602 0.8876
-12.6066 -20.0155 -1.2397 0.9096
-9.1545 -19.3702 -1.1228 0.9178
-1.6956 -21.2120 -1.1152 0.9183
1.0117 -24.7786 -1.2997 0.9054
7.6693 -47.1074 -2.5013 0.8260
13.2798 -45.8429 -2.5013 0.8260
23.8034 -41.2745 -2.4970 0.8263
26.9009 -35.8537 -2.3491 0.8357
40.4621 -19.2863 -2.3491 0.8357
42.8182 -14.3903 -2.3673 0.8345
46.7414 -9.6524 -2.5013 0.8260
47.6941 1.7899 -2.5013 0.8260
44.2646 7.0565 -2.3491 0.8357
29.6644 12.5153 -1.6873 0.8790
15.3109 8.7627 -0.9245 0.9318
11.5098 8.5767 -0.7523 0.9441
9.0616 8.6293 -0.6558 0.9511
5.4775 8.5707 -0.5331 0.9601
4.1005 8.5300 -0.4960 0.9628
-0.2965 8.6631 -0.4543 0.9659
-1.3476 8.6366 -0.4581 0.9656
-2.4361 8.6220 -0.4695 0.9647
-3.5859 8.5784 -0.4873 0.9634
-6.4566 8.7247 -0.5688 0.9575
-8.2643 8.7358 -0.6302 0.9530
-13.5019 8.6920 -0.8416 0.9377
-22.5230 7.7354 -1.2481 0.9090
-33.9105 7.2365 -1.8172 0.8703
-43.1748 -12.0450 -2.3491 0.8357
-43.6205 -18.0652 -2.4743 0.8277
-41.5788 -23.4335 -2.5013 0.8260
-34.7793 -32.6853 -2.5013 0.8260
-13.0404 -20.1107 -1.2561 0.9085
-6.6111 -19.0450 -1.0565 0.9224
-4.3211 -19.9267 -1.0686 0.9216
-1.9600 -21.0216 -1.1065 0.9189
0.6502 -23.5404 -1.2342 0.9100
7.0468 -47.2046 -2.5013 0.8260
12.6737 -46.0142 -2.5013 0.8260
30.5885 -32.7641 -2.3491 0.8357
37.0715 -24.2124 -2.3205 0.8375
47.7135 1.1601 -2.5013 0.8260
44.3538 6.4717 -2.3491 0.8357
21.0918 8.5724 -1.1932 0.9128
15.4244 8.5594 -0.9245 0.9318
11.8815 8.6120 -0.7690 0.9429
9.3028 8.6279 -0.6649 0.9504
7.3000 8.6239 -0.5921 0.9558
5.6431 8.5782 -0.5381 0.9597
1.9408 8.6731 -0.4658 0.9650
0.8671 8.6797 -0.4571 0.9657
-1.2318 8.6420 -0.4575 0.9656
-3.4534 8.5780 -0.4846 0.9636
-4.7984 8.7145 -0.5214 0.9609
-6.2793 8.7236 -0.5633 0.9579
-16.1472 17.5261 -1.2489 0.9090
-10.2658 8.7481 -0.7069 0.9474
-13.1437 8.7088 -0.8263 0.9388
-22.5210 8.0684 -1.2537 0.9086
-45.0889 4.6546 -2.3756 0.8340
-45.1961 -0.8006 -2.3690 0.8344
-40.8999 -5.6923 -2.1641 0.8476
14.5361 10.7912 -1.5839 0.9299
5.4841 8.5472 -0.8885 0.9600
2.8100 5.8188 -0.5653 0.9744
2.9619 8.6668 -0.8013 0.9639
1.8373 8.6737 -0.7757 0.9650
0.5204 5.8881 -0.5171 0.9765
-1.3319 8.6373 -0.7646 0.9655
-2.4139 8.6022 -0.7817 0.9648
-10.5081 8.7496 -1.1963 0.9466
-13.3253 8.6120 -1.3881 0.9383
-17.5583 8.5507 -1.7086 0.9246
-22.5227 7.7803 -2.0847 0.9088
-26.2762 5.6564 -2.3515 0.8977
-26.7381 2.4522 -2.3491 0.8978
-26.8389 -0.7818 -2.3491 0.8978
-28.2702 -4.2639 -2.5013 0.8915
-26.4338 -10.8921 -2.5013 0.8915
-24.9318 -13.9926 -2.5013 0.8915
-23.0676 -16.8899 -2.5013 0.8915
-20.8686 -19.5420 -2.5013 0.8915
-9.5056 -19.3567 -1.8867 0.9171
-1.9722 -20.7512 -1.8237 0.9197
0.5891 -22.8121 -1.9965 0.9124
13.9102 -24.9778 -2.5013 0.8915
16.8137 -23.1233 -2.5013 0.8915
19.4730 -20.9329 -2.5013 0.8915
21.8495 -18.4386 -2.5013 0.8915
23.9088 -15.6766 -2.5013 0.8915
27.9094 -6.2010 -2.5013 0.8915
28.4526 -2.7989 -2.5013 0.8915
25.9223 6.9980 -2.3491 0.8978
16.1548 8.9270 -1.6148 0.9286
11.9259 8.6117 -1.2870 0.9426
5.6495 8.5545 -0.8969 0.9597
2.8579 5.7238 -0.5597 0.9746
3.0900 8.6660 -0.8049 0.9637
1.9570 8.6730 -0.7779 0.9649
0.8827 8.6796 -0.7633 0.9656
-2.2934 8.6081 -0.7794 0.9649
-3.4255 8.5526 -0.8060 0.9637
-4.7780 8.7144 -0.8695 0.9609
-7.9806 8.6932 -1.0324 0.9537
-12.9811 8.6346 -1.3640 0.9393
-22.0706 7.9517 -2.0524 0.9101
-26.2104 6.0053 -2.3525 0.8977
-26.5753 -10.5423 -2.5013 0.8915
-23.2886 -16.5840 -2.5013 0.8915
-21.1247 -19.2648 -2.5013 0.8915
-4.6491 -19.9880 -1.7954 0.9209
-2.2348 -20.6214 -1.8147 0.9201
0.2770 -21.9440 -1.9200 0.9157
3.5659 -26.6124 -2.3491 0.8978
7.1779 -27.6742 -2.5013 0.8915
13.5794 -25.1592 -2.5013 0.8915
16.5070 -23.3432 -2.5013 0.8915
21.6043 -18.7254 -2.5013 0.8915
25.4512 -13.0240 -2.5013 0.8915
26.8330 -9.8680 -2.5013 0.8915
27.8251 -6.5688 -2.5013 0.8915
28.4132 -3.1742 -2.5013 0.8915
28.3491 3.7034 -2.5013 0.8915
26.0124 6.6553 -2.3491 0.8978
25.0230 9.7359 -2.3491 0.8978
9.5852 8.6261 -1.1282 0.9495
5.8152 8.5577 -0.9052 0.9593
2.9543 5.7265 -0.5637 0.9745
2.0775 8.6723 -0.7802 0.9648
0.9986 8.6789 -0.7643 0.9655
-3.2976 8.5589 -0.8025 0.9638
-4.6290 8.7135 -0.8632 0.9612
-6.0821 8.7224 -0.9303 0.9582
-9.9573 8.7462 -1.1595 0.9482
-12.6486 8.6563 -1.3409 0.9403
-22.5186 8.4506 -2.1043 0.9079
-26.1398 6.3534 -2.3535 0.8976
-26.8502 -0.0731 -2.3491 0.8978
-28.3178 -3.5094 -2.4964 0.8917
-27.7439 -6.9035 -2.5013 0.8915
-26.7121 -10.1906 -2.5013 0.8915
-21.3771 -18.9844 -2.5013 0.8915
-14.2643 -20.6960 -2.1991 0.9040
-2.5068 -20.5901 -1.8147 0.9201
-0.0125 -21.7905 -1.9064 0.9162
10.1024 -26.7456 -2.5013 0.8915
23.4867 -16.3022 -2.5013 0.8915
25.2770 -13.3588 -2.5013 0.8915
26.7004 -10.2213 -2.5013 0.8915
27.7360 -6.9355 -2.5013 0.8915
28.3688 -3.5488 -2.5013 0.8915
28.5897 -0.1108 -2.5013 0.8915
26.0980 6.3114 -2.3491 0.8978
25.1493 9.4047 -2.3491 0.8978
23.8988 12.3944 -2.3553 0.8975
12.6084 8.6075 -1.3356 0.9405
9.8416 8.6245 -1.1449 0.9488
5.9850 8.5622 -0.9140 0.9589
0.0623 8.6847 -0.7598 0.9657
-0.9856 8.6536 -0.7620 0.9656
-4.4821 8.7126 -0.8572 0.9614
-5.9118 8.7214 -0.9218 0.9586
-12.3654 8.7044 -1.3230 0.9411
-20.9134 8.1646 -1.9642 0.9138
-26.0645 6.7006 -2.3545 0.8976
-26.8488 0.2812 -2.3491 0.8978
-27.8326 -6.5368 -2.5013 0.8915
-26.8443 -9.8372 -2.5013 0.8915
-14.9025 -21.0229 -2.2545 0.9017
-10.5474 -19.4880 -1.9387 0.9149
2.8623 -26.6973 -2.3491 0.8978
6.4449 -27.8541 -2.5013 0.8915
9.7485 -26.8766 -2.5013 0.8915
12.8703 -25.4291 -2.4935 0.8919
