ply
format ascii 1.0
element vertex 1572
property float32 x
property float32 y
property float32 z
property float32 I
end_header
61.0622 -24.5885 8.0825 0.7670
63.7098 -9.0774 7.9016 0.7716
61.3679 -1.2818 7.5367 0.7809
61.4756 6.1532 7.5860 0.7796
55.4744 19.6886 7.2277 0.7888
40.5595 20.1805 5.5625 0.8331
31.9459 21.0366 4.6965 0.8571
10.1754 8.6225 1.6376 0.9477
7.9997 8.6359 1.4454 0.9537
6.2586 8.6466 1.3106 0.9579
2.3494 8.6706 1.1030 0.9644
1.2579 8.6773 1.0766 0.9653
-1.9263 8.6969 1.0937 0.9647
-11.7906 33.4794 4.3582 0.8667
-9.3920 8.7428 1.5755 0.9496
-12.0393 8.7590 1.8281 0.9418
-82.9422 46.2119 11.6580 0.6821
-80.7352 -52.6035 11.8316 0.6782
-29.4995 -31.5361 5.3022 0.8403
-9.3026 -33.6823 4.2905 0.8686
-5.9996 -40.0147 4.9681 0.8495
26.7824 -77.2457 10.0385 0.7193
35.2064 -42.1672 6.7448 0.8014
45.0277 -42.3256 7.5878 0.7795
34.7107 -14.3714 4.6128 0.8595
63.6564 -17.7479 8.1141 0.7662
61.3281 5.5362 7.5608 0.7802
63.3089 13.5383 7.9491 0.7704
41.5562 20.1744 5.6720 0.8301
10.3770 8.6213 1.6565 0.9471
8.1564 8.6349 1.4584 0.9533
4.8887 8.6256 1.2174 0.9608
0.2871 8.6833 1.0668 0.9656
-5.5910 8.7194 1.2718 0.9591
-7.2166 8.7294 1.3907 0.9554
-9.2095 8.7416 1.5591 0.9501
-68.2953 -32.7459 9.2997 0.7370
-24.2004 -32.4271 4.9681 0.8495
26.2321 -78.1056 10.1166 0.7175
20.0993 -42.1823 5.7372 0.8284
44.2102 -42.3750 7.5192 0.7813
56.9275 -42.7011 8.7377 0.7507
61.1316 -17.6868 7.8139 0.7738
61.2252 -2.4715 7.5236 0.7812
61.3172 12.4897 7.6834 0.7771
57.1597 19.0427 7.3976 0.7844
10.5833 8.6200 1.6760 0.9465
8.3159 8.6339 1.4719 0.9528
5.0168 8.6542 1.2282 0.9605
3.7105 8.6622 1.1571 0.9627
2.5311 8.6695 1.1089 0.9643
1.4307 8.6762 1.0797 0.9652
0.3717 8.6827 1.0671 0.9656
-0.6779 8.6892 1.0701 0.9655
-1.7492 8.6958 1.0891 0.9649
-2.8758 8.7027 1.1254 0.9637
-4.0984 8.7102 1.1820 0.9619
-9.0307 8.7405 1.5431 0.9506
-83.3344 -52.0155 12.0618 0.6731
-24.5147 -32.1901 4.9681 0.8495
-13.7150 -31.5925 4.2288 0.8704
-10.0107 -33.6780 4.3140 0.8680
24.8949 -40.1012 5.7955 0.8268
43.1053 -42.1282 7.4006 0.7843
56.7396 -33.4470 8.0871 0.7669
34.6956 -15.1626 4.6491 0.8585
63.6980 -10.9814 7.9365 0.7707
64.1497 4.5344 7.8962 0.7717
61.3134 11.8688 7.6681 0.7775
57.0557 18.3932 7.3606 0.7854
41.9358 19.3595 5.6713 0.8302
31.9602 19.7334 4.6120 0.8595
10.7945 8.6187 1.6960 0.9459
3.8104 8.6616 1.1619 0.9626
2.6228 8.6689 1.1121 0.9642
1.5174 8.6757 1.0814 0.9651
0.4563 8.6822 1.0675 0.9656
-0.5929 8.6887 1.0693 0.9655
-17.6305 22.1920 3.4801 0.8921
-8.8555 8.7394 1.5277 0.9511
-11.3232 8.7546 1.7574 0.9440
-24.8268 -31.9500 4.9681 0.8495
-20.1559 -33.6291 4.8140 0.8538
-14.0810 -31.5903 4.2467 0.8699
-10.3678 -33.6758 4.3264 0.8676
-6.7916 -37.7471 4.7092 0.8568
-4.8366 -84.2053 10.3561 0.7118
2.4529 -38.7173 4.7634 0.8553
24.8068 -78.9185 10.1574 0.7165
19.8228 -43.7757 5.9004 0.8239
24.2521 -39.9278 5.7360 0.8284
42.7668 -42.6191 7.4134 0.7840
54.2628 -42.3768 8.4536 0.7577
56.7350 -34.1926 8.1335 0.7657
61.2254 -11.1697 7.6416 0.7782
77.1040 -4.6170 9.4841 0.7325
61.3988 3.7398 7.5528 0.7804
63.8376 11.7140 7.9691 0.7698
11.0110 8.6174 1.7168 0.9452
8.6215 8.6094 1.4960 0.9521
1.6045 8.6752 1.0832 0.9651
0.5411 8.6817 1.0680 0.9656
-1.5736 8.6947 1.0849 0.9650
-5.2369 8.7172 1.2486 0.9598
-8.6838 8.7384 1.5126 0.9516
-69.8056 -30.9978 9.3781 0.7351
-25.1365 -31.7070 4.9681 0.8495
-20.5130 -33.4819 4.8213 0.8536
-10.7268 -33.6736 4.3393 0.8673
-6.6778 -35.1491 4.3930 0.8657
-5.7506 -85.5697 10.5303 0.7078
41.9006 -42.5762 7.3347 0.7860
53.1182 -42.3216 8.3391 0.7606
56.9815 -26.2341 7.7023 0.7766
63.6902 -12.2608 7.9637 0.7700
61.3937 -4.2760 7.5565 0.7803
61.4709 10.6627 7.6604 0.7777
57.4276 17.2869 7.3638 0.7853
43.7220 19.1610 5.8613 0.8250
5.3589 8.6521 1.2496 0.9598
4.0128 8.6604 1.1720 0.9623
1.6918 8.6746 1.0852 0.9650
0.6259 8.6812 1.0687 0.9655
-0.4232 8.6876 1.0680 0.9656
-2.5961 8.7010 1.1149 0.9641
-3.7912 8.7083 1.1662 0.9624
-6.6596 8.7260 1.3478 0.9567
-10.8408 8.7240 1.7086 0.9455
-54.8865 17.9266 7.0896 0.7924
-84.1711 -36.4005 11.2599 0.6910
-25.4976 -31.5273 4.9786 0.8492
-20.6831 -33.0335 4.7854 0.8546
-14.8223 -31.5858 4.2840 0.8688
-11.0407 -33.5273 4.3341 0.8674
-6.7751 -33.8610 4.2400 0.8701
25.9657 -88.5965 11.3359 0.6893
20.5958 -47.9449 6.4071 0.8103
30.8051 -40.7734 6.2745 0.8139
40.8207 -42.2946 7.2174 0.7891
56.8351 -26.8401 7.7175 0.7762
59.0230 -19.5960 7.6361 0.7783
61.2994 -12.4204 7.6796 0.7772
61.3901 -4.8765 7.5615 0.7802
59.4832 9.7226 7.4005 0.7843
44.8889 19.1538 5.9924 0.8214
34.1286 19.7201 4.8397 0.8531
11.4601 8.6146 1.7603 0.9439
7.0587 8.6416 1.3700 0.9560
4.1153 8.6597 1.1772 0.9621
2.9010 8.6672 1.1222 0.9638
0.7108 8.6807 1.0694 0.9655
-0.3385 8.6871 1.0675 0.9656
-3.6905 8.7077 1.1612 0.9626
-6.5256 8.7251 1.3378 0.9570
-8.3502 8.7363 1.4839 0.9525
-10.6598 8.7505 1.6934 0.9459
-82.3556 27.7882 10.6721 0.7045
-20.6788 -32.3229 4.7114 0.8567
-3.4031 -16.1877 2.0310 0.9355
-7.4255 -85.5623 10.5452 0.7074
22.3645 -39.3658 5.5591 0.8332
40.0774 -42.3410 7.1584 0.7906
61.1651 -20.9699 7.9392 0.7706
64.1304 -5.7225 7.9055 0.7715
58.9373 9.0456 7.3213 0.7864
57.4114 16.0706 7.3202 0.7864
46.1089 19.1463 6.1301 0.8177
34.8998 19.7153 4.9216 0.8508
11.6933 8.6132 1.7832 0.9432
9.1606 8.6287 1.5452 0.9505
7.1993 8.6408 1.3809 0.9557
1.8675 8.6736 1.0894 0.9649
-2.4124 8.6999 1.1085 0.9643
-4.8953 8.7151 1.2273 0.9605
-83.0004 28.9081 10.7916 0.7017
-82.9507 7.8090 10.2301 0.7148
-84.2203 -12.5069 10.4543 0.7095
-62.0506 -17.0440 7.9010 0.7716
-59.8420 -43.6314 9.0933 0.7420
-3.4486 -15.6466 1.9673 0.9375
19.8983 -48.9250 6.4851 0.8083
29.7045 -40.9497 6.2115 0.8156
49.9726 -42.2578 8.0355 0.7682
63.6272 -22.5084 8.2869 0.7619
61.2567 -6.0675 7.5582 0.7803
57.4077 15.4687 7.3002 0.7869
49.8255 20.1234 6.5979 0.8053
9.3399 8.6276 1.5612 0.9500
4.3232 8.6585 1.1883 0.9617
1.9559 8.6730 1.0917 0.9648
6.5970 64.9900 8.0208 0.7685
-1.2261 8.6926 1.0779 0.9652
-2.3214 8.6993 1.1055 0.9644
-2.3674 5.9030 0.7809 0.9747
-4.7840 8.7144 1.2206 0.9607
-6.2634 8.7235 1.3186 0.9576
-13.2016 8.7662 1.9458 0.9381
-83.5826 -33.2850 11.0465 0.6959
-24.5315 -22.4404 4.0822 0.8746
-27.0475 -31.5159 5.0994 0.8459
-12.8427 -25.4110 3.4959 0.8916
-10.2057 -28.1936 3.6816 0.8862
-1.0197 8.6913 0.7656 0.9655
-2.1049 8.6980 0.7829 0.9647
-3.2575 8.7050 0.8132 0.9634
-4.5218 8.7128 0.8588 0.9614
-7.6587 8.7321 1.0162 0.9544
-9.7690 8.7451 1.1471 0.9487
-68.0064 -35.0843 6.6949 0.7355
19.5678 -53.0770 4.9492 0.7968
21.1745 -41.2902 4.0597 0.8300
28.5968 -42.2976 4.4669 0.8146
36.6298 -42.1758 4.8873 0.7991
56.7574 -30.5460 5.6391 0.7720
61.1434 -15.7716 5.5244 0.7760
61.2362 -0.6831 5.3578 0.7820
61.2818 6.7366 5.3938 0.7807
57.9162 13.5689 5.2042 0.7875
32.0491 21.5546 3.3791 0.8563
9.9783 8.6237 1.1538 0.9484
7.8458 8.6368 1.0209 0.9542
4.6858 8.6562 0.8612 0.9612
3.4156 8.6640 0.8148 0.9633
2.2592 8.6712 0.7840 0.9647
1.1719 8.6778 0.7661 0.9655
0.0781 5.7427 0.5025 0.9772
-0.9340 8.6908 0.7647 0.9655
-9.5785 8.7439 1.1347 0.9493
-16.1333 8.7842 1.6071 0.9289
-69.1586 -34.8309 6.7746 0.7328
-24.0829 -33.6151 3.6178 0.8470
-18.4223 -33.6397 3.3555 0.8573
-12.6490 -31.6339 2.9807 0.8721
19.6023 -54.8078 5.0925 0.7916
44.5328 -41.0516 5.2990 0.7841
57.2015 -31.5066 5.7134 0.7693
60.4932 13.5530 5.4237 0.7796
55.1977 19.5904 5.1243 0.7904
32.0464 21.1028 3.3570 0.8572
7.9997 8.6359 1.0299 0.9538
6.2586 8.6466 0.9338 0.9580
31.6684 57.1656 5.7175 0.7692
1.2579 8.6773 0.7671 0.9654
0.2025 8.6838 0.7599 0.9657
-1.9263 8.6969 0.7793 0.9649
-11.7906 33.4794 3.1054 0.8672
-4.3080 8.7115 0.8503 0.9617
-5.7119 8.7201 0.9120 0.9590
-7.3615 8.7303 0.9991 0.9552
-9.3920 8.7428 1.1226 0.9498
-15.7619 8.7819 1.5786 0.9301
-24.5414 -33.5604 3.6374 0.8463
-18.8486 -33.6371 3.3734 0.8566
-4.7503 -31.6823 2.8028 0.8793
20.9522 -96.8259 8.6672 0.6718
35.1914 -42.1491 4.8039 0.8021
44.3113 -41.6523 5.3206 0.7833
55.7747 -40.9944 6.0559 0.7573
57.1971 -32.2336 5.7440 0.7683
61.2289 -1.8752 5.3593 0.7819
61.2744 5.5313 5.3826 0.7811
61.3210 13.1131 5.4862 0.7774
56.9190 19.5798 5.2662 0.7853
32.0436 20.6567 3.3355 0.8581
10.3770 8.6213 1.1803 0.9473
8.1564 8.6349 1.0392 0.9534
6.3871 8.6458 0.9404 0.9578
3.6114 8.6628 0.8211 0.9630
-0.7631 8.6897 0.7632 0.9656
-1.8375 8.6963 0.7776 0.9649
-2.9596 8.6722 0.8017 0.9639
-4.2027 8.7108 0.8462 0.9619
-5.5910 8.7194 0.9062 0.9593
-9.2095 8.7416 1.1109 0.9503
-11.7943 8.7575 1.2852 0.9427
-15.4035 8.7797 1.5512 0.9313
-41.0084 -8.5611 3.6651 0.8452
-25.0824 -33.6090 3.6690 0.8450
-19.2795 -33.6345 3.3918 0.8558
-13.3669 -31.6296 3.0042 0.8712
-9.0754 -31.6558 2.8811 0.8761
-5.0656 -31.6804 2.8069 0.8791
18.3311 -54.5806 5.0373 0.7936
20.1875 -42.3674 4.1059 0.8282
25.1574 -39.6578 4.1088 0.8281
34.5120 -42.1627 4.7670 0.8035
61.1316 -17.6868 5.5677 0.7745
61.1793 -9.9352 5.4226 0.7797
61.2252 -2.4715 5.3609 0.7819
61.2707 4.9305 5.3778 0.7813
61.3172 12.4897 5.4747 0.7778
57.0595 19.0093 5.2618 0.7855
10.5833 8.6200 1.1942 0.9467
-2.8758 8.7027 0.8019 0.9639
-4.0984 8.7102 0.8422 0.9621
-5.4715 8.7187 0.9005 0.9595
-15.0573 8.7776 1.5248 0.9324
-53.2187 -24.8831 5.1398 0.7899
-63.1949 -64.9760 7.9299 0.6949
-7.4338 -25.0089 2.2826 0.9005
20.1751 -43.4246 4.1892 0.8251
24.6495 -39.7059 4.0888 0.8289
33.8157 -42.1420 4.7272 0.8050
43.1950 -42.2160 5.2842 0.7846
56.9370 -33.5633 5.7824 0.7669
34.6902 -15.1603 3.3122 0.8590
61.1277 -18.3321 5.5833 0.7740
61.2215 -3.0683 5.3629 0.7818
61.3134 11.8688 5.4638 0.7782
31.9602 19.7334 3.2862 0.8600
10.7945 8.6187 1.2085 0.9460
6.6498 8.6441 0.9542 0.9572
3.8104 8.6616 0.8279 0.9627
1.5174 8.6757 0.7705 0.9653
0.4563 8.6822 0.7606 0.9657
-1.6612 8.6952 0.7745 0.9651
-2.7820 8.7021 0.7993 0.9640
-3.9951 8.7096 0.8383 0.9623
-17.6306 22.1920 2.4797 0.8924
-8.8555 8.7394 1.0885 0.9513
-11.3232 8.7546 1.2522 0.9442
-14.0810 -31.5903 3.0259 0.8703
-9.7339 -31.6169 2.8942 0.8756
-5.6931 -31.6417 2.8127 0.8789
-4.8366 -84.2053 7.3791 0.7127
41.0276 -40.8858 5.0675 0.7925
59.4169 -18.4511 5.4432 0.7789
61.1718 -11.1600 5.4402 0.7791
61.2633 3.7316 5.3698 0.7816
57.0519 17.7810 5.2282 0.7867
42.6055 19.1679 4.0874 0.8290
8.6215 8.6094 1.0660 0.9523
6.7840 8.6433 0.9613 0.9568
2.7150 8.6683 0.7947 0.9642
0.5411 8.6817 0.7610 0.9657
-1.5736 8.6947 0.7730 0.9651
-3.8926 8.7089 0.8346 0.9624
-5.2369 8.7172 0.8897 0.9600
-8.6838 8.7384 1.0778 0.9517
-11.0541 8.7198 1.2318 0.9450
-20.5130 -33.4819 3.4353 0.8541
-7.5336 -23.6495 2.1715 0.9051
24.5037 -80.6901 7.3778 0.7128
19.4435 -44.0745 4.2146 0.8241
23.6806 -39.8556 4.0560 0.8302
40.4116 -41.0633 5.0405 0.7935
53.0619 -42.2768 5.9356 0.7615
56.8300 -35.0079 5.8397 0.7649
56.9815 -26.2341 5.4882 0.7773
61.2142 -4.2635 5.3685 0.7816
61.2597 3.1335 5.3665 0.7817
55.9973 9.7133 4.9723 0.7960
43.7220 19.1610 4.1764 0.8256
33.5499 19.8237 3.4093 0.8552
11.2327 8.6160 1.2385 0.9447
8.7967 8.6150 1.0772 0.9518
5.3589 8.6521 0.8904 0.9600
4.0128 8.6604 0.8351 0.9624
2.8077 8.6678 0.7971 0.9641
1.6918 8.6746 0.7732 0.9651
0.6259 8.6812 0.7615 0.9657
-0.4232 8.6876 0.7610 0.9657
-2.5961 8.7010 0.7944 0.9642
-3.7912 8.7083 0.8309 0.9626
-5.1218 8.7165 0.8845 0.9602
-14.0854 8.7716 1.4517 0.9355
-54.8737 17.9224 5.0504 0.7931
-27.1400 -33.5581 3.7759 0.8409
-10.4218 -31.6476 2.9151 0.8748
-6.3373 -31.6726 2.8259 0.8784
-5.9614 -77.4339 6.7946 0.7321
39.5732 -41.0020 4.9855 0.7955
52.0071 -42.2703 5.8634 0.7641
57.1740 -35.9921 5.9107 0.7624
61.2105 -4.8623 5.3721 0.7815
61.2560 2.5359 5.3638 0.7818
55.5123 9.0735 4.9211 0.7978
44.8889 19.1538 4.2698 0.8220
34.2999 19.8191 3.4658 0.8529
8.9850 8.6298 1.0899 0.9512
2.9010 8.6672 0.7996 0.9640
1.7795 8.6741 0.7747 0.9651
0.7108 8.6807 0.7620 0.9656
-1.3993 8.6936 0.7704 0.9653
-2.5040 8.7004 0.7921 0.9643
-3.6905 8.7077 0.8274 0.9627
-6.5256 8.7251 0.9532 0.9572
-8.3502 8.7363 1.0573 0.9526
-18.3980 8.7981 1.7842 0.9214
-3.4026 -16.1850 1.4470 0.9357
23.8756 -84.5032 7.6825 0.7029
22.7839 -40.1040 4.0353 0.8309
30.4000 -41.0617 4.4698 0.8145
39.4111 -41.6372 5.0158 0.7944
50.9781 -42.2640 5.7934 0.7665
56.9732 -27.5863 5.5381 0.7756
55.7906 -19.1273 5.1599 0.7891
61.1604 -13.0129 5.4706 0.7780
46.1089 19.1463 4.3680 0.8183
35.0749 19.8143 3.5245 0.8507
9.1606 8.6287 1.1010 0.9507
7.1993 8.6408 0.9840 0.9558
5.5938 8.6507 0.9013 0.9595
2.9949 8.6666 0.8022 0.9639
0.7942 8.6621 0.7610 0.9657
-0.2538 8.6866 0.7603 0.9657
-2.4124 8.6999 0.7899 0.9644
-3.5907 8.7071 0.8240 0.9629
-4.8953 8.7151 0.8745 0.9607
-6.3936 8.7243 0.9463 0.9575
-8.1881 8.7353 1.0475 0.9531
-17.9416 8.7953 1.7481 0.9229
-28.2640 -33.5895 3.8406 0.8384
-15.5796 -31.5862 3.0813 0.8681
-11.1074 -31.6434 2.9340 0.8740
23.5319 -86.4942 7.8423 0.6977
22.2390 -40.0469 4.0076 0.8320
29.7178 -40.9679 4.4279 0.8161
57.1643 -37.5588 5.9841 0.7598
61.1565 -13.6355 5.4819 0.7776
61.2031 -6.0622 5.3808 0.7812
57.0371 15.3688 5.1681 0.7888
47.3868 19.1385 4.4712 0.8145
7.3422 8.6399 0.9920 0.9555
3.0894 8.6660 0.8049 0.9637
1.9559 8.6730 0.7778 0.9649
6.5970 64.9901 5.7151 0.7693
-0.1692 8.6861 0.7601 0.9657
-6.2634 8.7235 0.9396 0.9578
-10.2436 8.7480 1.1785 0.9473
-13.2016 8.7662 1.3864 0.9384
-17.5030 8.7926 1.7137 0.9244
-24.4866 2.5458 2.1538 0.9059
-83.6072 -33.2948 7.8733 0.6967
-60.0848 -42.9191 6.4601 0.7434
-24.5290 -22.4381 2.9084 0.8750
-28.8241 -33.5861 3.8722 0.8372
-21.0624 -31.5526 3.3190 0.8587
-12.8051 -25.3366 2.4837 0.8923
-10.2404 -28.2893 2.6322 0.8862
0.0221 5.7298 0.3003 0.9773
-1.0186 8.6825 0.4582 0.9656
-3.2575 8.7050 0.4871 0.9635
-4.5218 8.7128 0.5145 0.9614
-5.9586 8.7217 0.5536 0.9586
-7.6587 8.7321 0.6087 0.9545
-9.7690 8.7451 0.6871 0.9488
-16.5183 8.7865 0.9805 0.9278
-22.9376 8.8497 1.2885 0.9062
-68.2345 -35.2020 4.0239 0.7353
-22.1405 -31.5479 2.0199 0.8569
-16.3620 -30.5802 1.8176 0.8703
-12.9634 -33.3582 1.8756 0.8665
-6.2068 -24.3069 1.3147 0.9044
-4.7721 -36.6830 1.9387 0.8623
20.4976 -86.5420 4.6610 0.7003
20.4695 -55.5226 3.1013 0.7890
21.6335 -42.1853 2.4846 0.8270
36.6297 -42.1757 2.9276 0.7995
31.3374 -28.3286 2.2139 0.8443
56.7574 -30.5460 3.3779 0.7725
66.1468 -0.7378 3.4668 0.7672
39.4065 20.0876 2.3180 0.8376
9.9783 8.6237 0.6912 0.9485
7.8458 8.6368 0.6115 0.9543
6.1318 8.6473 0.5556 0.9584
4.6858 8.6562 0.5159 0.9613
3.4156 8.6640 0.4881 0.9634
2.2544 8.6530 0.4686 0.9648
1.1706 8.6688 0.4584 0.9656
-2.0113 8.6798 0.4669 0.9649
-4.4144 8.7121 0.5119 0.9616
-5.8345 8.7209 0.5499 0.9588
-7.5089 8.7312 0.6035 0.9549
-12.2911 8.7606 0.7910 0.9413
-60.8905 -13.9535 3.2738 0.7786
-66.7930 -33.6395 3.9194 0.7411
-28.9325 -31.5396 2.2430 0.8425
-8.8713 -33.3832 1.8103 0.8708
-5.1289 -36.6348 1.9387 0.8623
20.0831 -88.6290 4.7626 0.6949
21.3802 -42.7098 2.5031 0.8259
27.8516 -42.0719 2.6443 0.8170
35.9121 -42.1713 2.9029 0.8010
31.3222 -28.8737 2.2326 0.8431
33.7400 -24.2968 2.1790 0.8466
50.0630 -20.1594 2.8284 0.8056
66.2600 -17.7807 3.5954 0.7597
66.2043 -9.4328 3.5047 0.7650
66.1510 -1.3817 3.4676 0.7672
66.0987 6.6159 3.4814 0.7664
24.0543 8.5372 1.3377 0.9028
40.5594 20.1805 2.3742 0.8341
31.9459 21.0366 2.0046 0.8579
7.9997 8.6359 0.6169 0.9539
32.6796 58.9911 3.5343 0.7633
3.5131 8.6634 0.4899 0.9632
2.3448 8.6537 0.4699 0.9647
0.2024 8.6782 0.4549 0.9658
-1.9226 8.6803 0.4659 0.9650
-4.3080 8.7115 0.5093 0.9618
-7.3615 8.7303 0.5985 0.9553
-9.3920 8.7428 0.6725 0.9499
-12.0393 8.7590 0.7803 0.9421
-15.7619 8.7819 0.9456 0.9303
-21.5939 8.8177 1.2224 0.9108
-29.4995 -31.5361 2.2631 0.8412
-17.1330 -30.5755 1.8368 0.8690
-13.5946 -33.0619 1.8735 0.8666
19.1270 -88.3915 4.7396 0.6961
22.3814 -45.8183 2.6724 0.8153
33.0511 -24.2926 2.1497 0.8485
57.1971 -32.2336 3.4408 0.7688
50.5251 -20.9191 2.8659 0.8033
66.2647 -18.4751 3.6052 0.7592
66.2086 -10.0917 3.5099 0.7647
65.3544 13.9757 3.5025 0.7651
41.5562 20.1744 2.4209 0.8311
10.3770 8.6213 0.7070 0.9474
6.3871 8.6458 0.5633 0.9579
4.8887 8.6256 0.5196 0.9611
1.3426 8.6665 0.4596 0.9655
0.2869 8.6776 0.4550 0.9658
-2.9596 8.6722 0.4802 0.9640
-5.5910 8.7194 0.5428 0.9594
-15.4035 8.7797 0.9292 0.9314
-41.0012 -8.5596 2.1951 0.8455
-83.5160 -53.2650 5.1914 0.6725
-23.5364 -31.5375 2.0623 0.8542
-13.5890 -32.1552 1.8295 0.8695
-9.5694 -33.3789 1.8198 0.8702
18.3398 -88.9312 4.7588 0.6951
20.0424 -42.0628 2.4419 0.8298
26.4907 -41.7595 2.5917 0.8203
43.9205 -42.0973 3.1883 0.7837
32.3805 -24.2884 2.1213 0.8503
57.1926 -32.9683 3.4597 0.7677
66.2130 -10.7526 3.5155 0.7644
66.1595 -2.6707 3.4701 0.7670
66.1071 5.3197 3.4757 0.7667
25.5973 8.5277 1.4140 0.8976
31.9405 20.1530 1.9793 0.8596
2.5270 8.6552 0.4725 0.9645
-0.6774 8.6822 0.4564 0.9657
-2.8735 8.6959 0.4800 0.9640
-9.0307 8.7405 0.6587 0.9509
-11.5557 8.7560 0.7598 0.9436
-15.0573 8.7776 0.9134 0.9326
-20.4310 8.8106 1.1661 0.9147
-30.1084 8.8701 1.6450 0.8819
-30.6647 -31.5289 2.3050 0.8385
-24.0155 -31.5345 2.0773 0.8532
-7.5183 -25.2932 1.3829 0.8997
-6.1959 -36.4695 1.9387 0.8623
-2.9892 -62.6944 3.2894 0.7777
25.9132 -79.7180 4.3930 0.7148
33.8289 -42.1585 2.8328 0.8053
31.7272 -24.2844 2.0939 0.8521
66.2741 -19.8754 3.6261 0.7579
66.2175 -11.4157 3.5215 0.7640
66.1638 -3.3160 3.4718 0.7669
50.3394 9.7445 2.6871 0.8143
26.4369 8.5225 1.4557 0.8947
6.6498 8.6441 0.5716 0.9573
3.8104 8.6616 0.4959 0.9628
2.6189 8.6561 0.4740 0.9644
1.5154 8.6641 0.4610 0.9654
0.4560 8.6763 0.4553 0.9658
-0.5925 8.6820 0.4561 0.9657
-1.6586 8.6814 0.4632 0.9652
-2.7793 8.6936 0.4783 0.9641
-3.9951 8.7096 0.5022 0.9623
-8.8555 8.7394 0.6520 0.9514
-11.3232 8.7546 0.7501 0.9443
-29.0408 8.8635 1.5913 0.8855
-24.5017 -31.5316 2.0927 0.8522
-14.0810 -31.5903 1.8126 0.8706
27.0013 -85.9001 4.7190 0.6972
41.0458 -40.9040 3.0369 0.7929
31.3609 -24.4915 2.0854 0.8527
56.8347 -34.2526 3.4776 0.7666
56.7861 -25.4773 3.2618 0.7793
66.2788 -20.5820 3.6371 0.7573
66.1156 4.0271 3.4714 0.7670
49.9606 9.1676 2.6620 0.8159
27.3279 8.5171 1.5001 0.8917
32.6601 19.7291 1.9997 0.8583
8.6215 8.6094 0.6385 0.9524
3.9112 8.6610 0.4980 0.9627
1.6022 8.6629 0.4617 0.9653
0.5407 8.6755 0.4555 0.9658
-2.6856 8.6915 0.4768 0.9642
-5.2369 8.7172 0.5330 0.9601
-8.6838 8.7384 0.6456 0.9519
-11.0541 8.7198 0.7379 0.9452
-14.3989 8.7735 0.8837 0.9347
-19.3704 8.8041 1.1151 0.9183
-18.7264 -30.5657 1.8786 0.8663
-14.4500 -31.5880 1.8204 0.8701
25.5896 -84.2659 4.6153 0.7028
24.7077 -41.5843 2.5350 0.8239
32.4945 -42.1502 2.7892 0.8080
40.2996 -40.9494 3.0110 0.7944
56.8300 -35.0080 3.4981 0.7654
57.2308 -26.3488 3.3019 0.7770
66.2263 -12.7490 3.5345 0.7633
66.1198 3.3822 3.4697 0.7671
49.6565 8.6134 2.6412 0.8172
28.2746 8.5113 1.5475 0.8885
33.3823 19.7246 2.0321 0.8562
8.7967 8.6150 0.6453 0.9519
5.3589 8.6521 0.5334 0.9601
4.0128 8.6604 0.5002 0.9625
2.8045 8.6579 0.4770 0.9642
-0.4229 8.6815 0.4555 0.9658
-3.7912 8.7083 0.4978 0.9627
-5.1218 8.7165 0.5298 0.9603
-6.6596 8.7260 0.5753 0.9570
-10.8408 8.7240 0.7293 0.9458
-14.0854 8.7716 0.8696 0.9357
-14.8223 -31.5857 1.8285 0.8696
4.3283 -98.7389 5.1796 0.6731
25.3897 -86.6309 4.7311 0.6966
22.1801 -51.6330 2.9451 0.7984
39.5862 -41.0154 2.9874 0.7959
66.1766 -5.2567 3.4791 0.7665
44.8889 19.1538 2.5577 0.8224
31.6474 18.2864 1.9155 0.8638
11.4601 8.6146 0.7514 0.9442
8.9850 8.6298 0.6529 0.9513
7.0587 8.6416 0.5848 0.9563
5.4756 8.6514 0.5366 0.9598
4.1153 8.6597 0.5025 0.9623
2.8982 8.6590 0.4785 0.9641
1.7767 8.6602 0.4633 0.9652
0.7103 8.6739 0.4561 0.9657
-1.3974 8.6821 0.4609 0.9654
-2.5002 8.6874 0.4738 0.9644
-5.0079 8.7158 0.5268 0.9605
-13.7816 8.7697 0.8561 0.9367
-26.2173 8.8462 1.4501 0.8951
-26.0339 -31.5573 2.1440 0.8489
-16.0764 -25.1289 1.5634 0.8874
30.2062 -40.7999 2.6605 0.8160
39.3302 -41.5516 2.9984 0.7952
57.1099 -19.5797 3.1640 0.7852
66.2353 -14.0926 3.5489 0.7624
66.1809 -5.9054 3.4822 0.7663
66.1282 2.0935 3.4674 0.7672
30.3603 8.4984 1.6523 0.8814
46.1088 19.1463 2.6165 0.8187
9.1606 8.6287 0.6595 0.9508
5.5938 8.6507 0.5399 0.9596
4.2188 8.6591 0.5048 0.9622
2.9926 8.6600 0.4802 0.9640
1.8643 8.6588 0.4642 0.9651
0.7942 8.6621 0.4559 0.9658
-1.3109 8.6823 0.4602 0.9654
-10.4493 8.7492 0.7142 0.9469
-13.4873 8.7679 0.8431 0.9376
-17.9416 8.7953 1.0472 0.9231
-83.1901 7.8315 4.3791 0.7156
-61.6815 -16.9426 3.3523 0.7740
-26.5513 -31.5541 2.1612 0.8477
-19.9714 -30.5581 1.9132 0.8640
-15.0872 -30.5880 1.7874 0.8723
-11.7120 -33.3658 1.8532 0.8679
2.4041 -98.7220 5.1753 0.6733
20.6722 -50.8279 2.8757 0.8027
29.7045 -40.9496 2.6512 0.8166
39.0008 -42.0152 3.0044 0.7948
57.1643 -37.5588 3.5846 0.7604
57.1964 -28.3848 3.3464 0.7743
66.1852 -6.5557 3.4856 0.7661
66.1324 1.4495 3.4667 0.7672
57.4879 15.4903 3.1203 0.7878
47.3868 19.1385 2.6783 0.8149
31.6485 17.4746 1.8947 0.8652
4.3232 8.6585 0.5072 0.9620
3.0877 8.6611 0.4819 0.9638
1.9524 8.6573 0.4651 0.9651
6.5970 64.9901 3.4235 0.7698
-0.1691 8.6804 0.4550 0.9658
-2.3171 8.6835 0.4710 0.9646
-4.7840 8.7144 0.5210 0.9610
-6.2634 8.7235 0.5628 0.9579
-8.0290 8.7344 0.6218 0.9536
-10.2436 8.7480 0.7060 0.9475
-13.2016 8.7662 0.8305 0.9385
-17.5030 8.7926 1.0265 0.9245
-24.5970 8.8362 1.3697 0.9006
-24.4467 2.5416 1.2881 0.9062
-60.4251 -15.9668 3.2754 0.7785
-59.9791 -42.8436 3.8630 0.7444
-27.0774 -31.5509 2.1790 0.8466
-20.3968 -30.5555 1.9253 0.8632
0.0221 5.7298 0.1000 0.9773
-1.0197 8.6913 0.1527 0.9656
-2.1049 8.6980 0.1562 0.9648
-5.9323 8.6832 0.1836 0.9588
-7.6587 8.7321 0.2027 0.9546
-22.9376 8.8497 0.4291 0.9063
-58.6104 -14.0326 1.0520 0.7858
-28.0220 -31.1501 0.7314 0.8457
-23.4916 -33.4731 0.7138 0.8491
-7.9704 -31.2136 0.5623 0.8791
-5.2650 -40.4716 0.7124 0.8494
32.2400 -87.4498 1.6269 0.6888
28.7726 -42.5575 0.8967 0.8142
34.4479 -24.3011 0.7358 0.8448
57.9162 13.5689 1.0383 0.7882
53.5665 19.6004 0.9956 0.7960
31.9487 21.4871 0.6721 0.8572
7.8458 8.6368 0.2037 0.9544
2.2482 8.6292 0.1557 0.9650
1.1661 8.6353 0.1521 0.9657
0.0781 5.7425 0.1002 0.9773
-3.1476 8.6675 0.1610 0.9638
-4.4043 8.6922 0.1701 0.9618
-7.5089 8.7312 0.2010 0.9550
-58.5784 -13.4236 1.0490 0.7863
-66.8288 -33.6575 1.3061 0.7413
-12.4699 -31.1860 0.5863 0.8743
-5.6657 -40.4691 0.7133 0.8492
27.1244 -54.1845 1.0577 0.7847
31.3339 -28.8845 0.7439 0.8433
31.9459 21.0366 0.6677 0.8581
10.1754 8.6225 0.2328 0.9480
6.2586 8.6466 0.1863 0.9582
3.5049 8.6431 0.1628 0.9634
2.3380 8.6287 0.1560 0.9649
1.2517 8.6348 0.1523 0.9657
0.2025 8.6838 0.1516 0.9658
-0.8485 8.6902 0.1524 0.9657
-1.9263 8.6969 0.1555 0.9650
-11.7906 33.4794 0.6196 0.8676
-4.2981 8.6915 0.1692 0.9620
-7.3615 8.7303 0.1993 0.9553
-22.8022 -31.1821 0.6743 0.8568
-12.8224 -31.1839 0.5885 0.8738
-8.6197 -31.2096 0.5652 0.8785
-6.0674 -40.4667 0.7142 0.8490
32.6559 -39.1124 0.8894 0.8156
33.0511 -24.2926 0.7160 0.8487
43.2169 -24.3550 0.8659 0.8200
47.0216 -19.4685 0.8883 0.8158
88.7944 -24.7566 1.6090 0.6916
24.7814 8.5247 0.4574 0.9005
41.5562 20.1744 0.8063 0.8313
10.3770 8.6213 0.2355 0.9475
8.1564 8.6349 0.2073 0.9536
6.3871 8.6458 0.1876 0.9579
4.8887 8.6256 0.1731 0.9611
2.4282 8.6282 0.1565 0.9648
0.2871 8.6833 0.1516 0.9658
-0.7631 8.6897 0.1523 0.9657
-1.8375 8.6963 0.1551 0.9651
-2.9596 8.6722 0.1599 0.9640
-4.1930 8.6908 0.1684 0.9621
-7.2166 8.7294 0.1977 0.9557
-9.2095 8.7416 0.2216 0.9505
-15.3847 8.7690 0.3091 0.9316
-76.5771 -6.5374 1.3415 0.7353
-20.2523 -35.3316 0.7108 0.8497
-13.5890 -32.1552 0.6093 0.8697
-8.9469 -31.2076 0.5667 0.8782
-6.4702 -40.4642 0.7153 0.8488
29.3644 -87.4321 1.6099 0.6914
32.0673 -39.1760 0.8837 0.8167
31.3269 -30.0265 0.7574 0.8406
32.3805 -24.2884 0.7065 0.8505
47.2865 -20.1194 0.8970 0.8142
93.2878 7.5069 1.6336 0.6877
10.5833 8.6200 0.2383 0.9469
8.3159 8.6339 0.2092 0.9532
6.5175 8.6450 0.1890 0.9576
3.7018 8.6420 0.1641 0.9631
0.3717 8.6827 0.1517 0.9658
-0.6779 8.6892 0.1521 0.9657
-2.8758 8.7027 0.1600 0.9640
-7.0732 8.7276 0.1961 0.9561
-9.0307 8.7405 0.2194 0.9510
-20.4184 8.8052 0.3881 0.9149
-53.0323 -24.7959 1.0219 0.7912
-13.7150 -31.5925 0.6012 0.8713
-9.2758 -31.2056 0.5682 0.8779
-4.0151 -84.2103 1.4716 0.7137
28.5215 -87.7419 1.6104 0.6914
40.6516 -87.4978 1.6841 0.6798
31.4310 -39.1701 0.8766 0.8180
31.7272 -24.2844 0.6974 0.8523
41.2960 -24.3432 0.8367 0.8255
34.6793 -15.1555 0.6606 0.8595
47.3774 9.1711 0.8423 0.8244
43.6727 20.1613 0.8396 0.8249
31.9602 19.7334 0.6556 0.8605
10.7945 8.6187 0.2411 0.9462
5.1295 8.6535 0.1756 0.9606
3.8015 8.6414 0.1648 0.9629
0.4563 8.6822 0.1518 0.9658
-2.7820 8.7021 0.1595 0.9641
-3.9858 8.6894 0.1669 0.9625
-17.6305 22.1920 0.4947 0.8928
-8.8555 8.7394 0.2172 0.9514
-11.3232 8.7546 0.2498 0.9443
-14.7226 8.7755 0.2992 0.9337
-66.1274 -30.1380 1.2685 0.7477
-3.8999 -67.8974 1.1871 0.7618
27.3656 -45.0537 0.9201 0.8099
30.8048 -39.1643 0.8697 0.8193
31.3196 -31.2114 0.7718 0.8379
56.7861 -25.4773 1.0864 0.7796
27.3278 8.5171 0.4996 0.8918
32.6602 19.7292 0.6660 0.8584
8.6215 8.6094 0.2127 0.9524
5.2435 8.6528 0.1766 0.9603
3.9021 8.6409 0.1655 0.9628
1.5967 8.6328 0.1532 0.9655
-0.5080 8.6881 0.1519 0.9658
-1.5736 8.6947 0.1542 0.9653
-2.6887 8.7016 0.1590 0.9642
-3.8836 8.6888 0.1661 0.9626
-5.2189 8.6871 0.1769 0.9603
-11.0541 8.7198 0.2458 0.9452
-14.3989 8.7735 0.2943 0.9348
-19.3560 8.7975 0.3711 0.9185
-20.6876 -33.7669 0.6912 0.8535
-14.4500 -31.5880 0.6063 0.8703
-9.9394 -31.2016 0.5716 0.8772
-6.6361 -34.9296 0.6206 0.8674
-4.3993 -65.4619 1.1452 0.7691
28.4843 -93.7978 1.7111 0.6756
38.5670 -87.4239 1.6679 0.6823
31.3159 -31.8209 0.7793 0.8364
39.4854 -24.3235 0.8095 0.8307
53.0312 -24.4154 1.0190 0.7917
76.8459 -24.6856 1.4088 0.7240
47.3616 8.2153 0.8390 0.8251
28.2746 8.5113 0.5154 0.8886
45.9723 20.1472 0.8761 0.8181
33.3824 19.7247 0.6768 0.8563
11.2327 8.6160 0.2471 0.9449
8.7967 8.6150 0.2149 0.9519
6.9203 8.6425 0.1933 0.9567
5.3589 8.6521 0.1776 0.9601
4.0035 8.6403 0.1662 0.9626
2.7999 8.6438 0.1586 0.9643
-0.4232 8.6876 0.1518 0.9658
-2.5961 8.7010 0.1585 0.9643
-10.8408 8.7240 0.2429 0.9459
-14.0854 8.7716 0.2896 0.9358
-27.1012 8.8516 0.4976 0.8922
-60.0745 -17.7654 1.0935 0.7783
-68.0337 -29.4217 1.2938 0.7434
-20.6831 -33.0335 0.6803 0.8556
-14.8223 -31.5857 0.6090 0.8697
-10.2742 -31.1995 0.5734 0.8769
-6.7137 -33.5537 0.5973 0.8721
29.5807 -39.1529 0.8565 0.8218
31.3059 -32.4362 0.7869 0.8350
51.6831 -24.4071 0.9977 0.7956
91.2422 -18.4874 1.6250 0.6890
29.2835 8.5050 0.5323 0.8852
34.1287 19.7201 0.6880 0.8541
12.1733 9.1507 0.2658 0.9409
8.9850 8.6298 0.2175 0.9514
7.0587 8.6416 0.1948 0.9563
0.7108 8.6807 0.1520 0.9658
-4.9966 8.6962 0.1751 0.9607
-8.3502 8.7363 0.2109 0.9528
-13.7816 8.7697 0.2851 0.9367
-60.1031 -17.1396 1.0909 0.7788
-17.0112 -35.3515 0.6848 0.8547
-3.4022 -16.1832 0.2887 0.9360
-5.7620 -66.3948 1.1633 0.7660
22.6603 -54.1991 1.0254 0.7906
37.8084 -24.3178 0.7847 0.8354
71.9146 -24.6553 1.3270 0.7378
47.8395 7.3424 0.8448 0.8240
34.8998 19.7154 0.6997 0.8518
12.2593 9.0301 0.2658 0.9409
4.2090 8.6391 0.1677 0.9623
1.8584 8.6314 0.1541 0.9653
-0.2538 8.6866 0.1517 0.9658
-2.4124 8.6999 0.1576 0.9645
-3.5824 8.6868 0.1640 0.9631
-4.8843 8.6954 0.1741 0.9609
-6.3658 8.6865 0.1880 0.9578
-8.1881 8.7353 0.2090 0.9532
-25.3298 8.8221 0.4682 0.8983
-83.2339 7.8356 1.4593 0.7157
-26.2207 -31.1612 0.7109 0.8497
-20.6231 -31.5553 0.6580 0.8600
-12.6073 -25.5601 0.4975 0.8922
-3.5627 -16.1639 0.2890 0.9359
27.1834 -48.9506 0.9773 0.7993
37.0102 -24.3169 0.7730 0.8376
69.5129 -24.5905 1.2870 0.7445
51.7020 7.4209 0.9115 0.8114
49.8257 20.1235 0.9380 0.8066
9.3399 8.6276 0.2219 0.9504
7.3422 8.6399 0.1979 0.9557
4.3133 8.6385 0.1685 0.9621
3.0821 8.6456 0.1602 0.9639
1.9464 8.6309 0.1544 0.9652
6.5970 64.9901 1.1402 0.7700
-1.2261 8.6926 0.1532 0.9655
-6.2361 8.6855 0.1866 0.9581
-13.2016 8.7662 0.2766 0.9386
-24.5786 8.8296 0.4559 0.9008
-22.5303 2.3424 0.3924 0.9134
-60.1598 -15.8966 1.0861 0.7796
-76.8169 -30.5907 1.4432 0.7184
-59.9905 -42.8518 1.2868 0.7446
-24.5229 -22.4325 0.5801 0.8755
-21.0624 -31.5526 0.6622 0.8592
-12.7866 -25.2999 0.4948 0.8928
-7.2000 -31.2183 0.5592 0.8797
-2.1049 8.6980 -0.1562 0.9648
-7.6587 8.7321 -0.2027 0.9546
-9.7690 8.7451 -0.2289 0.9489
-22.5595 8.7038 -0.4221 0.9078
-57.5741 7.3475 -1.0131 0.7928
-60.5959 -31.2612 -1.1902 0.7613
-61.4632 -53.6439 -1.4240 0.7215
-20.1198 -22.3658 -0.5251 0.8866
-13.8915 -19.7940 -0.4221 0.9078
-10.4318 -19.4969 -0.3860 0.9153
-7.6903 -19.7892 -0.3706 0.9186
32.2068 -87.3596 -1.6252 0.6890
22.5290 -33.3226 -0.7021 0.8514
31.2900 -36.0275 -0.8329 0.8262
45.2775 -24.3677 -0.8975 0.8141
48.7481 -19.0808 -0.9138 0.8110
53.5665 19.6005 -0.9956 0.7960
39.4065 20.0876 -0.7721 0.8378
9.9783 8.6237 -0.2302 0.9486
7.8458 8.6368 -0.2037 0.9544
4.6845 8.6537 -0.1718 0.9614
2.2397 8.5963 -0.1551 0.9651
1.1606 8.5945 -0.1514 0.9659
-0.9340 8.6908 -0.1526 0.9656
-3.1476 8.6675 -0.1610 0.9638
-4.3928 8.6695 -0.1696 0.9619
-12.2911 8.7606 -0.2635 0.9414
-16.0357 8.7311 -0.3187 0.9296
-21.9231 8.7043 -0.4117 0.9099
-56.3428 7.7483 -0.9927 0.7965
-75.9775 -7.9782 -1.3335 0.7367
-65.8456 -33.1624 -1.2869 0.7446
-20.8941 -22.7768 -0.5395 0.8837
-14.3447 -20.0224 -0.4299 0.9062
-13.4003 -33.5128 -0.6300 0.8655
-5.5968 -21.0610 -0.3804 0.9165
-3.1320 -22.3716 -0.3943 0.9136
-0.8656 -46.9055 -0.8189 0.8289
27.1509 -54.2376 -1.0587 0.7845
22.0281 -33.2751 -0.6966 0.8524
33.1146 -38.8862 -0.8915 0.8152
31.3339 -28.8845 -0.7439 0.8433
33.7400 -24.2968 -0.7257 0.8468
48.7447 -19.6285 -0.9172 0.8104
47.3283 -12.7005 -0.8553 0.8220
55.1977 19.5904 -1.0224 0.7911
37.5713 18.6938 -0.7325 0.8455
31.9459 21.0366 -0.6677 0.8581
10.1754 8.6225 -0.2328 0.9480
6.2586 8.6466 -0.1863 0.9582
25.6653 46.3293 -0.9245 0.8091
3.4961 8.6215 -0.1624 0.9635
2.3304 8.6006 -0.1555 0.9650
1.2458 8.5940 -0.1516 0.9659
-0.8485 8.6902 -0.1524 0.9657
-4.2869 8.6689 -0.1688 0.9620
-12.0393 8.7590 -0.2599 0.9422
-21.3804 8.7306 -0.4031 0.9117
-29.7878 8.1491 -0.5390 0.8838
-76.0428 -7.2378 -1.3333 0.7367
-76.0843 -26.5873 -1.4068 0.7244
-63.8599 -41.6082 -1.3304 0.7372
-60.9267 -51.1214 -1.3882 0.7275
-21.8423 -23.3503 -0.5581 0.8799
-10.8758 -19.4090 -0.3883 0.9148
-5.7578 -20.8474 -0.3775 0.9171
27.9480 -80.6074 -1.4892 0.7108
26.1575 -53.5486 -1.0402 0.7879
33.0511 -24.2926 -0.7160 0.8487
43.2169 -24.3550 -0.8659 0.8200
46.9528 -13.0908 -0.8508 0.8228
94.5087 8.5315 -1.6564 0.6841
24.4529 8.4117 -0.4514 0.9017
31.9432 20.5920 -0.6634 0.8590
6.3871 8.6458 -0.1876 0.9579
4.8887 8.6256 -0.1731 0.9611
2.4217 8.6049 -0.1560 0.9649
0.2871 8.6833 -0.1516 0.9658
-0.7631 8.6897 -0.1523 0.9657
-4.1822 8.6683 -0.1680 0.9622
-7.2166 8.7294 -0.1977 0.9557
-11.7943 8.7575 -0.2564 0.9429
-20.8595 8.7557 -0.3949 0.9135
-30.9665 8.7962 -0.5619 0.8792
-56.3357 8.8675 -0.9954 0.7960
-90.1801 3.2010 -1.5751 0.6970
-76.0395 -6.4915 -1.3321 0.7369
-41.0566 -8.5712 -0.7321 0.8455
-64.9081 -31.1219 -1.2565 0.7498
-8.2283 -19.4703 -0.3690 0.9189
-9.6144 -33.5360 -0.6089 0.8697
27.1344 -56.9468 -1.1011 0.7770
26.4946 -41.7656 -0.8633 0.8205
31.3269 -30.0265 -0.7574 0.8406
32.3805 -24.2884 -0.7065 0.8505
42.2400 -24.3490 -0.8510 0.8228
48.7379 -20.7369 -0.9245 0.8090
47.1790 -13.6500 -0.8573 0.8216
48.4647 9.8718 -0.8632 0.8205
31.9405 20.1530 -0.6592 0.8598
10.5833 8.6200 -0.2383 0.9469
6.5175 8.6450 -0.1890 0.9576
-0.6779 8.6892 -0.1521 0.9657
-1.7492 8.6958 -0.1548 0.9651
-7.0732 8.7276 -0.1961 0.9561
-9.0307 8.7405 -0.2194 0.9510
-11.5557 8.7560 -0.2531 0.9436
-20.2969 8.7528 -0.3858 0.9154
-27.6855 8.1563 -0.5038 0.8910
-56.3321 9.4296 -0.9970 0.7957
-76.1964 -5.7586 -1.3338 0.7366
-41.2826 -8.1999 -0.7347 0.8450
-76.1473 -24.9575 -1.3987 0.7257
-15.2123 -19.9753 -0.4383 0.9044
-11.6386 -19.8542 -0.4017 0.9120
-8.4828 -19.5401 -0.3718 0.9183
-3.7365 -21.9932 -0.3894 0.9146
28.4332 -87.4703 -1.6054 0.6921
40.6533 -87.5015 -1.6841 0.6798
22.7764 -36.6888 -0.7538 0.8413
31.3233 -30.6133 -0.7645 0.8393
31.7272 -24.2844 -0.6974 0.8523
41.2960 -24.3432 -0.8367 0.8255
48.9234 9.4704 -0.8698 0.8193
39.8534 18.3982 -0.7662 0.8389
31.9603 19.7334 -0.6556 0.8605
5.1295 8.6535 -0.1756 0.9606
3.7919 8.6195 -0.1644 0.9630
0.4563 8.6822 -0.1518 0.9658
-0.5929 8.6887 -0.1520 0.9658
-1.6612 8.6952 -0.1545 0.9652
-2.7820 8.7021 -0.1595 0.9641
-5.3172 8.6588 -0.1774 0.9602
-14.7226 8.7755 -0.2992 0.9337
-19.7918 8.7643 -0.3778 0.9170
-90.0997 15.9849 -1.5972 0.6934
-50.2426 -9.4724 -0.8924 0.8150
-75.9865 -24.0885 -1.3914 0.7269
-53.5685 -24.4142 -1.0277 0.7902
-15.7345 -20.2490 -0.4476 0.9025
-11.7769 -19.6492 -0.3999 0.9124
-8.6354 -19.3732 -0.3702 0.9186
-1.5519 -27.0177 -0.4724 0.8974
28.4152 -90.3980 -1.6540 0.6845
22.2488 -36.6297 -0.7481 0.8424
30.6353 -38.9487 -0.8649 0.8202
46.5985 -20.9066 -0.8915 0.8152
48.9204 8.9768 -0.8682 0.8196
40.7760 18.3448 -0.7805 0.8362
32.6602 19.7291 -0.6660 0.8584
11.0110 8.6174 -0.2441 0.9456
5.2435 8.6528 -0.1766 0.9603
1.5891 8.5917 -0.1525 0.9656
0.5411 8.6817 -0.1518 0.9658
-5.2051 8.6642 -0.1764 0.9604
-6.7261 8.6376 -0.1911 0.9571
-8.6838 8.7384 -0.2150 0.9519
-11.0541 8.7198 -0.2458 0.9452
-14.3989 8.7735 -0.2943 0.9348
-19.3305 8.7860 -0.3706 0.9186
-90.0940 16.8895 -1.6000 0.6930
-50.0212 -8.9276 -0.8869 0.8161
-76.0472 -23.2961 -1.3883 0.7275
-66.8995 -29.7074 -1.2777 0.7461
-63.1822 -37.7486 -1.2847 0.7449
-16.1941 -20.4271 -0.4550 0.9010
-8.8585 -19.3649 -0.3717 0.9183
-4.1313 -21.7457 -0.3864 0.9153
-1.7319 -25.7706 -0.4508 0.9018
31.3159 -31.8209 -0.7793 0.8364
31.3579 -24.9842 -0.6998 0.8518
39.4995 -24.3322 -0.8098 0.8306
73.7904 3.7745 -1.2897 0.7441
28.2746 8.5113 -0.5154 0.8886
41.7329 18.2893 -0.7953 0.8334
33.3824 19.7247 -0.6768 0.8563
6.9203 8.6425 -0.1933 0.9567
5.3589 8.6521 -0.1776 0.9601
2.7929 8.6223 -0.1582 0.9644
1.6755 8.5912 -0.1528 0.9656
0.6259 8.6812 -0.1519 0.9658
-1.4863 8.6942 -0.1540 0.9653
-2.5961 8.7010 -0.1585 0.9643
-3.7767 8.6751 -0.1652 0.9629
-6.5917 8.6370 -0.1896 0.9575
-8.5154 8.7374 -0.2130 0.9524
-14.0854 8.7716 -0.2896 0.9358
-57.5494 11.3693 -1.0239 0.7908
-57.5928 4.2930 -1.0081 0.7937
-62.8291 -36.7127 -1.2702 0.7474
-64.9713 -49.3358 -1.4240 0.7215
-12.3909 -19.7899 -0.4076 0.9108
-14.8223 -31.5857 -0.6090 0.8697
-4.3000 -21.4910 -0.3826 0.9161
37.5802 -87.4826 -1.6619 0.6832
29.4179 -38.9373 -0.8518 0.8226
31.3121 -32.4426 -0.7870 0.8350
74.6277 -24.7768 -1.3725 0.7301
94.3388 -19.1148 -1.6801 0.6804
73.8087 3.0556 -1.2894 0.7441
48.9143 7.9951 -0.8651 0.8201
29.2835 8.5050 -0.5323 0.8852
42.7269 18.2313 -0.8109 0.8304
12.1733 9.1507 -0.2658 0.9409
7.0587 8.6416 -0.1948 0.9563
4.0994 8.6262 -0.1667 0.9625
0.7108 8.6807 -0.1520 0.9658
-0.3385 8.6871 -0.1517 0.9658
-3.6786 8.6797 -0.1645 0.9630
-6.4592 8.6364 -0.1882 0.9578
-8.3502 8.7363 -0.2109 0.9528
-10.6598 8.7505 -0.2407 0.9463
-13.7816 8.7697 -0.2851 0.9367
-18.1642 8.6863 -0.3514 0.9226
-57.7950 4.8741 -1.0124 0.7929
-76.0211 -12.0462 -1.3435 0.7350
-60.3720 -17.2162 -1.0958 0.7779
-76.0838 -32.0278 -1.4409 0.7187
-17.1626 -20.8039 -0.4707 0.8977
-3.4021 -16.1830 -0.2886 0.9360
22.6998 -54.2937 -1.0272 0.7902
28.8232 -38.9318 -0.8455 0.8238
31.3517 -25.9925 -0.7109 0.8497
37.8146 -24.3218 -0.7848 0.8354
71.9146 -24.6553 -1.3270 0.7378
94.3329 -20.0709 -1.6834 0.6799
78.0211 2.4700 -1.3625 0.7318
30.3603 8.4984 -0.5503 0.8815
12.2593 9.0301 -0.2658 0.9409
9.1606 8.6287 -0.2197 0.9509
7.1993 8.6408 -0.1963 0.9560
2.9804 8.6249 -0.1593 0.9642
1.8495 8.5900 -0.1534 0.9655
-0.2538 8.6866 -0.1517 0.9658
-1.3126 8.6931 -0.1535 0.9654
-4.8712 8.6722 -0.1736 0.9610
-8.1881 8.7353 -0.2090 0.9532
-64.7288 -47.1945 -1.3983 0.7258
-17.7669 -21.1146 -0.4817 0.8955
-3.5626 -16.1636 -0.2888 0.9359
-2.3308 -24.1294 -0.4231 0.9076
23.9994 -88.2123 -1.5957 0.6937
35.5750 -87.4703 -1.6482 0.6854
31.3042 -33.7237 -0.8032 0.8319
37.0102 -24.3169 -0.7730 0.8376
49.1497 -24.3915 -0.9577 0.8029
57.6801 -12.8604 -1.0315 0.7894
57.4879 15.4903 -1.0392 0.7881
12.3453 8.9094 -0.2657 0.9409
5.7134 8.6499 -0.1809 0.9594
4.3121 8.6362 -0.1685 0.9621
6.5666 64.6902 -1.1350 0.7710
-1.2261 8.6926 -0.1532 0.9655
-2.3658 5.8989 -0.1109 0.9749
-6.1999 8.6351 -0.1856 0.9584
-24.5970 8.8362 -0.4562 0.9007
-22.5198 2.3413 -0.3952 0.9134
-76.1344 -10.5499 -1.3416 0.7353
-60.3264 -15.9407 -1.0891 0.7791
-76.2892 -30.3805 -1.4333 0.7200
-13.2417 -19.8369 -0.4163 0.9090
-9.8242 -19.4386 -0.3802 0.9166
-7.3142 -20.2057 -0.3751 0.9176
0.0221 5.7297 -0.3003 0.9773
-3.2554 8.6995 -0.4868 0.9635
-4.4878 8.6473 -0.5106 0.9617
-28.5721 7.2219 -1.5445 0.8887
-45.0793 0.2835 -2.3626 0.8348
-43.2157 -4.9635 -2.2797 0.8401
-44.7424 -16.6189 -2.5014 0.8260
-13.7986 -19.6616 -1.2589 0.9083
-10.2285 -19.1170 -1.1363 0.9168
-7.6440 -19.6699 -1.1060 0.9189
-5.3119 -20.8025 -1.1252 0.9176
-2.8625 -22.0037 -1.1629 0.9150
-0.3909 -44.8233 -2.3492 0.8356
11.0004 -46.4442 -2.5014 0.8260
21.1410 -41.2248 -2.4280 0.8306
25.1061 -37.1344 -2.3492 0.8356
31.2331 -28.2344 -2.2065 0.8448
46.2164 -11.9212 -2.5014 0.8260
47.7262 -0.5324 -2.5014 0.8260
44.5566 4.8980 -2.3492 0.8356
43.6432 10.2249 -2.3492 0.8356
26.3853 9.6546 -1.4725 0.8936
26.4458 13.4808 -1.5556 0.8879
26.5259 17.8399 -1.6753 0.8798
6.1318 8.6473 -0.5556 0.9584
3.3906 8.6006 -0.4845 0.9636
2.2342 8.5754 -0.4644 0.9651
0.0781 5.7424 -0.3010 0.9773
-2.0154 8.6974 -0.4679 0.9649
-4.3813 8.6468 -0.5080 0.9619
-7.5089 8.7312 -0.6035 0.9549
-9.5785 8.7439 -0.6797 0.9494
-12.2911 8.7606 -0.7910 0.9413
-21.7175 8.6226 -1.2246 0.9107
-36.8002 5.0608 -1.9468 0.8617
-45.0866 0.7223 -2.3632 0.8348
-43.4859 -4.5663 -2.2915 0.8393
-40.7994 -9.3495 -2.1936 0.8456
-39.7344 -26.4434 -2.5014 0.8260
-36.2631 -31.0332 -2.5014 0.8260
-20.7764 -22.6485 -1.6107 0.8842
-14.2312 -19.8640 -1.2806 0.9068
-10.5049 -19.1825 -1.1462 0.9161
-5.5458 -20.8691 -1.1317 0.9171
-3.0786 -21.9897 -1.1637 0.9149
-0.6882 -37.2905 -1.9546 0.8612
4.8690 -47.4801 -2.5014 0.8260
16.0735 -44.9412 -2.5014 0.8260
21.1239 -42.1978 -2.4731 0.8278
22.0281 -33.2751 -2.0914 0.8523
29.0621 -34.1274 -2.3492 0.8356
33.5931 -24.1910 -2.1695 0.8472
39.2631 -21.6261 -2.3492 0.8356
41.5804 -16.7436 -2.3492 0.8356
45.5426 -12.2213 -2.4712 0.8279
47.7187 -0.9967 -2.5014 0.8260
45.6261 4.5668 -2.4031 0.8322
26.4403 13.1554 -1.5477 0.8884
26.5185 17.4626 -1.6640 0.8806
10.1754 8.6225 -0.6990 0.9480
22.7656 41.0950 -2.4621 0.8285
3.4873 8.5999 -0.4863 0.9635
2.3247 8.5796 -0.4658 0.9650
-10.3821 29.4797 -1.6380 0.8823
-5.6457 8.6190 -0.5400 0.9596
-9.3920 8.7428 -0.6725 0.9499
-26.3488 7.2083 -1.4316 0.8964
-44.8659 6.6154 -2.3767 0.8339
-44.7326 -4.2576 -2.3549 0.8353
-44.7522 -15.6384 -2.4844 0.8271
-36.5633 -30.6789 -2.5014 0.8260
-14.3992 -19.6909 -1.2784 0.9069
-10.7220 -19.1346 -1.1495 0.9159
-8.0159 -19.4947 -1.1047 0.9190
-5.6770 -20.5551 -1.1176 0.9181
-3.2855 -21.9130 -1.1612 0.9151
-0.8017 -28.4405 -1.4911 0.8923
20.9137 -42.8137 -2.4972 0.8263
31.2262 -29.3524 -2.2460 0.8423
39.0508 -22.0072 -2.3492 0.8356
41.4155 -17.1474 -2.3492 0.8356
45.9757 -12.8184 -2.5014 0.8260
47.1842 -7.1920 -2.5014 0.8260
10.3770 8.6213 -0.7070 0.9474
4.8887 8.6256 -0.5196 0.9611
3.5861 8.6021 -0.4884 0.9634
2.4157 8.5838 -0.4673 0.9649
-0.7631 8.6897 -0.4572 0.9657
-1.8375 8.6963 -0.4658 0.9650
-2.9596 8.6722 -0.4802 0.9640
-4.1764 8.6563 -0.5037 0.9622
-9.2095 8.7416 -0.6655 0.9504
-20.6897 8.6844 -1.1759 0.9140
-44.8157 7.0542 -2.3776 0.8338
-38.3302 -8.0019 -2.0521 0.8548
-22.8070 -23.9110 -1.7318 0.8760
-11.0254 -19.2347 -1.1619 0.9150
-8.1627 -19.3150 -1.0989 0.9194
-3.4587 -21.6309 -1.1480 0.9160
-1.0479 -27.6263 -1.4489 0.8952
3.9442 -47.5659 -2.5014 0.8260
9.6401 -46.7455 -2.5014 0.8260
15.1959 -45.2455 -2.5014 0.8260
28.3924 -34.6866 -2.3492 0.8356
31.2227 -29.9266 -2.2666 0.8409
32.2395 -24.1827 -2.1121 0.8509
41.9549 -12.1385 -2.2889 0.8395
47.6903 -1.9252 -2.5014 0.8260
47.5754 3.8284 -2.5014 0.8260
43.9231 8.9467 -2.3492 0.8356
24.9419 8.3094 -1.3778 0.9001
10.5833 8.6200 -0.7153 0.9468
3.6868 8.6069 -0.4907 0.9632
1.4102 8.5522 -0.4543 0.9659
-0.6779 8.6892 -0.4568 0.9657
-2.8758 8.7027 -0.4803 0.9640
-4.0753 8.6611 -0.5016 0.9624
-9.0307 8.7405 -0.6587 0.9509
-11.5557 8.7560 -0.7598 0.9436
-15.0476 8.7720 -0.9128 0.9326
-44.7609 7.4927 -2.3785 0.8338
-45.0814 2.0396 -2.3650 0.8346
-40.4841 -8.0413 -2.1631 0.8476
-43.7387 -14.3355 -2.4122 0.8316
-43.2365 -20.2158 -2.5014 0.8260
-40.4892 -25.2724 -2.5014 0.8260
-1.2975 -27.2122 -1.4277 0.8966
1.8856 -25.7836 -1.3549 0.9016
22.7764 -36.6888 -2.2632 0.8412
28.0536 -34.9619 -2.3492 0.8356
34.5341 -15.0920 -1.9751 0.8599
47.6693 -2.3891 -2.5014 0.8260
44.0080 8.5189 -2.3492 0.8356
25.8820 8.3437 -1.4252 0.8968
27.1438 12.5308 -1.5668 0.8871
26.4975 16.3605 -1.6320 0.8827
5.1295 8.6535 -0.5272 0.9605
2.5996 8.5923 -0.4705 0.9647
1.4957 8.5516 -0.4550 0.9658
-0.5929 8.6887 -0.4564 0.9657
-6.8216 8.5865 -0.5747 0.9570
-19.7399 8.7413 -1.1314 0.9172
-25.3612 7.7405 -1.3897 0.8992
-44.7017 7.9306 -2.3793 0.8337
-45.0707 2.4788 -2.3656 0.8346
-40.8118 -7.6944 -2.1765 0.8467
-43.4312 -19.7941 -2.5014 0.8260
-40.7332 -24.8772 -2.5014 0.8260
-31.5638 -31.8278 -2.3492 0.8356
-11.6509 -19.4390 -1.1877 0.9132
-1.5032 -26.1708 -1.3738 0.9003
3.0177 -47.6337 -2.5014 0.8260
14.3125 -45.5327 -2.5014 0.8260
19.6885 -43.4791 -2.5014 0.8260
23.2704 -38.3115 -2.3492 0.8356
27.7122 -35.2323 -2.3492 0.8356
31.2154 -31.1076 -2.3096 0.8382
31.2566 -24.4100 -2.0784 0.8531
39.0788 -12.1354 -2.1445 0.8488
47.6438 -2.8529 -2.5014 0.8260
47.6409 2.9018 -2.5014 0.8260
27.1050 8.4476 -1.4879 0.8925
8.6215 8.6094 -0.6385 0.9524
5.2435 8.6528 -0.5302 0.9603
3.8911 8.6164 -0.4955 0.9628
2.6925 8.5966 -0.4721 0.9646
1.5815 8.5509 -0.4557 0.9658
0.5411 8.6817 -0.4559 0.9658
-0.5080 8.6881 -0.4561 0.9657
-5.1913 8.6413 -0.5283 0.9604
-6.6862 8.5863 -0.5703 0.9573
-8.6838 8.7384 -0.6456 0.9519
-11.0541 8.7198 -0.7379 0.9452
-14.3989 8.7735 -0.8837 0.9347
-19.2914 8.7682 -1.1105 0.9186
-25.3948 8.0216 -1.3957 0.8988
-44.6381 8.3681 -2.3801 0.8337
-45.0686 2.9186 -2.3669 0.8345
-44.9266 -2.5173 -2.3582 0.8351
-41.1435 -7.3432 -2.1903 0.8459
-42.8591 -13.1293 -2.3492 0.8356
-40.9733 -24.4798 -2.5014 0.8260
-31.8720 -31.5192 -2.3492 0.8356
-15.9046 -20.0620 -1.3417 0.9025
-8.7676 -19.1663 -1.1046 0.9190
-4.0850 -21.5019 -1.1470 0.9161
8.2717 -47.0069 -2.5014 0.8260
27.3680 -35.5004 -2.3492 0.8356
31.2117 -31.7150 -2.3320 0.8367
31.2536 -24.9011 -2.0942 0.8521
37.9255 -23.3625 -2.3344 0.8366
40.7170 -18.7459 -2.3492 0.8356
38.3831 -12.3300 -2.1128 0.8509
44.1655 7.6609 -2.3492 0.8356
28.2746 8.5113 -1.5475 0.8885
26.4144 11.5760 -1.5114 0.8909
11.2327 8.6160 -0.7419 0.9449
8.7967 8.6150 -0.6453 0.9519
6.9203 8.6425 -0.5802 0.9566
5.3589 8.6521 -0.5334 0.9601
3.9947 8.6213 -0.4980 0.9627
1.6676 8.5503 -0.4565 0.9657
0.6259 8.6812 -0.4561 0.9657
-0.4232 8.6876 -0.4558 0.9658
-5.0808 8.6468 -0.5256 0.9606
-6.5528 8.5861 -0.5661 0.9577
-8.5154 8.7374 -0.6394 0.9523
-10.8408 8.7240 -0.7293 0.9458
-14.0854 8.7716 -0.8696 0.9357
-25.3932 8.2937 -1.4000 0.8985
-36.7857 7.2673 -1.9651 0.8605
-45.0616 3.3590 -2.3681 0.8344
-44.9708 -2.0810 -2.3593 0.8350
-41.4491 -6.9822 -2.2029 0.8450
-43.8081 -18.9452 -2.5014 0.8260
-16.5360 -20.4465 -1.3781 0.9000
-6.6245 -20.1166 -1.1100 0.9187
-4.2779 -21.3803 -1.1426 0.9164
-1.9056 -24.7520 -1.3010 0.9053
1.9631 -44.7820 -2.3492 0.8356
18.8385 -43.8541 -2.5014 0.8260
22.0636 -37.9709 -2.3015 0.8387
22.0472 -29.1816 -1.9167 0.8637
31.1291 -32.2531 -2.3492 0.8356
31.2505 -25.3997 -2.1105 0.8510
46.7786 -9.4782 -2.5014 0.8260
29.2835 8.5050 -1.5981 0.8850
26.4096 11.2688 -1.5048 0.8914
27.6133 15.9554 -1.6714 0.8801
12.1733 9.1507 -0.7981 0.9408
8.9850 8.6298 -0.6529 0.9513
1.7547 8.5531 -0.4576 0.9656
-0.3385 8.6871 -0.4556 0.9658
-1.3993 8.6936 -0.4615 0.9653
-2.5040 8.7004 -0.4745 0.9644
-10.6598 8.7505 -0.7228 0.9463
-44.4980 9.2418 -2.3818 0.8336
-45.0502 3.7992 -2.3694 0.8344
-44.9945 -1.6434 -2.3596 0.8350
-44.2726 -7.0154 -2.3492 0.8356
-41.4420 -23.6776 -2.5014 0.8260
-38.2912 -28.4931 -2.5014 0.8260
-17.0599 -20.6793 -1.4049 0.8982
-12.4134 -19.4033 -1.2072 0.9119
-6.7988 -19.9889 -1.1065 0.9189
12.9774 -45.9310 -2.5014 0.8260
18.4109 -44.0354 -2.5014 0.8260
22.1422 -38.9744 -2.3492 0.8356
21.7915 -29.4341 -1.9193 0.8636
28.8539 -30.4837 -2.1998 0.8452
37.6500 -24.2160 -2.3461 0.8358
38.1857 -13.0917 -2.1156 0.8507
47.5403 -4.2421 -2.5014 0.8260
47.7053 1.5102 -2.5014 0.8260
26.4717 14.9542 -1.5934 0.8853
4.2052 8.6312 -0.5032 0.9623
2.9731 8.6037 -0.4771 0.9642
-0.2538 8.6866 -0.4554 0.9658
-1.3126 8.6931 -0.4607 0.9654
-2.4454 5.9299 -0.3362 0.9746
-4.8582 8.6490 -0.5199 0.9610
-13.4873 8.7679 -0.8431 0.9376
-23.7337 8.2662 -1.3171 0.9042
-44.4213 9.6775 -2.3826 0.8335
-43.2240 -11.8727 -2.3492 0.8356
-44.1685 -18.0891 -2.5014 0.8260
-34.9020 -32.5564 -2.5014 0.8260
-12.8613 -19.6791 -1.2321 0.9101
-3.5625 -16.1632 -0.8674 0.9359
-2.2671 -23.4701 -1.2357 0.9099
6.8961 -47.2283 -2.5014 0.8260
30.4956 -32.8527 -2.3492 0.8356
31.2442 -26.4207 -2.1444 0.8488
36.8491 -24.2110 -2.3107 0.8381
40.1524 -19.9264 -2.3492 0.8356
38.2119 -13.5176 -2.1242 0.8501
46.5853 -10.3867 -2.5014 0.8260
47.4967 -4.7046 -2.5014 0.8260
47.7177 1.0459 -2.5014 0.8260
44.3703 6.3685 -2.3492 0.8356
21.2221 8.5711 -1.1995 0.9124
3.0669 8.6030 -0.4787 0.9641
1.9307 8.5613 -0.4599 0.9655
-0.1692 8.6861 -0.4553 0.9658
-1.2261 8.6926 -0.4601 0.9654
-2.3654 5.8979 -0.3330 0.9749
-10.2436 8.7480 -0.7060 0.9475
-17.2559 8.6685 -1.0120 0.9256
-44.3402 10.1130 -2.3834 0.8335
-22.5107 2.3404 -1.1861 0.9133
-45.0438 -0.7680 -2.3610 0.8349
-44.3716 -6.1485 -2.3476 0.8357
-43.3375 -11.4515 -2.3492 0.8356
-41.8949 -22.8667 -2.5014 0.8260
-38.8384 -27.7426 -2.5014 0.8260
-24.4628 -22.3775 -1.7375 0.8756
-18.1398 -21.1367 -1.4597 0.8944
-13.0778 -19.5912 -1.2345 0.9100
-7.2102 -19.9184 -1.1102 0.9187
-1.0197 8.6913 -0.7656 0.9655
-2.1049 8.6980 -0.7829 0.9647
-21.5507 8.3146 -2.0209 0.9114
-26.0427 6.5826 -2.3501 0.8978
-23.8788 3.0474 -2.1061 0.9079
-28.4041 -3.2624 -2.5014 0.8915
-27.8050 -6.6571 -2.5014 0.8915
-13.6881 -19.5041 -2.0847 0.9088
-5.2408 -20.5239 -1.8532 0.9185
-2.8359 -21.7994 -1.9233 0.9155
-0.2342 -26.8502 -2.3492 0.8978
13.0465 -25.4407 -2.5014 0.8915
16.0135 -23.6856 -2.5014 0.8915
18.7477 -21.5862 -2.5014 0.8915
27.6847 -7.1411 -2.5014 0.8915
28.3429 -3.7573 -2.5014 0.8915
23.9787 12.2232 -2.3547 0.8976
6.1318 8.6473 -0.9274 0.9583
4.6845 8.6537 -0.8609 0.9613
3.3875 8.5928 -0.8081 0.9636
1.1497 8.5137 -0.7516 0.9661
-0.9340 8.6908 -0.7647 0.9655
-2.0154 8.6974 -0.7811 0.9648
-3.1476 8.6675 -0.8068 0.9637
-4.3812 8.6467 -0.8481 0.9618
-7.5089 8.7312 -1.0075 0.9548
-15.8209 8.6141 -1.5760 0.9302
-21.2096 8.4210 -1.9965 0.9124
-23.9717 3.2966 -2.1170 0.9074
-23.8018 -15.8402 -2.5014 0.8915
-14.0016 -19.5436 -2.1034 0.9080
-7.7014 -19.2604 -1.8148 0.9201
-0.4954 -26.8466 -2.3492 0.8978
6.3184 -27.8839 -2.5014 0.8915
18.5367 -21.7676 -2.5014 0.8915
23.1579 -16.6764 -2.4967 0.8917
25.0433 -13.7939 -2.5014 0.8915
28.3050 -4.0329 -2.5014 0.8915
28.5846 -0.5971 -2.5014 0.8915
28.4487 2.8475 -2.5014 0.8915
24.0505 8.5359 -2.2327 0.9026
10.1754 8.6225 -1.1669 0.9479
6.2586 8.6466 -0.9338 0.9580
13.2850 23.9812 -2.3985 0.8958
3.4863 8.5975 -0.8117 0.9634
2.3190 8.5586 -0.7758 0.9650
1.2341 8.5131 -0.7526 0.9661
-0.8485 8.6902 -0.7639 0.9655
-1.9263 8.6969 -0.7793 0.9649
-9.1372 25.9450 -2.4065 0.8954
-7.3615 8.7303 -0.9991 0.9552
-26.8423 0.6913 -2.3492 0.8978
-28.4622 -2.7090 -2.5014 0.8915
-27.9293 -6.1148 -2.5014 0.8915
-26.9904 -9.4317 -2.5014 0.8915
-23.9548 -15.6079 -2.5014 0.8915
-10.7193 -19.1297 -1.9185 0.9157
-7.8885 -19.1845 -1.8148 0.9201
-3.2366 -21.5869 -1.9097 0.9161
-0.7566 -26.8405 -2.3492 0.8978
9.3660 -27.0133 -2.5014 0.8915
12.5489 -25.6897 -2.5014 0.8915
20.8322 -19.5821 -2.5014 0.8915
24.9079 -14.0369 -2.5014 0.8915
28.2644 -4.3082 -2.5014 0.8915
28.5775 -0.8752 -2.5014 0.8915
26.2576 5.6150 -2.3492 0.8978
25.3909 8.7343 -2.3492 0.8978
24.1938 11.7454 -2.3529 0.8976
10.3770 8.6213 -1.1803 0.9473
8.1564 8.6349 -1.0392 0.9534
3.5861 8.6021 -0.8154 0.9633
2.4098 8.5627 -0.7782 0.9649
1.3187 8.5126 -0.7536 0.9660
0.2871 8.6833 -0.7601 0.9657
-0.7631 8.6897 -0.7632 0.9656
-1.8375 8.6963 -0.7776 0.9649
-2.9596 8.6722 -0.8017 0.9639
-5.5154 8.6015 -0.8940 0.9598
-7.2166 8.7294 -0.9909 0.9555
-9.2095 8.7416 -1.1109 0.9503
-11.7943 8.7575 -1.2852 0.9427
-20.3640 8.5476 -1.9322 0.9151
-25.5813 7.2665 -2.3266 0.8987
-27.9875 -5.8428 -2.5014 0.8915
-27.0809 -9.1686 -2.5014 0.8915
-25.7806 -12.3612 -2.5014 0.8915
-24.1055 -15.3741 -2.5014 0.8915
-22.0800 -18.1634 -2.5014 0.8915
-18.5329 -19.4299 -2.3492 0.8978
-14.6460 -19.6249 -2.1424 0.9064
-8.0747 -19.1068 -1.8148 0.9201
